0.0999606252 -0.1650708318 -0.2319715619
0.1010296941 -0.1650329977 -0.2323417664
0.1021000668 -0.1649931073 -0.2327082008
0.1028937995 -0.1653512418 -0.2339441925
0.1039703041 -0.1653070748 -0.2343043238
0.1053183451 -0.1648610681 -0.2337848395
0.1063934863 -0.1648129225 -0.2341361493
0.1069441065 -0.1655616164 -0.2362401485
0.1072517559 -0.1667067707 -0.2392246276
0.1078384295 -0.1674496382 -0.2413317114
0.1084412858 -0.1681896299 -0.2434396297
0.1093081608 -0.1685280353 -0.2446652651
0.1106717512 -0.1680669636 -0.2441210002
0.1117886379 -0.1680024713 -0.2444557697
0.0126944864 -0.1651753038 -0.1941163838
0.0142048160 -0.1649211943 -0.1940722167
0.0151407430 -0.1650550365 -0.1947424114
0.0166466404 -0.1647954285 -0.1946849972
0.0181486849 -0.1645328999 -0.1946198493
0.0196468029 -0.1642674357 -0.1945470423
0.0205831621 -0.1643917263 -0.1951977164
0.0220766310 -0.1641208977 -0.1951117665
0.0235660244 -0.1638471633 -0.1950182021
0.0245032776 -0.1639645100 -0.1956548691
0.0259878021 -0.1636854857 -0.1955482811
0.0269266162 -0.1637983471 -0.1961763203
0.0278677586 -0.1639091671 -0.1968012005
0.0282762293 -0.1644134223 -0.1981693357
0.0297571812 -0.1641247123 -0.1980411857
0.0301769059 -0.1646256298 -0.1994072050
0.0311307330 -0.1647286713 -0.2000212222
0.0326087885 -0.1644327044 -0.1998769045
0.0340824872 -0.1641340256 -0.1997251213
0.0350365862 -0.1642302573 -0.2003251314
0.0359929167 -0.1643244177 -0.2009218633
0.0369514935 -0.1644165516 -0.2015153319
0.0379123315 -0.1645066291 -0.2021055222
0.0388753489 -0.1645946503 -0.2026923746
0.0398405865 -0.1646806449 -0.2032759190
0.0408080034 -0.1647645980 -0.2038561851
0.0417775922 -0.1648464948 -0.2044330835
0.0427493230 -0.1649263650 -0.2050067037
0.0432382487 -0.1654044539 -0.2063544542
0.0446992256 -0.1650799364 -0.2061437964
0.0456773490 -0.1651536375 -0.2067073137
0.0471323207 -0.1648242623 -0.2064840645
0.0481111966 -0.1648935974 -0.2070388943
0.0490921363 -0.1649609357 -0.2075903863
0.0500751436 -0.1650261730 -0.2081384510
0.0510601662 -0.1650893986 -0.2086831182
0.0520472080 -0.1651505530 -0.2092244029
0.0530362539 -0.1652096808 -0.2097622901
0.0544779226 -0.1648641378 -0.2094999552
0.0550202802 -0.1653217524 -0.2108277828
0.0560152382 -0.1653747261 -0.2113553733
0.0570121370 -0.1654256284 -0.2118795365
0.0580109619 -0.1654744595 -0.2124002576
0.0585784912 -0.1659247726 -0.2137234062
0.0595846437 -0.1659696549 -0.2142390013
0.0605926774 -0.1660124958 -0.2147510946
0.0624479130 -0.1652453840 -0.2136370987
0.0634526163 -0.1652838290 -0.2141386718
0.0640435144 -0.1657243967 -0.2154515684
0.0650554076 -0.1657588780 -0.2159478962
0.0660690814 -0.1657912433 -0.2164407074
0.0670845583 -0.1658215672 -0.2169300020
0.0681018159 -0.1658498496 -0.2174157798
0.0695186779 -0.1654713154 -0.2170746028
0.0705358386 -0.1654953808 -0.2175516039
0.0719454363 -0.1651124954 -0.2171984017
0.0729624480 -0.1651323885 -0.2176666856
0.0739811584 -0.1651502103 -0.2181313932
0.0753814802 -0.1647609025 -0.2177609801
0.0763998777 -0.1647745818 -0.2182169557
0.0774199292 -0.1647862196 -0.2186693698
0.0784415677 -0.1647958457 -0.2191183120
0.0790992603 -0.1652086526 -0.2204016149
0.0801277310 -0.1652141809 -0.2208448797
0.0811577439 -0.1652176678 -0.2212845981
0.0821892992 -0.1652190983 -0.2217207104
0.0835734233 -0.1648132205 -0.2213090956
0.0846044198 -0.1648105681 -0.2217364758
0.0856369063 -0.1648058444 -0.2221602052
0.0866708830 -0.1647991091 -0.2225803882
0.0873699188 -0.1651955247 -0.2238470167
0.0884104595 -0.1651846468 -0.2242613733
0.0894524828 -0.1651717424 -0.2246720791
0.0908212885 -0.1647517234 -0.2242246866
0.0918624699 -0.1647347361 -0.2246266454
0.0932230204 -0.1643108279 -0.2241677046
0.0936345607 -0.1650995463 -0.2262782753
0.0943728760 -0.1654811502 -0.2275306731
0.0954268649 -0.1654558480 -0.2279207408
0.0961789414 -0.1658330709 -0.2291698456
0.0969397500 -0.1662080139 -0.2304179072
0.0985967889 -0.1653676033 -0.2290686369
0.0996560380 -0.1653340459 -0.2294437736
0.1001397297 -0.1661067307 -0.2315513641
0.1012089550 -0.1660688072 -0.2319216430
0.1022793949 -0.1660288274 -0.2322881818
0.1030738726 -0.1663904786 -0.2335227728
0.1041504741 -0.1663462371 -0.2338830382
0.1054980084 -0.1658965200 -0.2333651036
0.1063072458 -0.1662514955 -0.2345920503
0.1068629622 -0.1670071185 -0.2366945148
0.1074348390 -0.1677599102 -0.2387978435
0.1082775816 -0.1681072265 -0.2400230020
0.1088780090 -0.1688544750 -0.2421268970
0.1097418591 -0.1691965461 -0.2433500141
0.1111011282 -0.1687319726 -0.2428061813
0.0222486872 -0.1651562005 -0.1946839392
0.0237376709 -0.1648792475 -0.1945917755
0.0246750880 -0.1649968773 -0.1952283233
0.0261591654 -0.1647146195 -0.1951231658
0.0265571196 -0.1652260572 -0.1964918673
0.0275017340 -0.1653375477 -0.1971187443
0.0279142279 -0.1658460796 -0.1984875202
0.0293980408 -0.1655544043 -0.1983629018
0.0303496812 -0.1656597853 -0.1989801377
0.0313037150 -0.1657630950 -0.1995940804
0.0327812955 -0.1654638350 -0.1994511783
0.0337366089 -0.1655626893 -0.2000564933
0.0352087915 -0.1652583182 -0.1999007314
0.0356540009 -0.1657542437 -0.2012572736
0.0366160907 -0.1658469290 -0.2018527091
0.0375804044 -0.1659375876 -0.2024448812
0.0390482210 -0.1656237096 -0.2022677213
0.0400135852 -0.1657099724 -0.2028512508
0.0409811512 -0.1657941490 -0.2034314275
0.0419508927 -0.1658762693 -0.2040082812
0.0429227874 -0.1659563482 -0.2045818418
0.0434124880 -0.1664382368 -0.2059280574
0.0448729917 -0.1661103517 -0.2057188451
0.0458512716 -0.1661842465 -0.2062823325
0.0473057777 -0.1658514589 -0.2060604990
0.0482847914 -0.1659210324 -0.2066153139
0.0492658950 -0.1659885198 -0.2071667165
0.0502490401 -0.1660539806 -0.2077147514
0.0507738180 -0.1665229499 -0.2090490758
0.0517644472 -0.1665844917 -0.2095921934
0.0527570993 -0.1666439921 -0.2101319283
0.0542017408 -0.1662952155 -0.2098729610
0.0547483452 -0.1667567939 -0.2112011015
0.0561900027 -0.1664034873 -0.2109315395
0.0567474551 -0.1668613255 -0.2122565061
0.0577499196 -0.1669104695 -0.2127790004
0.0587542914 -0.1669575721 -0.2132980675
0.0597605631 -0.1670026034 -0.2138136178
0.0607687198 -0.1670455784 -0.2143256962
0.0626228824 -0.1662713736 -0.2132146806
0.0632091835 -0.1667175889 -0.2145278305
0.0642193854 -0.1667542160 -0.2150276452
0.0648199394 -0.1671967059 -0.2163390368
0.0662452057 -0.1668212861 -0.2160167992
0.0668564439 -0.1672598571 -0.2173245698
0.0682781860 -0.1668800712 -0.2169918865
0.0696945563 -0.1664980054 -0.2166522294
0.0707118511 -0.1665221602 -0.2171292454
0.0717308745 -0.1665442586 -0.2176027149
0.0731381103 -0.1661557108 -0.2172458172
0.0737739876 -0.1665822417 -0.2185390592
0.0751774088 -0.1661894619 -0.2181717306
0.0765752718 -0.1657944769 -0.2177976370
0.0772233009 -0.1662149727 -0.2190834582
0.0782486796 -0.1662246585 -0.2195339352
0.0792756602 -0.1662322730 -0.2199808657
0.0799429491 -0.1666466892 -0.2212622166
0.0809767023 -0.1666502357 -0.2217035443
0.0820120275 -0.1666516811 -0.2221412063
0.0830488950 -0.1666510850 -0.2225752622
0.0844340250 -0.1662395746 -0.2221615613
0.0854702666 -0.1662348658 -0.2225868851
0.0865080133 -0.1662281007 -0.2230085582
0.0872114599 -0.1666280627 -0.2242752165
0.0885878876 -0.1662083864 -0.2238410264
0.0896300152 -0.1661954820 -0.2242517769
0.0906735361 -0.1661804616 -0.2246588916
0.0920395851 -0.1657548100 -0.2242079377
0.0930822119 -0.1657357812 -0.2246063203
0.0938125104 -0.1661231965 -0.2258582562
0.0945515633 -0.1665083319 -0.2271092236
0.0963584706 -0.1668637693 -0.2287470549
0.0971200243 -0.1672422588 -0.2299937010
0.0984807163 -0.1668025404 -0.2295113951
0.0995437354 -0.1667688191 -0.2298879772
0.1003203019 -0.1671407521 -0.2311273366
0.1011055782 -0.1675103754 -0.2323655784
0.1021798626 -0.1674701720 -0.2327334881
0.1032553464 -0.1674278975 -0.2330976129
0.1040592194 -0.1677906960 -0.2343295515
0.1051408574 -0.1677441001 -0.2346873283
0.1062237024 -0.1676954180 -0.2350412756
0.1067844927 -0.1684579551 -0.2371420562
0.1073614880 -0.1692176610 -0.2392437905
0.1084627882 -0.1691619605 -0.2395909578
0.1093149409 -0.1695102155 -0.2408131510
0.1101757064 -0.1698559672 -0.2420337647
0.1115306914 -0.1693878472 -0.2414903492
0.0233609919 -0.1663100719 -0.1948943585
0.0243017990 -0.1664284468 -0.1955330372
0.0252450425 -0.1665447652 -0.1961684972
0.0261906739 -0.1666589975 -0.1968007088
0.0276758578 -0.1663689762 -0.1966883540
0.0280891340 -0.1668813378 -0.1980554909
0.0290419068 -0.1669894159 -0.1986780018
0.0299970303 -0.1670954227 -0.1992972791
0.0314784572 -0.1667956412 -0.1991633028
0.0333936736 -0.1669966280 -0.2003812641
0.0358287692 -0.1667843014 -0.2008277178
0.0362836421 -0.1672826558 -0.2021835297
0.0377555043 -0.1669681072 -0.2020151764
0.0387221873 -0.1670569479 -0.2026039660
0.0396910794 -0.1671437174 -0.2031894475
0.0411560759 -0.1668218225 -0.2030030042
0.0421259739 -0.1669041812 -0.2035798281
0.0430979952 -0.1669844687 -0.2041533142
0.0435884446 -0.1674701422 -0.2054979950
0.0450484902 -0.1671389192 -0.2052902579
0.0460269228 -0.1672130078 -0.2058536708
0.0474809483 -0.1668768525 -0.2056332976
0.0484601222 -0.1669465899 -0.2061880380
0.0494413599 -0.1670142859 -0.2067394406
0.0504246391 -0.1670799106 -0.2072874308
0.0509501658 -0.1675526351 -0.2086201906
0.0514846183 -0.1680237502 -0.2099533379
0.0529337227 -0.1676740199 -0.2097029835
0.0539284982 -0.1677316278 -0.2102392763
0.0549252592 -0.1677871495 -0.2107721269
0.0559239797 -0.1678406000 -0.2113015205
0.0569246374 -0.1678919941 -0.2118274868
0.0574917458 -0.1683518142 -0.2131511122
0.0584997609 -0.1683992296 -0.2136719525
0.0595096759 -0.1684445292 -0.2141892910
0.0605214760 -0.1684877872 -0.2147031873
0.0619566031 -0.1681178063 -0.2144052237
0.0629686117 -0.1681567580 -0.2149102986
0.0639824942 -0.1681935936 -0.2154118717
0.0649981573 -0.1682283878 -0.2159099281
0.0660156533 -0.1682610959 -0.2164044678
0.0666311905 -0.1687034518 -0.2177124470
0.0680559948 -0.1683202684 -0.2173829377
0.0694754124 -0.1679348350 -0.2170465291
0.0704964027 -0.1679591089 -0.2175251842
0.0715191290 -0.1679813713 -0.2180003524
0.0729294494 -0.1675893664 -0.2176465988
0.0735696703 -0.1680196077 -0.2189399600
0.0749761611 -0.1676233560 -0.2185758203
0.0763771161 -0.1672248989 -0.2182048559
0.0774010047 -0.1672366858 -0.2186589539
0.0784264952 -0.1672464162 -0.2191094756
0.0790893212 -0.1676665097 -0.2203914076
0.0801216140 -0.1676721275 -0.2208363414
0.0807984620 -0.1680881828 -0.2221157849
0.0818375275 -0.1680896282 -0.2225550115
0.0832279027 -0.1676765829 -0.2221494913
0.0846125185 -0.1672614813 -0.2217373252
0.0853064060 -0.1676692069 -0.2230068147
0.0863479152 -0.1676624119 -0.2234300226
0.0873908997 -0.1676535606 -0.2238495797
0.0884353220 -0.1676426530 -0.2242655158
0.0894812346 -0.1676296294 -0.2246777564
0.0905285180 -0.1676146090 -0.2250864059
0.0918977186 -0.1671852916 -0.2246384472
0.0929441378 -0.1671661437 -0.2250382751
0.0936788768 -0.1675570011 -0.2262901217
0.0944223329 -0.1679456532 -0.2275410742
0.0962374955 -0.1683043987 -0.2291802466
0.0970034748 -0.1686863005 -0.2304267883
0.0983673111 -0.1682428122 -0.2299474031
0.0991433486 -0.1686203480 -0.2311891466
0.1002151966 -0.1685842574 -0.2315646708
0.1012883112 -0.1685460657 -0.2319364250
0.1023626849 -0.1685057729 -0.2323043793
0.1031623259 -0.1688743234 -0.2335375100
0.1042428687 -0.1688297242 -0.2338991612
0.1050561517 -0.1691936105 -0.2351283878
0.1058781371 -0.1695550680 -0.2363562733
0.1064477786 -0.1703243405 -0.2384565920
0.1075480506 -0.1702706218 -0.2388077825
0.1083960012 -0.1706246734 -0.2400312573
0.1095022932 -0.1705665439 -0.2403758764
0.1103637889 -0.1709157526 -0.2415950894
0.0254212823 -0.1675772667 -0.1957331151
0.0263671000 -0.1676917970 -0.1963652223
0.0278518107 -0.1673985124 -0.1962542832
0.0287990998 -0.1675085723 -0.1968777925
0.0292187799 -0.1680230945 -0.1982422769
0.0374289341 -0.1684060991 -0.2023428231
0.0388991646 -0.1680858880 -0.2021705657
0.0398682244 -0.1681728512 -0.2027559429
0.0413327441 -0.1678476185 -0.2025709897
0.0418128632 -0.1683406830 -0.2039167881
0.0427884497 -0.1684214771 -0.2044922262
0.0432830229 -0.1689112335 -0.2058373392
0.0447460189 -0.1685768664 -0.2056330144
0.0457279906 -0.1686514318 -0.2061983198
0.0471849479 -0.1683121622 -0.2059814036
0.0500845835 -0.1676258743 -0.2055256367
0.0506019406 -0.1681039929 -0.2068564743
0.0506690815 -0.1689932197 -0.2089742869
0.0512077101 -0.1694682986 -0.2103078216
0.0522075482 -0.1695285439 -0.2108512223
0.0532094054 -0.1695866883 -0.2113912106
0.0546585359 -0.1692292243 -0.2111335993
0.0556608774 -0.1692830175 -0.2116648257
0.0566651523 -0.1693346947 -0.2121925801
0.0576713644 -0.1693843305 -0.2127168626
0.0586795136 -0.1694318950 -0.2132376879
0.0592616983 -0.1698917598 -0.2145582587
0.0602771454 -0.1699352711 -0.2150738835
0.0621361099 -0.1691472828 -0.2139724046
0.0627309680 -0.1696011573 -0.2152860314
0.0637484863 -0.1696382910 -0.2157893479
0.0651780441 -0.1692581773 -0.2154770643
0.0661956444 -0.1692909896 -0.2159716487
0.0664088130 -0.1701523811 -0.2180936337
0.0678366795 -0.1697657704 -0.2177672684
0.0692591444 -0.1693769246 -0.2174340338
0.0702838376 -0.1694014072 -0.2179144323
0.0713102221 -0.1694238037 -0.2183912694
0.0727236271 -0.1690283269 -0.2180406451
0.0737498552 -0.1690464914 -0.2185087055
0.0747777447 -0.1690625548 -0.2189731747
0.0761817917 -0.1686606258 -0.2186053693
0.0768385082 -0.1690884531 -0.2198913842
0.0778713450 -0.1690982729 -0.2203451097
0.0789057761 -0.1691060513 -0.2207952589
0.0799418166 -0.1691117287 -0.2212417573
0.0809794143 -0.1691153347 -0.2216846794
0.0820185915 -0.1691168547 -0.2221239805
0.0827101991 -0.1695323437 -0.2233992666
0.0841015652 -0.1691136211 -0.2229916751
0.0848034993 -0.1695249230 -0.2242626846
0.0858524144 -0.1695180982 -0.2246889174
0.0869028121 -0.1695092022 -0.2251114845
0.0882855281 -0.1690822244 -0.2246832997
0.0893352032 -0.1690691710 -0.2250970453
0.0903862640 -0.1690540463 -0.2255071402
0.0914387926 -0.1690368354 -0.2259135395
0.0924926698 -0.1690175384 -0.2263162583
0.0932355151 -0.1694117934 -0.2275694460
0.0942958668 -0.1693882644 -0.2279661447
0.0950525254 -0.1697781086 -0.2292160243
0.0961192548 -0.1697502881 -0.2296066582
0.0968896672 -0.1701356769 -0.2308531404
0.0979627445 -0.1701035649 -0.2312376052
0.0990371481 -0.1700693667 -0.2316182852
0.1003993228 -0.1696181595 -0.2311315984
0.1014725268 -0.1695798635 -0.2315034121
0.1025469974 -0.1695394963 -0.2318714857
0.1033473313 -0.1699115485 -0.2331031859
0.1041564420 -0.1702811867 -0.2343335599
0.1049741581 -0.1706484258 -0.2355626523
0.1077360585 -0.1713216901 -0.2383679003
0.1088375598 -0.1712657511 -0.2387152761
0.1099401191 -0.1712076962 -0.2390587926
0.1107986197 -0.1715605259 -0.2402754277
0.0245144870 -0.1694249809 -0.1967621893
0.0254669543 -0.1695406288 -0.1973986030
0.0269577596 -0.1692448556 -0.1972933561
0.0279117431 -0.1693559438 -0.1979211122
0.0288680959 -0.1694649905 -0.1985456198
0.0376081765 -0.1694363952 -0.2019042671
0.0385785028 -0.1695260406 -0.2024949938
0.0395510681 -0.1696135849 -0.2030823678
0.0405258052 -0.1696990430 -0.2036663741
0.0419920385 -0.1693683863 -0.2034795582
0.0429677442 -0.1694494039 -0.2040549219
0.0434630923 -0.1699429452 -0.2053984702
0.0449255966 -0.1696052104 -0.2051955909
0.0488665625 -0.1698918641 -0.2074364722
0.0493949875 -0.1703744531 -0.2087714821
0.0499323756 -0.1708553582 -0.2101068646
0.0504786782 -0.1713346392 -0.2114425898
0.0519372225 -0.1709786952 -0.2112008035
0.0529426411 -0.1710372418 -0.2117426097
0.0543947481 -0.1706765443 -0.2114883959
0.0554006808 -0.1707306504 -0.2120214254
0.0568463020 -0.1703651845 -0.2117546499
0.0574184172 -0.1708326489 -0.2130770683
0.0584301688 -0.1708804667 -0.2135996670
0.0590166338 -0.1713442504 -0.2149205208
0.0604594238 -0.1709698737 -0.2146343887
0.0614768751 -0.1710114181 -0.2151464969
0.0624961816 -0.1710508615 -0.2156550735
0.0635173693 -0.1710882038 -0.2161601186
0.0649499446 -0.1707047671 -0.2158511132
0.0659712106 -0.1707377881 -0.2163473666
0.0665918067 -0.1711876243 -0.2176540345
0.0676202178 -0.1712165624 -0.2181449085
0.0686503872 -0.1712433994 -0.2186322212
0.0696823150 -0.1712681353 -0.2191159427
0.0711042210 -0.1708714664 -0.2187754065
0.0725206435 -0.1704725921 -0.2184280157
0.0735505670 -0.1704908460 -0.2188977003
0.0745821744 -0.1705070436 -0.2193638235
0.0759892911 -0.1701016277 -0.2189991623
0.0766503438 -0.1705331802 -0.2202853113
0.0776868984 -0.1705430746 -0.2207406014
0.0787250623 -0.1705508828 -0.2211923301
0.0797648206 -0.1705566049 -0.2216404527
0.0808061734 -0.1705602407 -0.2220849097
0.0818490833 -0.1705617905 -0.2225257903
0.0828935355 -0.1705612391 -0.2229630053
0.0839395300 -0.1705586016 -0.2233965844
0.0849870443 -0.1705538630 -0.2238264829
0.0856985226 -0.1709666103 -0.2250953764
0.0870865658 -0.1705380976 -0.2246753424
0.0881384984 -0.1705271006 -0.2250943184
0.0891919509 -0.1705139726 -0.2255095392
0.0902467892 -0.1704987735 -0.2259211242
0.0916222557 -0.1700621247 -0.2254791409
0.0923607573 -0.1704620719 -0.2267331332
0.0934198275 -0.1704405695 -0.2271336019
0.0944802612 -0.1704170108 -0.2275304049
0.0952376351 -0.1708103865 -0.2287788540
0.0963044688 -0.1707825363 -0.2291695178
0.0970756039 -0.1711714566 -0.2304145843
0.0981487781 -0.1711392850 -0.2307991087
0.0995128378 -0.1706863791 -0.2303190678
0.1005848944 -0.1706501245 -0.2306947112
0.1016581729 -0.1706117690 -0.2310666591
0.1027326956 -0.1705713272 -0.2314347476
0.1035338119 -0.1709468812 -0.2326650321
0.1043436006 -0.1713199914 -0.2338939756
0.0246956553 -0.1704607308 -0.1963165402
0.0256482605 -0.1705767065 -0.1969528496
0.0271385964 -0.1702776849 -0.1968490183
0.0286247563 -0.1699757874 -0.1967376471
0.0290492419 -0.1704983711 -0.1981010586
0.0368209332 -0.1703729033 -0.2008682191
0.0377891921 -0.1704648435 -0.2014621496
0.0387596600 -0.1705546975 -0.2020527571
0.0397323593 -0.1706424803 -0.2026400566
0.0407072417 -0.1707281619 -0.2032240629
0.0416843146 -0.1708117723 -0.2038046867
0.0426635221 -0.1708933264 -0.2043819726
0.0436449163 -0.1709727347 -0.2049558908
0.0446284339 -0.1710500866 -0.2055265009
0.0485836081 -0.1713385433 -0.2077749670
0.0495775975 -0.1714054197 -0.2083286196
0.0496578030 -0.1723099798 -0.2104460001
0.0506628044 -0.1723731011 -0.2109965384
0.0516698174 -0.1724341065 -0.2115436941
0.0522313118 -0.1729135066 -0.2128765583
0.0541339330 -0.1721290350 -0.2118363678
0.0555840246 -0.1717626452 -0.2115783095
0.0565920435 -0.1718148291 -0.2121078521
0.0571684167 -0.1722861677 -0.2134304792
0.0586138554 -0.1719129086 -0.2131565064
0.0592011027 -0.1723803431 -0.2144757658
0.0602202825 -0.1724242866 -0.2149931341
0.0612413809 -0.1724661142 -0.2155069858
0.0626803562 -0.1720837802 -0.2152118087
0.0637016296 -0.1721212566 -0.2157168686
0.0647247508 -0.1721565872 -0.2162183672
0.0657496825 -0.1721898317 -0.2167163342
0.0663745850 -0.1726434380 -0.2180231810
0.0674066618 -0.1726725549 -0.2185157090
0.0688352287 -0.1722769141 -0.2181889266
0.0698672682 -0.1723017395 -0.2186726779
0.0712886304 -0.1719015688 -0.2183336765
0.0727045238 -0.1714991629 -0.2179878205
0.0737345591 -0.1715175360 -0.2184575051
0.0751430765 -0.1711107194 -0.2180995643
0.0757996216 -0.1715479195 -0.2193861902
0.0764650628 -0.1719831079 -0.2206723988
0.0778713003 -0.1715699285 -0.2203004956
0.0789095610 -0.1715777963 -0.2207522243
0.0799494237 -0.1715835482 -0.2212003469
0.0813459679 -0.1711640209 -0.2208113521
0.0823853388 -0.1711655557 -0.2212506831
0.0834262669 -0.1711650193 -0.2216864079
0.0844687223 -0.1711623967 -0.2221185118
0.0855126604 -0.1711576730 -0.2225469649
0.0862212107 -0.1715740561 -0.2238128930
0.0872718170 -0.1715651155 -0.2242355049
0.0883238614 -0.1715540886 -0.2246544659
0.0890514851 -0.1719640195 -0.2259152383
0.0901101306 -0.1719487458 -0.2263282835
0.0914886817 -0.1715084314 -0.2258893251
0.0925464630 -0.1714890003 -0.2262935489
0.0936056152 -0.1714674681 -0.2266940325
0.0946661234 -0.1714438498 -0.2270908803
0.0954242349 -0.1718407720 -0.2283378541
0.0964911580 -0.1718128473 -0.2287285775
0.0972630233 -0.1722052842 -0.2299722135
0.0983363092 -0.1721730530 -0.2303567827
0.0996997729 -0.1717164963 -0.2298783362
0.1007718891 -0.1716801822 -0.2302540690
0.1018452570 -0.1716417521 -0.2306260765
0.1026421115 -0.1720230579 -0.2318574041
0.1034477055 -0.1724019051 -0.2330874205
0.1045322269 -0.1723568738 -0.2334506065
0.0248786565 -0.1714945585 -0.1958672404
0.0258314516 -0.1716108173 -0.1965034306
0.0273212511 -0.1713085622 -0.1964010745
0.0282755774 -0.1714202315 -0.1970285773
0.0292322133 -0.1715298295 -0.1976528913
0.0355292633 -0.1717241555 -0.2005776167
0.0370036103 -0.1713991165 -0.2004224956
0.0379719697 -0.1714913100 -0.2010163516
0.0389425829 -0.1715814173 -0.2016068846
0.0394206233 -0.1720899940 -0.2029545605
0.0403990038 -0.1721762270 -0.2035405040
0.0413795747 -0.1722603589 -0.2041230947
0.0423623398 -0.1723423898 -0.2047023028
0.0433472432 -0.1724223047 -0.2052781582
0.0483036414 -0.1727903783 -0.2081066966
0.0493012108 -0.1728576720 -0.2086621672
0.0498435348 -0.1733463109 -0.2099962980
0.0508486368 -0.1734096110 -0.2105468363
0.0514053963 -0.1738946885 -0.2118797302
0.0524180196 -0.1739539504 -0.2124252170
0.0543194748 -0.1731625199 -0.2113881111
0.0557690524 -0.1727926880 -0.2111315280
0.0563407429 -0.1732696593 -0.2124542594
0.0573543012 -0.1733200699 -0.2129821032
0.0583698153 -0.1733683646 -0.2135064602
0.0589612834 -0.1738396883 -0.2148259729
0.0604065284 -0.1734585762 -0.2145446688
0.0614277162 -0.1735005379 -0.2150584906
0.0628661737 -0.1731147915 -0.2147648782
0.0642994046 -0.1727266312 -0.2144641429
0.0653190911 -0.1727619469 -0.2149639279
0.0659358278 -0.1732211411 -0.2162693441
0.0669626668 -0.1732523739 -0.2167637348
0.0675936565 -0.1737076193 -0.2180671841
0.0686276034 -0.1737347245 -0.2185561508
0.0700538158 -0.1733333766 -0.2182256430
0.0714746341 -0.1729297340 -0.2178882211
0.0728899986 -0.1725238115 -0.2175438553
0.0742998645 -0.1721156985 -0.2171927243
0.0753280818 -0.1721319407 -0.2176572382
0.0759853944 -0.1725727469 -0.2189422995
0.0766515657 -0.1730115563 -0.2202269733
0.0780572444 -0.1725948751 -0.2198566198
0.0787338987 -0.1730295271 -0.2211372703
0.0801355690 -0.1726085544 -0.2207565457
0.0815315768 -0.1721854359 -0.2203690857
0.0825710297 -0.1721870452 -0.2208084762
0.0832648501 -0.1726133078 -0.2220792621
0.0846545696 -0.1721839160 -0.2216763645
0.0853587091 -0.1726059765 -0.2229428738
0.0860716626 -0.1730258763 -0.2242087573
0.0871259943 -0.1730169207 -0.2246329039
0.0881818309 -0.1730058491 -0.2250533849
0.0889138281 -0.1734192967 -0.2263141125
0.0899762288 -0.1734039336 -0.2267286330
0.0913578942 -0.1729599386 -0.2262926847
0.0924194455 -0.1729404330 -0.2266983539
0.0937928781 -0.1724924296 -0.2262507677
0.0945466757 -0.1728950739 -0.2274985909
0.0953091905 -0.1732953936 -0.2287454158
0.0963799059 -0.1732673645 -0.2291376144
0.0974519253 -0.1732371897 -0.2295260429
0.0982332677 -0.1736307889 -0.2307670265
0.0995999053 -0.1731705070 -0.2302915454
0.1009603292 -0.1727083027 -0.2298096716
0.1017529592 -0.1730953157 -0.2310420126
0.1028313860 -0.1730545908 -0.2314115763
0.0245229583 -0.1729456037 -0.1961437315
0.0260164384 -0.1726429909 -0.1960504055
0.0275057685 -0.1723374724 -0.1959494650
0.0366837978 -0.1728465855 -0.2007259279
0.0381565392 -0.1725158393 -0.2005669475
0.0391272716 -0.1726061851 -0.2011573911
0.0396060683 -0.1731185615 -0.2025034428
0.0405845903 -0.1732050180 -0.2030893117
0.0415652730 -0.1732893735 -0.2036717981
0.0420641340 -0.1737966239 -0.2050159276
0.0430525653 -0.1738770604 -0.2055936754
0.0440431535 -0.1739553511 -0.2061680704
0.0445620678 -0.1744573265 -0.2075099349
0.0455603227 -0.1745316535 -0.2080794871
0.0465607047 -0.1746038496 -0.2086456418
0.0475631617 -0.1746739298 -0.2092083246
0.0485677235 -0.1747418791 -0.2097675800
0.0491176955 -0.1752347201 -0.2111039311
0.0501298234 -0.1752986014 -0.2116581649
0.0511439964 -0.1753603965 -0.2122089714
0.0526064411 -0.1749923825 -0.2119701207
0.0540639460 -0.1746218503 -0.2117241025
0.0555164777 -0.1742487997 -0.2114708871
0.0560923927 -0.1747296602 -0.2127938420
0.0571095534 -0.1747803986 -0.2133235186
0.0581286736 -0.1748289913 -0.2138496339
0.0591496900 -0.1748754531 -0.2143722773
0.0601726361 -0.1749197990 -0.2148913741
0.0611974560 -0.1749619991 -0.2154069543
0.0626388937 -0.1745729297 -0.2151165903
0.0640751049 -0.1741814762 -0.2148192078
0.0646907985 -0.1746464372 -0.2161265463
0.0657194778 -0.1746799797 -0.2166262418
0.0667499676 -0.1747114360 -0.2171223611
0.0677822605 -0.1747407317 -0.2176149040
0.0688163117 -0.1747679114 -0.2181038857
0.0702419803 -0.1743630618 -0.2177749127
0.0712759644 -0.1743859202 -0.2182550877
0.0726943538 -0.1739765853 -0.2179139405
0.0737281665 -0.1739951223 -0.2183852941
0.0751391575 -0.1735813916 -0.2180321217
0.0758008212 -0.1740258783 -0.2193172574
0.0764713213 -0.1744683534 -0.2206020057
0.0778800920 -0.1740481406 -0.2202347815
0.0789221600 -0.1740560979 -0.2206881195
0.0803232417 -0.1736316234 -0.2203090191
0.0813648626 -0.1736353189 -0.2207535654
0.0827582181 -0.1732065827 -0.2203625441
0.0831062347 -0.1740667969 -0.2224652916
0.0841561556 -0.1740641743 -0.2229004502
0.0852075890 -0.1740594506 -0.2233319581
0.0862605348 -0.1740525812 -0.2237598151
0.0873149410 -0.1740436256 -0.2241840363
0.0880425796 -0.1744627804 -0.2254454494
0.0887789950 -0.1748797148 -0.2267060578
0.0898451433 -0.1748642921 -0.2271220684
0.0909127071 -0.1748467684 -0.2275343835
0.0922952145 -0.1743970662 -0.2270963192
0.0936717689 -0.1739453822 -0.2266516984
0.0947361365 -0.1739216000 -0.2270500064
0.0958018675 -0.1738956869 -0.2274446040
0.0965701789 -0.1742973626 -0.2286875993
0.0976422727 -0.1742671430 -0.2290760428
0.0987156928 -0.1742347777 -0.2294607908
0.0997903869 -0.1742002815 -0.2298417240
0.1008663550 -0.1741637141 -0.2302189320
0.1019435972 -0.1741249859 -0.2305923402
0.0247102957 -0.1739790291 -0.1956856549
0.0256665852 -0.1740962714 -0.1963237971
0.0271587353 -0.1737879217 -0.1962264627
0.0281165484 -0.1739005893 -0.1968559474
0.0363670625 -0.1742991656 -0.2010226250
0.0378426276 -0.1739654541 -0.2008671463
0.0388168469 -0.1740563512 -0.2014595568
0.0392997488 -0.1745728254 -0.2028060704
0.0402817689 -0.1746598035 -0.2033938318
0.0412659757 -0.1747446805 -0.2039782703
0.0422523580 -0.1748274267 -0.2045593560
0.0432408974 -0.1749080718 -0.2051370740
0.0442315973 -0.1749865711 -0.2057113796
0.0447512791 -0.1754923165 -0.2070516050
0.0457496606 -0.1755668521 -0.2076210827
0.0462838486 -0.1760691106 -0.2089603692
0.0472898297 -0.1761396229 -0.2095249295
0.0482979454 -0.1762079746 -0.2100860775
0.0493081361 -0.1762741953 -0.2106437236
0.0503203608 -0.1763382852 -0.2111979574
0.0517837256 -0.1759692281 -0.2109659761
0.0527965538 -0.1760288328 -0.2115113586
0.0542535074 -0.1756549180 -0.2112668902
0.0557055026 -0.1752784699 -0.2110151798
0.0562821738 -0.1757630408 -0.2123365402
0.0568678118 -0.1762458384 -0.2136580646
0.0578905232 -0.1762947440 -0.2141859531
0.0593397878 -0.1759092510 -0.2139148563
0.0603628345 -0.1759537011 -0.2144339234
0.0609701648 -0.1764285862 -0.2157485485
0.0624145828 -0.1760362089 -0.2154614776
0.0638537854 -0.1756414473 -0.2151674032
0.0644737482 -0.1761101931 -0.2164749056
0.0655060709 -0.1761439741 -0.2169762999
0.0665402189 -0.1761756092 -0.2174741030
0.0675761625 -0.1762051135 -0.2179683596
0.0686138645 -0.1762324870 -0.2184590250
0.0700425431 -0.1758242399 -0.2181332707
0.0714658201 -0.1754137129 -0.2178006321
0.0725015923 -0.1754345298 -0.2182772011
0.0739175379 -0.1750195026 -0.2179324329
0.0749531388 -0.1750359833 -0.2184001803
0.0756191388 -0.1754841208 -0.2196853608
0.0766616166 -0.1754964441 -0.2201475799
0.0777057782 -0.1755065769 -0.2206061333
0.0787515268 -0.1755146235 -0.2210610807
0.0801557079 -0.1750866026 -0.2206850648
0.0815541819 -0.1746564507 -0.2203023583
0.0825974569 -0.1746580750 -0.2207432687
0.0832963660 -0.1750915349 -0.2220125496
0.0843463615 -0.1750889122 -0.2224477530
0.0853978768 -0.1750841886 -0.2228792906
0.0864508897 -0.1750773340 -0.2233071774
0.0875053853 -0.1750683784 -0.2237313986
0.0882337317 -0.1754910946 -0.2249913216
0.0889709145 -0.1759115756 -0.2262504250
0.0900371149 -0.1758961082 -0.2266664356
0.0911047608 -0.1758785546 -0.2270787656
0.0921738148 -0.1758588403 -0.2274874002
0.0938626453 -0.1749700010 -0.2261993587
0.0949270949 -0.1749461591 -0.2265976816
0.0956910849 -0.1753535569 -0.2278415710
0.0967619345 -0.1753254086 -0.2282338440
0.0978340730 -0.1752950996 -0.2286223918
0.0989075452 -0.1752627045 -0.2290071398
0.0999823287 -0.1752281636 -0.2293881476
0.1010583416 -0.1751914769 -0.2297653854
0.1021356434 -0.1751527041 -0.2301388830
0.0248994846 -0.1750103980 -0.1952238977
0.0258559193 -0.1751279682 -0.1958619356
0.0268147569 -0.1752434373 -0.1964967102
0.0277759824 -0.1753567755 -0.1971282512
0.0375317931 -0.1754201651 -0.2011606097
0.0385094658 -0.1755116135 -0.2017550319
0.0389965437 -0.1760321558 -0.2031018287
0.0404715016 -0.1756881624 -0.2029337734
0.0414558239 -0.1757732481 -0.2035181075
0.0419596136 -0.1762883067 -0.2048609257
0.0424723811 -0.1768018007 -0.2062042952
0.0434699841 -0.1768810451 -0.2067824900
0.0444697328 -0.1769581884 -0.2073573172
0.0450025909 -0.1774663031 -0.2086983174
0.0464756712 -0.1771060228 -0.2084966451
0.0474817827 -0.1771767139 -0.2090611458
0.0484900102 -0.1772452742 -0.2096222192
0.0495002642 -0.1773116887 -0.2101798505
0.0509645045 -0.1769416183 -0.2099547684
0.0515270270 -0.1774380505 -0.2112846822
0.0525434278 -0.1774980277 -0.2118318677
0.0544447713 -0.1766859889 -0.2108059376
0.0554582067 -0.1767412573 -0.2113424838
0.0560391583 -0.1772297174 -0.2126640528
0.0570600294 -0.1772809029 -0.2131954134
0.0580828525 -0.1773299277 -0.2137232870
0.0591075979 -0.1773768216 -0.2142476439
0.0597137734 -0.1778575331 -0.2155641764
0.0607458390 -0.1779002845 -0.2160832584
0.0621932037 -0.1775046289 -0.2157995552
0.0632255152 -0.1775429100 -0.2163097262
0.0642596334 -0.1775790751 -0.2168164104
0.0652956218 -0.1776130646 -0.2173194736
0.0663334057 -0.1776448935 -0.2178189903
0.0673730001 -0.1776746064 -0.2183149159
0.0688064694 -0.1772652268 -0.2179977000
0.0702345744 -0.1768535376 -0.2176735550
0.0712723061 -0.1768766046 -0.2181553394
0.0730744973 -0.1760232449 -0.2170045227
0.0744862780 -0.1756046712 -0.2166596949
0.0755183473 -0.1756211817 -0.2171258479
0.0758109167 -0.1765101999 -0.2192272246
0.0768534765 -0.1765225381 -0.2196894288
0.0778977126 -0.1765327454 -0.2201479971
0.0789435506 -0.1765407920 -0.2206029594
0.0799910128 -0.1765467376 -0.2210542858
0.0817450136 -0.1756756157 -0.2198474109
0.0827883705 -0.1756772399 -0.2202883959
0.0838332623 -0.1756767780 -0.2207257450
0.0845381021 -0.1761116683 -0.2219913006
0.0855896920 -0.1761069447 -0.2224228829
0.0866427645 -0.1761000901 -0.2228508145
0.0876973197 -0.1760911345 -0.2232750654
0.0884264112 -0.1765173823 -0.2245334089
0.0891643316 -0.1769414097 -0.2257909626
0.0899110287 -0.1773632169 -0.2270476967
0.0909823850 -0.1773455590 -0.2274615169
0.0920552090 -0.1773257256 -0.2278715223
0.0937464684 -0.1764296740 -0.2265881151
0.0948146656 -0.1764057279 -0.2269879133
0.0958842114 -0.1763796508 -0.2273839712
0.0969551131 -0.1763514280 -0.2277763039
0.0980273336 -0.1763210893 -0.2281648666
0.0991008729 -0.1762886196 -0.2285497189
0.0998894125 -0.1766904742 -0.2297837734
0.1009692326 -0.1766536087 -0.2301624119
0.1020503268 -0.1766145974 -0.2305372357
0.0245518703 -0.1764695197 -0.1954832673
0.0260470938 -0.1761576384 -0.1953964680
0.0362451039 -0.1767857522 -0.2008476108
0.0372240283 -0.1768798828 -0.2014472932
0.0377096273 -0.1774063259 -0.2027957290
0.0386963598 -0.1774965227 -0.2033908069
0.0401741862 -0.1771495491 -0.2032262683
0.0411619805 -0.1772351414 -0.2038125396
0.0416699462 -0.1777542531 -0.2051556557
0.0426654965 -0.1778358668 -0.2057372034
0.0431879833 -0.1783514917 -0.2070794404
0.0441912785 -0.1784290820 -0.2076561451
0.0451966897 -0.1785045415 -0.2082293928
0.0466692150 -0.1781409234 -0.2080292404
0.0476754420 -0.1782117933 -0.2085936964
0.0486837663 -0.1782805473 -0.2091547102
0.0496941581 -0.1783471555 -0.2097122520
0.0511578135 -0.1779737324 -0.2094887197
0.0517210886 -0.1784738451 -0.2108169645
0.0527376086 -0.1785339713 -0.2113641202
0.0541969165 -0.1781535000 -0.2111245543
0.0552139580 -0.1782091409 -0.2116628885
0.0557991304 -0.1787014455 -0.2129846513
0.0572539307 -0.1783139259 -0.2127290666
0.0582768433 -0.1783631146 -0.2132568955
0.0593016706 -0.1784101427 -0.2137812227
0.0599086098 -0.1788945198 -0.2150961608
0.0609407797 -0.1789373755 -0.2156151980
0.0619748309 -0.1789780706 -0.2161306739
0.0630107224 -0.1790166497 -0.2166426331
0.0640484989 -0.1790529937 -0.2171509564
0.0654902309 -0.1786470711 -0.2168529034
0.0665281117 -0.1786790192 -0.2173524052
0.0679627880 -0.1782684475 -0.2170420438
0.0690006614 -0.1782959849 -0.2175326794
0.0704281852 -0.1778807938 -0.2172100842
0.0714660138 -0.1779039651 -0.2176918983
0.0728862509 -0.1774842739 -0.2173572034
0.0743010268 -0.1770622730 -0.2170155942
0.0749632344 -0.1775197387 -0.2182995826
0.0760042444 -0.1775342524 -0.2187653631
0.0766806081 -0.1779875457 -0.2200469673
0.0777285248 -0.1779978424 -0.2205071300
0.0787780657 -0.1780059785 -0.2209636867
0.0801846609 -0.1775709391 -0.2205924243
0.0815855935 -0.1771337688 -0.2202144712
0.0826326311 -0.1771354526 -0.2206569761
0.0833366960 -0.1775760204 -0.2219246328
0.0843904614 -0.1775734276 -0.2223614007
0.0851085186 -0.1780097038 -0.2236262560
0.0861689672 -0.1780028045 -0.2240571827
0.0872309431 -0.1779937595 -0.2244843841
0.0879681110 -0.1784234643 -0.2257440984
0.0887140706 -0.1788509339 -0.2270029783
0.0901066735 -0.1783945411 -0.2265829593
0.0905476809 -0.1792583466 -0.2286777198
0.0919394717 -0.1787977070 -0.2282487452
0.0933252797 -0.1783350259 -0.2278132141
0.0947050750 -0.1778703481 -0.2273711711
0.0954779387 -0.1782845557 -0.2286146730
0.0968530402 -0.1778157800 -0.2281623781
0.0979290232 -0.1777852923 -0.2285523713
0.0987169743 -0.1781927496 -0.2297886610
0.0997993127 -0.1781578213 -0.2301724404
0.1008829251 -0.1781207621 -0.2305524349
0.1019677892 -0.1780815572 -0.2309286296
0.0349568427 -0.1781530529 -0.2005205005
0.0359369591 -0.1782499254 -0.2011254579
0.0369193368 -0.1783446372 -0.2017271072
0.0379039682 -0.1784372181 -0.2023254037
0.0388908498 -0.1785276383 -0.2029203475
0.0398799293 -0.1786159277 -0.2035119385
0.0408712290 -0.1787020564 -0.2041001171
0.0413833372 -0.1792251766 -0.2054435313
0.0423824154 -0.1793072969 -0.2060269564
0.0429090783 -0.1798269302 -0.2073695064
0.0439158827 -0.1799050122 -0.2079480886
0.0449248105 -0.1799809039 -0.2085232288
0.0464002080 -0.1796142012 -0.2083265185
0.0474099778 -0.1796855330 -0.2088928372
0.0488792472 -0.1793137640 -0.2086834908
0.0498897284 -0.1793805510 -0.2092409879
0.0513528176 -0.1790037900 -0.2090189904
0.0519168563 -0.1795076132 -0.2103455812
0.0529334545 -0.1795679182 -0.2108927071
0.0539520793 -0.1796260476 -0.2114362866
0.0549726896 -0.1796820313 -0.2119764537
0.0559952706 -0.1797358394 -0.2125130445
0.0574495122 -0.1793449372 -0.2122590393
0.0584724881 -0.1793942600 -0.2127868533
0.0594974086 -0.1794414073 -0.2133111358
0.0601051152 -0.1799294353 -0.2146243900
0.0611373559 -0.1799724400 -0.2151434124
0.0617594123 -0.1804565787 -0.2164549083
0.0627989694 -0.1804953367 -0.2169685364
0.0634353608 -0.1809755415 -0.2182781249
0.0648835897 -0.1805664301 -0.2179851085
0.0659286603 -0.1805986613 -0.2184879631
0.0673698485 -0.1801848412 -0.2181826085
0.0688057244 -0.1797686666 -0.2178702950
0.0702362135 -0.1793501377 -0.2175510079
0.0716613010 -0.1789292842 -0.2172247469
0.0727009103 -0.1789503545 -0.2177029550
0.0744951069 -0.1780806780 -0.2165516615
0.0751580894 -0.1785417050 -0.2178340107
0.0758299232 -0.1790006757 -0.2191159725
0.0768762603 -0.1790131629 -0.2195798159
0.0779242441 -0.1790234894 -0.2200399786
0.0786154717 -0.1794761866 -0.2213174701
0.0800250843 -0.1790376753 -0.2209494263
0.0814290196 -0.1785970181 -0.2205746323
0.0828272775 -0.1781541705 -0.2201931179
0.0835320726 -0.1785982847 -0.2214591503
0.0845859051 -0.1785957068 -0.2218959183
0.0856412724 -0.1785909981 -0.2223290652
0.0866981223 -0.1785841286 -0.2227585018
0.0874272287 -0.1790195853 -0.2240173966
0.0884907320 -0.1790083945 -0.2244409621
0.0892337710 -0.1794394255 -0.2256968468
0.0899856240 -0.1798682064 -0.2269518524
0.0907462463 -0.1802946925 -0.2282059938
0.0918265432 -0.1802746803 -0.2286189348
0.0932154134 -0.1798083931 -0.2281864733
0.0945982710 -0.1793400645 -0.2277474850
0.0959751233 -0.1788697392 -0.2273019254
0.0973459184 -0.1783974916 -0.2268499583
0.0981258824 -0.1788107753 -0.2280857861
0.0992032066 -0.1787780672 -0.2284720540
0.0999969468 -0.1791867316 -0.2297043502
0.1007993743 -0.1795929670 -0.2309354395
0.1021654680 -0.1791103035 -0.2304606587
0.0336670764 -0.1795220375 -0.2001792938
0.0346483514 -0.1796216518 -0.2007895559
0.0361328758 -0.1792782694 -0.2006516457
0.0366177857 -0.1798143685 -0.2020000517
0.0376058742 -0.1799074858 -0.2026002854
0.0385962203 -0.1799984872 -0.2031971663
0.0395887941 -0.1800872833 -0.2037906796
0.0405835733 -0.1801739335 -0.2043808103
0.0410998501 -0.1807010919 -0.2057245225
0.0425797217 -0.1803407818 -0.2055508941
0.0431071483 -0.1808641404 -0.2068917453
0.0445845351 -0.1804989725 -0.2067073882
0.0455901548 -0.1805748343 -0.2072804570
0.0470615439 -0.1802045554 -0.2070834190
0.0480679497 -0.1802758127 -0.2076477259
0.0495332554 -0.1799004823 -0.2074379623
0.0500870608 -0.1804118901 -0.2087660134
0.0510996766 -0.1804766804 -0.2093199939
0.0521143489 -0.1805393249 -0.2098705173
0.0531310327 -0.1805997789 -0.2104175538
0.0541497357 -0.1806580573 -0.2109611183
0.0551704317 -0.1807141900 -0.2115011811
0.0561931171 -0.1807681471 -0.2120377421
0.0576467328 -0.1803738773 -0.2117853165
0.0582443252 -0.1808695644 -0.2131003886
0.0592728518 -0.1809170395 -0.2136264145
0.0603032596 -0.1809623241 -0.2141489387
0.0613356121 -0.1810054332 -0.2146679014
0.0619584173 -0.1814931929 -0.2159777284
0.0629980490 -0.1815320849 -0.2164913267
0.0640395060 -0.1815688163 -0.2170013785
0.0650828108 -0.1816033721 -0.2175078541
0.0665251613 -0.1811884195 -0.2172093987
0.0675685555 -0.1812184751 -0.2177069634
0.0690038279 -0.1807988584 -0.2173961997
0.0704337135 -0.1803768724 -0.2170785218
0.0714752600 -0.1804002523 -0.2175619602
0.0728978738 -0.1799737215 -0.2172320932
0.0746907815 -0.1790970564 -0.2160840631
0.0753544867 -0.1795616746 -0.2173647881
0.0763956383 -0.1795762926 -0.2178305686
0.0770734921 -0.1800367385 -0.2191089094
0.0781215280 -0.1800471097 -0.2195690870
0.0784557685 -0.1809514165 -0.2216643244
0.0798683763 -0.1805094779 -0.2212994993
0.0812753513 -0.1800652891 -0.2209278643
0.0826766267 -0.1796189398 -0.2205494791
0.0837289616 -0.1796185225 -0.2209899724
0.0844433382 -0.1800640225 -0.2222537547
0.0858382806 -0.1796112508 -0.2218599170
0.0865629837 -0.1800523847 -0.2231193781
0.0872964710 -0.1804913729 -0.2243781239
0.0880388021 -0.1809280664 -0.2256360799
0.0894323811 -0.1804666817 -0.2252245098
0.0901849493 -0.1808990091 -0.2264779359
0.0909463242 -0.1813290119 -0.2277305275
0.0923368484 -0.1808612347 -0.2273048609
0.0937214047 -0.1803914160 -0.2268726528
0.0947971418 -0.1803671867 -0.2272753567
0.0958742350 -0.1803408265 -0.2276743203
0.0972480848 -0.1798648685 -0.2272253484
0.0980325118 -0.1802815348 -0.2284609526
0.0991135985 -0.1802486330 -0.2288486063
0.0999117866 -0.1806606352 -0.2300806195
0.1009991616 -0.1806233078 -0.2304620445
0.1020878330 -0.1805837899 -0.2308396548
0.0353502594 -0.1802071929 -0.1995694637
0.0368308313 -0.1798602641 -0.1994310319
0.0378100835 -0.1799551249 -0.2000304013
0.0382979997 -0.1804928333 -0.2013737708
0.0392850488 -0.1805837303 -0.2019685060
0.0402743518 -0.1806724817 -0.2025598735
0.0407824405 -0.1812049001 -0.2039012462
0.0412994847 -0.1817357838 -0.2052432299
0.0423021503 -0.1818186194 -0.2058284730
0.0433069840 -0.1818992794 -0.2064103037
0.0443139672 -0.1819777638 -0.2069887370
0.0457894914 -0.1816068292 -0.2068004906
0.0467973426 -0.1816807389 -0.2073701024
0.0478072800 -0.1817524433 -0.2079362720
0.0492753834 -0.1813740283 -0.2077300102
0.0498334430 -0.1818893254 -0.2090582401
0.0508496203 -0.1819545180 -0.2096140236
0.0518678091 -0.1820175350 -0.2101663947
0.0528880656 -0.1820783913 -0.2107152492
0.0539103076 -0.1821370423 -0.2112606019
0.0553698651 -0.1817443073 -0.2110222578
0.0559608229 -0.1822477877 -0.2123408169
0.0578456558 -0.1814007312 -0.2113079131
0.0588687994 -0.1814503223 -0.2118356377
0.0598938726 -0.1814977825 -0.2123598307
0.0609208606 -0.1815430373 -0.2128805220
0.0615354963 -0.1820363551 -0.2141886950
0.0621590801 -0.1825277507 -0.2154968530
0.0631987602 -0.1825667620 -0.2160104364
0.0642403066 -0.1826036125 -0.2165204436
0.0652836934 -0.1826382279 -0.2170268893
0.0663289055 -0.1826706976 -0.2175296992
0.0677688643 -0.1822500378 -0.2172275931
0.0692035183 -0.1818269640 -0.2169184685
0.0706328005 -0.1814015359 -0.2166023701
0.0716743991 -0.1814249903 -0.2170858085
0.0730964094 -0.1809950024 -0.2167575508
0.0745129213 -0.1805627346 -0.2164224982
0.0751809850 -0.1810309589 -0.2177031487
0.0762258098 -0.1810456812 -0.2181705683
0.0772722661 -0.1810582727 -0.2186343521
0.0783203691 -0.1810686886 -0.2190945446
0.0786560401 -0.1819800586 -0.2211864591
0.0797146186 -0.1819861829 -0.2216425091
0.0811245739 -0.1815385520 -0.2212741226
0.0821827129 -0.1815402955 -0.2217212617
0.0832424015 -0.1815399230 -0.2221647948
0.0843036622 -0.1815373302 -0.2226046175
0.0857016221 -0.1810810268 -0.2222139090
0.0867622569 -0.1810741127 -0.2226448804
0.0874964893 -0.1815166175 -0.2239020467
0.0882395357 -0.1819568127 -0.2251583636
0.0896324590 -0.1814919263 -0.2247484624
0.0907026380 -0.1814763397 -0.2251661122
0.0914610550 -0.1819099039 -0.2264156491
0.0928472653 -0.1814386398 -0.2259902954
0.0939216837 -0.1814165264 -0.2263967693
0.0946953595 -0.1818433851 -0.2276393026
0.0957762152 -0.1818168312 -0.2280396670
0.0971530974 -0.1813372225 -0.2275937498
0.0979419798 -0.1817572266 -0.2288290560
0.0987395421 -0.1821748614 -0.2300633043
0.0998294279 -0.1821395010 -0.2304499000
0.1006407514 -0.1825524122 -0.2316804677
0.1017369255 -0.1825125515 -0.2320607454
0.0340652205 -0.1815784872 -0.1992179453
0.0355496220 -0.1812311262 -0.1990884990
0.0370296538 -0.1808809489 -0.1989516318
0.0380089618 -0.1809760779 -0.1995508969
0.0384976603 -0.1815174967 -0.2008924931
0.0394848511 -0.1816086322 -0.2014871240
0.0404742025 -0.1816976368 -0.2020784318
0.0405003242 -0.1826831400 -0.2041697204
0.0415008739 -0.1827683747 -0.2047583163
0.0425036252 -0.1828514189 -0.2053434402
0.0435085408 -0.1829323173 -0.2059252113
0.0449847542 -0.1825605333 -0.2057439387
0.0459905602 -0.1826367825 -0.2063168734
0.0469984673 -0.1827108413 -0.2068864107
0.0480084978 -0.1827827394 -0.2074524909
0.0490206331 -0.1828524917 -0.2080151439
0.0495828688 -0.1833717227 -0.2093435377
0.0510510840 -0.1829853952 -0.2091300488
0.0520693585 -0.1830485761 -0.2096823454
0.0530896932 -0.1831095815 -0.2102311254
0.0536739640 -0.1836209148 -0.2115531117
0.0551363714 -0.1832250357 -0.2113182098
0.0557315834 -0.1837323755 -0.2126369029
0.0576185770 -0.1828786433 -0.2116091102
0.0586453341 -0.1829285324 -0.2121385485
0.0596739873 -0.1829762757 -0.2126644999
0.0611216538 -0.1825682074 -0.2123993039
0.0621505789 -0.1826114357 -0.2129164636
0.0623613633 -0.1835601926 -0.2150122672
0.0634011254 -0.1835993379 -0.2155258209
0.0644427463 -0.1836362630 -0.2160357684
0.0654861853 -0.1836710274 -0.2165421695
0.0669272989 -0.1832492203 -0.2162469774
0.0679708123 -0.1832794845 -0.2167444825
0.0690161213 -0.1833075434 -0.2172383964
0.0704483390 -0.1828787923 -0.2169256359
0.0714936033 -0.1829023659 -0.2174106687
0.0725405738 -0.1829238236 -0.2178921551
0.0743380263 -0.1820333451 -0.2167539001
0.0750104263 -0.1825052202 -0.2180345803
0.0760588944 -0.1825200617 -0.2185035944
0.0771090314 -0.1825327426 -0.2189689875
0.0781608000 -0.1825432181 -0.2194307446
0.0788578540 -0.1830066293 -0.2207049280
0.0799164921 -0.1830127835 -0.2211609483
0.0809767172 -0.1830167621 -0.2216133475
0.0823840052 -0.1825634390 -0.2212413400
0.0834437460 -0.1825630516 -0.2216848880
0.0845050290 -0.1825604886 -0.2221247405
0.0855678469 -0.1825557798 -0.2225609124
0.0866321772 -0.1825488657 -0.2229933888
0.0873708129 -0.1829947978 -0.2242503613
0.0884418041 -0.1829835176 -0.2246769369
0.0898340717 -0.1825150698 -0.2242686898
0.0909042954 -0.1824994534 -0.2246863693
0.0916634351 -0.1829365194 -0.2259342968
0.0927401781 -0.1829164773 -0.2263459414
0.0938182995 -0.1828942597 -0.2267538756
0.0948978588 -0.1828698367 -0.2271580100
0.0956810266 -0.1832978129 -0.2283979356
0.0970609635 -0.1828145236 -0.2279550731
0.0981445685 -0.1827835739 -0.2283479273
0.0989428461 -0.1832046807 -0.2295805961
0.1000327691 -0.1831692606 -0.2299672216
0.1011239365 -0.1831316352 -0.2303500623
0.1019410118 -0.1835456640 -0.2315765470
0.0342669860 -0.1826035827 -0.1987318248
0.0352485478 -0.1827039421 -0.1993418038
0.0372302122 -0.1818995476 -0.1984685808
0.0382096283 -0.1819949150 -0.1990677565
0.0386990905 -0.1825400889 -0.2004076093
0.0396863297 -0.1826314628 -0.2010021806
0.0406758040 -0.1827206761 -0.2015933692
0.0411854237 -0.1832605600 -0.2029312253
0.0421827026 -0.1833457053 -0.2035176754
0.0427068658 -0.1838821173 -0.2048547417
0.0437118858 -0.1839632094 -0.2054363936
0.0447190292 -0.1840421110 -0.2060146779
0.0457283370 -0.1841188222 -0.2065894902
0.0462781750 -0.1846478283 -0.2079226822
0.0477532856 -0.1842656881 -0.2077287585
0.0487689450 -0.1843358427 -0.2082932740
0.0493353941 -0.1848589778 -0.2096218765
0.0508064441 -0.1844695657 -0.2094118446
0.0518283062 -0.1845331043 -0.2099658996
0.0528521463 -0.1845944971 -0.2105164975
0.0538780466 -0.1846536547 -0.2110635787
0.0549059436 -0.1847106367 -0.2116071731
0.0563662238 -0.1843090057 -0.2113685161
0.0578214936 -0.1839048266 -0.2111227065
0.0588483028 -0.1839548647 -0.2116521150
0.0598770566 -0.1840027124 -0.2121780068
0.0613240674 -0.1835912913 -0.2119144201
0.0619402193 -0.1840918958 -0.2132192254
0.0629746318 -0.1841331869 -0.2137345374
0.0636051297 -0.1846297830 -0.2150374949
0.0646467879 -0.1846668422 -0.2155474573
0.0656903088 -0.1847016811 -0.2160537988
0.0667356551 -0.1847343147 -0.2165565491
0.0677827820 -0.1847647727 -0.2170557678
0.0688317195 -0.1847930402 -0.2175513655
0.0702668577 -0.1843609363 -0.2172418982
0.0716966018 -0.1839264482 -0.2169255018
0.0727436543 -0.1839479655 -0.2174068987
0.0741660669 -0.1835089326 -0.2170784026
0.0752129108 -0.1835259795 -0.2175509930
0.0758949667 -0.1839993596 -0.2188295871
0.0769487247 -0.1840121299 -0.2192965895
0.0780041888 -0.1840226948 -0.2197598964
0.0787055865 -0.1844896823 -0.2210340053
0.0797679052 -0.1844958663 -0.2214916199
0.0808318108 -0.1844999194 -0.2219455540
0.0822420716 -0.1840430945 -0.2215767652
0.0833055079 -0.1840427220 -0.2220218033
0.0843704715 -0.1840401888 -0.2224632055
0.0861046016 -0.1831182241 -0.2212537527
0.0868351460 -0.1835699230 -0.2225098312
0.0879010186 -0.1835608333 -0.2229386568
0.0889683515 -0.1835495830 -0.2233637869
0.0903563052 -0.1830776483 -0.2229557484
0.0911073908 -0.1835204661 -0.2242029011
0.0924908817 -0.1830442995 -0.2237845957
0.0935602635 -0.1830244064 -0.2241934985
0.0943266377 -0.1834605038 -0.2254337370
0.0954024941 -0.1834361553 -0.2258365154
0.0961827189 -0.1838676333 -0.2270734608
0.0972649753 -0.1838388294 -0.2274701297
0.0983485952 -0.1838078499 -0.2278630584
0.0994334817 -0.1837746650 -0.2282522023
0.1002375558 -0.1841968745 -0.2294807881
0.1013287827 -0.1841592044 -0.2298636436
0.1024212763 -0.1841192991 -0.2302427292
0.1032440290 -0.1845344454 -0.2314650714
0.0384107977 -0.1840159446 -0.2006614208
0.0394015051 -0.1841078550 -0.2012578845
0.0403944179 -0.1841976196 -0.2018509954
0.0409081988 -0.1847415268 -0.2031890899
0.0423869118 -0.1843705475 -0.2030270845
0.0429118574 -0.1849106848 -0.2043624371
0.0439169295 -0.1849919707 -0.2049439698
0.0449241698 -0.1850710958 -0.2055221200
0.0459335484 -0.1851480007 -0.2060968280
0.0460232608 -0.1861386597 -0.2081884742
0.0475011989 -0.1857534647 -0.2079980820
0.0485203564 -0.1858240515 -0.2085644156
