0.0525341421 -0.1210656770 -0.4699973288
-0.0298318072 -0.1013076010 -0.4750899378
-0.0428452582 -0.0862429140 -0.4679103699
0.0504052050 -0.0550206545 -0.4610318321
-0.0168003347 -0.0756721273 -0.4759239554
0.0498890910 -0.1168851055 -0.4525695909
-0.0530436940 -0.0664787195 -0.4710062571
-0.0027139818 -0.0701159537 -0.4543959647
0.0055543941 -0.1219074404 -0.4690744842
0.0309426962 -0.1071946868 -0.4588827256
0.0339361865 -0.0717823357 -0.4750043171
0.0552272938 -0.0975818203 -0.4456371342
-0.0124140674 -0.0772321048 -0.4513692183
-0.0163019352 -0.1197502939 -0.4635138801
-0.0040257792 -0.0923401117 -0.4499752223
-0.0320852528 -0.1051998263 -0.4733252244
0.0238374513 -0.1198917184 -0.4785139344
-0.0382845824 -0.1106984026 -0.4694667191
0.0099948183 -0.0725291175 -0.4655135817
-0.0152546124 -0.0742437484 -0.4764510581
0.0317774151 -0.1094443868 -0.4623378311
0.0566024702 -0.0532466297 -0.4670197403
0.0155388196 -0.0816410000 -0.4809781031
0.0198384477 -0.0782574096 -0.4705915125
0.0548749025 -0.1022389639 -0.4456635860
-0.0291895078 -0.1128016598 -0.4670555882
-0.0456873996 -0.1008814956 -0.4683443528
0.0267144817 -0.1253790598 -0.4865604118
-0.0070557385 -0.0910896435 -0.4473160803
-0.0315403134 -0.1248889757 -0.4975001128
0.0258076188 -0.1115625163 -0.4592301150
0.0024446708 -0.0869616565 -0.4487773067
0.0402599000 -0.0727208993 -0.4429556510
0.0125388502 -0.0902026428 -0.4593028380
0.0579955783 -0.0741695352 -0.4511660933
-0.0232403336 -0.0927274391 -0.4643722821
0.0174670776 -0.0831632383 -0.4734894436
0.0091407878 -0.1225282186 -0.4827352957
0.0484140068 -0.0350286458 -0.4610244781
0.0425415522 -0.0828973624 -0.4367963952
0.0401222992 -0.0771578128 -0.4413118191
-0.0309006215 -0.1282256814 -0.5063336467
-0.0228667352 -0.1272620120 -0.4865595284
-0.0624890445 -0.0642995073 -0.4792517436
-0.0005760647 -0.0898368228 -0.4486215935
0.0663769453 -0.1118592352 -0.4583583239
-0.0459164647 -0.0889945130 -0.4641427925
-0.0455221444 -0.0922762635 -0.4646868142
0.0199603424 -0.1156704114 -0.4605013780
0.0601667293 -0.0927052667 -0.4482082954
0.0377352739 -0.0750028346 -0.4784056264
-0.0028582741 -0.0625144505 -0.4661890906
0.0032297498 -0.0666571053 -0.4805826784
0.0517737470 -0.0652555007 -0.4588331740
-0.0088303047 -0.0651361375 -0.4639441914
-0.0151014229 -0.0735089243 -0.4858742359
0.0507673882 -0.0945055454 -0.4411712139
0.0577162251 -0.0768079526 -0.4460647379
-0.0007245065 -0.1037886141 -0.4553869390
0.0375459525 -0.0981787181 -0.4484344325
0.0450006689 -0.0518881686 -0.4560162513
-0.0046567107 -0.0765799084 -0.4485441196
0.0419261646 -0.0638242640 -0.4625411473
0.0410007089 -0.0651447177 -0.4553078115
0.0245709190 -0.1049183616 -0.4603610269
0.0594056659 -0.0705540954 -0.4661317954
0.0512185077 -0.0662981021 -0.4557903884
0.0451604382 -0.0932809813 -0.4384098054
-0.0441822498 -0.1107637138 -0.4736215144
0.0276227452 -0.1210909324 -0.4702210505
0.0067640129 -0.0750367367 -0.4649971665
0.0273505997 -0.0792496855 -0.4760643031
-0.0434116512 -0.1267705676 -0.4999240856
-0.0046951166 -0.0751637837 -0.4527842911
-0.0051859431 -0.0877928940 -0.4475389891
0.0074541283 -0.0996163972 -0.4604923054
0.0497321593 -0.0422192021 -0.4569533474
-0.0348017526 -0.1310360788 -0.5027168069
0.0299093167 -0.0696227018 -0.4710017046
0.0276895676 -0.0745129495 -0.4711168834
-0.0557660431 -0.0901914927 -0.4589101172
0.0119921996 -0.0822597120 -0.4565244158
-0.0228549424 -0.1041697930 -0.4713486720
0.0555524620 -0.0623520625 -0.4680939228
0.0151896260 -0.0748655462 -0.4734983480
-0.0039743152 -0.0953040272 -0.4530534446
-0.0236214828 -0.1164301608 -0.4657638601
-0.0290308823 -0.1103332639 -0.4807386026
-0.0174900865 -0.0998366252 -0.4607814588
0.0402167181 -0.0908330279 -0.4415879505
-0.0689026774 -0.0834388586 -0.4634193557
-0.0168453271 -0.1020887119 -0.4617946699
-0.0481072697 -0.0725656228 -0.4716612331
0.0425253822 -0.0807620077 -0.4368275908
0.0415716482 -0.0626096358 -0.4734639361
0.0320503896 -0.0867021759 -0.4404676749
0.0323769313 -0.0656834146 -0.4730792175
0.0308590829 -0.0870135478 -0.4420345023
0.0328686174 -0.0779828171 -0.4659810677
-0.0300061803 -0.0955221533 -0.4703545724
0.0413374402 -0.1180433850 -0.4604883186
0.0465465539 -0.0778405348 -0.4429602475
-0.0077701943 -0.1018349304 -0.4527036352
0.0299091157 -0.1016165730 -0.4560768314
-0.0436812339 -0.1263651039 -0.5064313580
0.0575890087 -0.0699539289 -0.4643691219
-0.0040682551 -0.1283010548 -0.5183536810
-0.0057421919 -0.1237157559 -0.4757956548
0.0416010129 -0.0622509151 -0.4707969609
0.0200374697 -0.0836828625 -0.4708074061
0.0445238698 -0.1214353412 -0.4745414454
0.0051617235 -0.1018665744 -0.4591505549
-0.0627631663 -0.0940457013 -0.4646905139
-0.0072156675 -0.0573316652 -0.4690203217
-0.0123133380 -0.0869799579 -0.4479332372
-0.0335704334 -0.1133210221 -0.4748242951
0.0093169240 -0.0611162766 -0.4834342085
-0.0407065247 -0.0937315108 -0.4681525606
0.0039060011 -0.1166703541 -0.4659546938
0.0584618583 -0.0740547173 -0.4562861810
-0.0176750541 -0.1306674269 -0.5140961963
0.0184438537 -0.0822453166 -0.4688007272
-0.0046567426 -0.1252374173 -0.4968484117
-0.0310073504 -0.1200433482 -0.4904847019
-0.0702482944 -0.1036909984 -0.4774620512
0.0473572314 -0.1012997136 -0.4447996873
0.0021994372 -0.0717645288 -0.4653123915
0.0171016265 -0.0797664379 -0.4809852685
-0.0046307383 -0.1177798221 -0.4680402770
-0.0082787318 -0.0952697787 -0.4507901915
-0.0544580917 -0.1089841547 -0.4758140065
-0.0616314790 -0.1020557534 -0.4786965741
0.0201858177 -0.0920319721 -0.4572497652
0.0342786573 -0.1053671903 -0.4557222036
-0.0490951556 -0.0734950720 -0.4685554207
0.0051765067 -0.0724077784 -0.4803956380
0.0285768067 -0.1121310732 -0.4635354796
0.0321573673 -0.0944334543 -0.4478999961
0.0206777403 -0.1096248000 -0.4691421902
-0.0183120207 -0.1039304515 -0.4663886620
0.0029432496 -0.0969832606 -0.4586865256
0.0228566481 -0.0844505771 -0.4737435351
-0.0349058441 -0.0965350189 -0.4672355876
0.0552596184 -0.0573761885 -0.4663316426
0.0349919151 -0.1283327052 -0.4815323075
-0.0449681370 -0.0821935343 -0.4586949371
0.0343246645 -0.0970002230 -0.4481411282
-0.0230846240 -0.1314249057 -0.5053571042
-0.0703113212 -0.0801999615 -0.4641957525
0.0313612515 -0.0772294940 -0.4682315596
0.0246046305 -0.0926284959 -0.4511597787
-0.0242043623 -0.0822416152 -0.4563066348
0.0352565335 -0.1209612102 -0.4708918003
-0.0586743046 -0.0787932286 -0.4649120492
0.0277781700 -0.0900116168 -0.4530879711
-0.0111048504 -0.1342881832 -0.5036198743
0.0428322013 -0.0597360277 -0.4579044821
-0.0542241465 -0.0625537616 -0.4758186359
-0.0545520348 -0.0649616967 -0.4755631884
-0.0434786283 -0.1288874800 -0.5019153495
-0.0315982593 -0.1218723563 -0.4844253928
-0.0500209715 -0.0938318704 -0.4639650534
-0.0195102930 -0.1087805681 -0.4703213591
0.0152845151 -0.1308215740 -0.4955168069
-0.0375602171 -0.1089452377 -0.4775916322
0.0097837540 -0.1074248086 -0.4652701838
-0.0555603397 -0.0883430973 -0.4572544668
0.0052880882 -0.0902583227 -0.4559105635
-0.0163577939 -0.0809195782 -0.4484135205
-0.0220722797 -0.0947204701 -0.4657793684
0.0150214079 -0.1070558370 -0.4674128480
0.0140986561 -0.1247240591 -0.4842393164
0.0235749536 -0.1143925714 -0.4616970620
0.0183153377 -0.1141276621 -0.4605207202
-0.0403395371 -0.0748211946 -0.4765875514
-0.0156386714 -0.0631797286 -0.4818346668
0.0078872351 -0.1140442043 -0.4603733786
-0.0127329757 -0.1344029202 -0.5094835477
0.0197836500 -0.0894501908 -0.4563221961
-0.0287895828 -0.1224187766 -0.4829161771
0.0426846255 -0.0547648330 -0.4632609704
-0.0634291774 -0.0939288889 -0.4698548148
0.0546472528 -0.0797003375 -0.4370118075
-0.0196228061 -0.0766566552 -0.4535735620
0.0638737446 -0.0811735151 -0.4579092306
0.0598996938 -0.0848436349 -0.4455547654
-0.0623556153 -0.0721010939 -0.4659884447
-0.0334166604 -0.1195677025 -0.4844608455
0.0268299714 -0.1204800182 -0.4666226001
-0.0418019226 -0.1088676813 -0.4726302901
-0.0477119577 -0.0841251603 -0.4588637808
-0.0147363954 -0.0896104995 -0.4458153463
-0.0092803780 -0.0619630445 -0.4764946998
0.0327853738 -0.0994944150 -0.4509137224
-0.0239496046 -0.0792968532 -0.4687300220
-0.0408187731 -0.0910527053 -0.4667494448
-0.0343344031 -0.1231692075 -0.4940827928
-0.0202859818 -0.0843044503 -0.4594020123
0.0353105451 -0.0766840265 -0.4434312392
-0.0606061188 -0.0961332899 -0.4665465393
-0.0101174905 -0.1006228726 -0.4588686579
0.0545345304 -0.0751928011 -0.4415197018
-0.0298954337 -0.1059920062 -0.4786154077
0.0251700544 -0.0860524770 -0.4762048347
0.0526517099 -0.0542218382 -0.4644191456
0.0189561413 -0.0835501568 -0.4688697193
0.0148567976 -0.0928570701 -0.4605693143
0.0417537823 -0.0606982746 -0.4729078015
0.0471569484 -0.1034744710 -0.4478367552
0.0435918293 -0.1301792505 -0.4904371717
0.0231027545 -0.1310574979 -0.5001399346
-0.0446470353 -0.1046240379 -0.4735673191
0.0371245972 -0.1275292054 -0.4759096700
0.0346119323 -0.0904162716 -0.4399226811
-0.0027320976 -0.0597452946 -0.4688933067
0.0281897272 -0.1290735584 -0.4991105747
0.0255281550 -0.0731283715 -0.4810908472
-0.0091590523 -0.1337812614 -0.5083318749
0.0451196631 -0.1263310915 -0.4794440586
-0.0315312523 -0.1298373352 -0.5181984783
-0.0112962989 -0.0652452349 -0.4779556774
-0.0349121857 -0.0916585049 -0.4713974794
0.0023326275 -0.1070035138 -0.4606522438
0.0479055655 -0.0796725851 -0.4366583887
0.0007888174 -0.1263820963 -0.4894440566
-0.0523589280 -0.0897430573 -0.4591416311
0.0640320308 -0.1162904140 -0.4728602533
0.0106420309 -0.1021993733 -0.4634212408
0.0374792547 -0.0746575207 -0.4685685081
0.0398409089 -0.0601818483 -0.4757579596
-0.0022609691 -0.0620676519 -0.4682999881
-0.0354829908 -0.1337520052 -0.5099841871
0.0076424417 -0.1191846904 -0.4714299714
-0.0220976335 -0.0942387679 -0.4619526274
0.0299989241 -0.0814543459 -0.4713072650
0.0566205802 -0.0691805764 -0.4585402850
-0.0538041287 -0.1201145140 -0.4796814176
-0.0418238806 -0.0981634057 -0.4718649377
-0.0201902061 -0.0767513462 -0.4778848835
-0.0346573317 -0.1160245398 -0.4987502898
-0.0249115735 -0.0870555966 -0.4613964488
-0.0422871337 -0.0770771086 -0.4712189577
-0.0018492034 -0.0872940288 -0.4463270716
0.0024592276 -0.0774212033 -0.4468289514
0.0333533034 -0.1209765714 -0.4665907598
0.0730769109 -0.1006603692 -0.4636236171
0.0010784172 -0.1293830559 -0.5120658167
-0.0435832978 -0.0710935365 -0.4805987564
-0.0500817538 -0.0717593562 -0.4706558490
-0.0003568078 -0.0924036980 -0.4518260320
0.0354574537 -0.1000519072 -0.4511706343
0.0350553210 -0.1117398095 -0.4589620960
0.0049418599 -0.1096515917 -0.4638719396
-0.0522568313 -0.0769040585 -0.4627845188
-0.0467074989 -0.1273617706 -0.5036644192
0.0201743311 -0.0838463029 -0.4724887434
0.0173981225 -0.1037694392 -0.4669956085
-0.0496999653 -0.0686344231 -0.4805222234
-0.0523558181 -0.0748220744 -0.4634141922
-0.0307580738 -0.0842818648 -0.4678958602
-0.0051150085 -0.1081006063 -0.4611561561
0.0400838456 -0.0802420623 -0.4390062588
-0.0384762039 -0.1173691085 -0.4736955769
-0.0380729212 -0.1013024939 -0.4712340597
0.0429809596 -0.0722068176 -0.4422150403
-0.0542887349 -0.0589648651 -0.4760077488
-0.0738648075 -0.0916059498 -0.4776389968
-0.0656431010 -0.0815807465 -0.4653667474
-0.0209658466 -0.1284404317 -0.5014926062
0.0455964839 -0.0565587126 -0.4562781439
0.0076504230 -0.0769002276 -0.4635098924
0.0529023148 -0.1308947419 -0.4910228723
-0.0280924874 -0.0864922479 -0.4627249882
-0.0590635717 -0.1158294251 -0.4794065301
-0.0306723836 -0.1340136713 -0.5155417070
0.0186812184 -0.1108087779 -0.4591629141
0.0276432802 -0.1120720314 -0.4665513342
0.0507101748 -0.1060914531 -0.4535466191
-0.0455662862 -0.0976450733 -0.4685040466
0.0128199199 -0.1247945073 -0.4887933961
0.0329329452 -0.0753325000 -0.4490702993
0.0453071881 -0.1185623521 -0.4591570392
0.0202060714 -0.1236370748 -0.4775230335
-0.0203930037 -0.0760989533 -0.4842449052
-0.0129600807 -0.1184516631 -0.4713186391
0.0039794125 -0.1014643138 -0.4554747706
0.0045844921 -0.1264423471 -0.4868388262
-0.0328477191 -0.1271993575 -0.5207632914
-0.0071149065 -0.0669435659 -0.4557018062
-0.0102071282 -0.1150693300 -0.4610973859
0.0376037270 -0.0699042063 -0.4607883658
0.0621525037 -0.0723615193 -0.4710430880
0.0659249887 -0.0820644737 -0.4602306902
0.0545755340 -0.0916162944 -0.4420020971
0.0144732101 -0.0826623523 -0.4591559955
-0.0017235114 -0.1152523948 -0.4607659497
0.0460655665 -0.1235953938 -0.4726574026
0.0551275170 -0.0653160250 -0.4609853603
0.0156556632 -0.0843071828 -0.4583684432
0.0143536952 -0.0901073027 -0.4603958829
0.0499120681 -0.0673511178 -0.4509723730
0.0523069926 -0.0673536587 -0.4554150764
0.0020280053 -0.1222005780 -0.4825444143
-0.0076402640 -0.1335485458 -0.5064922417
0.0548413818 -0.1040786929 -0.4500735346
-0.0206059147 -0.0767814790 -0.4588657124
0.0620931762 -0.0930122517 -0.4451446328
0.0431353473 -0.0966150044 -0.4368724343
-0.0110766029 -0.1248469423 -0.4910116197
0.0473793960 -0.0621945040 -0.4533571815
0.0288792988 -0.1200700201 -0.4736211535
0.0601941736 -0.0926426012 -0.4435784246
0.0304494329 -0.1097565260 -0.4597497853
0.0062359022 -0.0750850426 -0.4713459825
0.0055094938 -0.0869970373 -0.4514511693
-0.0179529040 -0.0646467128 -0.4807147808
0.0528613331 -0.0840810516 -0.4382911586
-0.0334173213 -0.0933762051 -0.4696999324
-0.0230159231 -0.1036532905 -0.4605533967
0.0597253393 -0.0600741942 -0.4696538353
0.0571974789 -0.0577374044 -0.4684210207
-0.0351450984 -0.1120074991 -0.4689063470
0.0122495070 -0.0947341743 -0.4619288481
0.0574932061 -0.0629288182 -0.4724268317
-0.0317275987 -0.1108771695 -0.4774413677
0.0059748102 -0.1089929108 -0.4561013042
0.0303769250 -0.0976490113 -0.4534586961
0.0295535899 -0.0793697042 -0.4616349661
-0.0447492544 -0.0781376548 -0.4593020827
0.0323052897 -0.1152385931 -0.4603447083
0.0076086672 -0.0940433110 -0.4568104401
-0.0682245852 -0.1086151803 -0.4834978168
0.0221124279 -0.0822032699 -0.4614744053
-0.0437716439 -0.0853389607 -0.4657944513
-0.0177133077 -0.0945393546 -0.4558484941
0.0075260283 -0.1232949038 -0.5132042473
0.0635030657 -0.0899473225 -0.4507387352
-0.0654144090 -0.0716694536 -0.4741474471
-0.0026736923 -0.1059944626 -0.4587355213
0.0174545736 -0.1201764514 -0.4575590710
0.0062239866 -0.1278297447 -0.4973722220
0.0246078785 -0.0820436346 -0.4769623333
0.0249560614 -0.0970265227 -0.4612679279
-0.0145514422 -0.1279563208 -0.4956187823
-0.0103575711 -0.0618815919 -0.4837898586
0.0302666138 -0.0823361752 -0.4415577661
-0.0093167355 -0.0820598752 -0.4518063055
0.0063878021 -0.0542705285 -0.4798744743
-0.0048112791 -0.0718455457 -0.4528964557
-0.0143129090 -0.0717973381 -0.4580478444
0.0508013046 -0.1209977010 -0.4635953253
-0.0368211391 -0.1204077584 -0.4761510668
-0.0117808886 -0.1238846770 -0.4857624138
0.0273080432 -0.0848338956 -0.4463996353
-0.0141275895 -0.1264260048 -0.4918203544
0.0123517367 -0.0847147763 -0.4583019310
0.0151697305 -0.0823442205 -0.4634547248
-0.0537906792 -0.1137062091 -0.4748698779
-0.0001282019 -0.0640777898 -0.4717653758
0.0402904006 -0.0718541285 -0.4461615447
0.0483263066 -0.1211153682 -0.4616067533
-0.0581471947 -0.1188290831 -0.4805946758
0.0404284790 -0.0747913335 -0.4451607238
0.0254703792 -0.0818706482 -0.4482063803
0.0557987295 -0.0698655988 -0.4610663748
-0.0088831641 -0.1081413935 -0.4561111758
0.0575251321 -0.0744999149 -0.4483665994
-0.0048642749 -0.0842135427 -0.4458667003
-0.0112282665 -0.0663866039 -0.4864246937
0.0153948919 -0.0820962345 -0.4664625120
0.0425986970 -0.0890228078 -0.4341275891
-0.0444734968 -0.0769879833 -0.4631843757
-0.0308473998 -0.1228614945 -0.5003204765
0.0383090888 -0.0570059020 -0.4750483610
-0.0661304061 -0.0778354522 -0.4656523003
0.0238864541 -0.0775846520 -0.4816120804
-0.0140417653 -0.1083965993 -0.4597276846
0.0573695632 -0.1174741033 -0.4627348465
0.0358250424 -0.0743536616 -0.4435791700
-0.0175087413 -0.1086574526 -0.4688882158
-0.0367210921 -0.1228858085 -0.4849490056
0.0280589842 -0.0689104267 -0.4673113915
0.0023381607 -0.0732014983 -0.4558632084
0.0699781234 -0.0877966403 -0.4610510966
0.0080703682 -0.0694861109 -0.4780663502
-0.0580618415 -0.0991945895 -0.4661743166
0.0327477769 -0.1070588860 -0.4563571869
-0.0016318559 -0.1297895455 -0.5158811781
0.0436889055 -0.0567891534 -0.4560433856
0.0555901149 -0.1128617717 -0.4562853355
-0.0115312038 -0.1193389828 -0.4736431756
0.0049249241 -0.1289151817 -0.5093655664
-0.0044621673 -0.0748413248 -0.4511358663
-0.0257185868 -0.0874065641 -0.4713376538
-0.0047237580 -0.1351387062 -0.5084198968
0.0171261578 -0.0988303653 -0.4641395025
-0.0103048047 -0.1278959620 -0.4908718825
-0.0570805967 -0.0669462308 -0.4705573320
-0.0183613604 -0.1244570900 -0.4853816241
0.0063780874 -0.1231783857 -0.4872398750
0.0209190860 -0.1181176095 -0.4614721802
0.0706001699 -0.0878856280 -0.4630973144
-0.0712972504 -0.1041418576 -0.4777510548
-0.0464322196 -0.1285978987 -0.5065479795
-0.0380809317 -0.0810408373 -0.4734018411
-0.0383041245 -0.0943392373 -0.4692469026
0.0169041048 -0.0847172511 -0.4562222057
0.0428821404 -0.0513063494 -0.4643306917
0.0667120270 -0.0785553498 -0.4717431847
0.0450104845 -0.0953426094 -0.4395036860
0.0507077145 -0.1104989283 -0.4527353328
0.0602214985 -0.0627572640 -0.4737056691
-0.0126507553 -0.0866727242 -0.4463849044
-0.0419021626 -0.0958503763 -0.4719492299
-0.0468953386 -0.0791248493 -0.4589618060
0.0053579321 -0.1264757195 -0.4956374159
-0.0257504812 -0.1220584773 -0.4809883932
-0.0632795034 -0.0871842594 -0.4620132683
-0.0429538104 -0.1026444435 -0.4723681925
-0.0560967743 -0.1188592036 -0.4858305047
-0.0449778694 -0.0797890399 -0.4585508373
0.0358585274 -0.1294519630 -0.4922322780
0.0580552705 -0.0725118042 -0.4615261195
0.0056039035 -0.1224378157 -0.4810768069
0.0445258046 -0.0600817978 -0.4511016082
-0.0069936597 -0.1283136351 -0.4992169941
0.0231239703 -0.0831256211 -0.4530823231
0.0547038786 -0.0721399900 -0.4511473691
0.0340032992 -0.0705148033 -0.4667755711
0.0318882821 -0.1004875569 -0.4531722998
0.0062125548 -0.0683904679 -0.4741059059
0.0529477515 -0.0752774147 -0.4390366967
0.0199128425 -0.0838079882 -0.4580028146
0.0422513936 -0.0468714646 -0.4620187183
0.0003366252 -0.0501558922 -0.4721879601
0.0300823244 -0.1182410430 -0.4673082769
0.0385041858 -0.0771219239 -0.4418068367
0.0548248836 -0.0667018082 -0.4660174886
0.0397461969 -0.0742013725 -0.4795656689
0.0566543154 -0.0690588355 -0.4662504494
-0.0104303281 -0.1118353943 -0.4569087724
0.0351357593 -0.0789063300 -0.4412219867
0.0577510855 -0.0626895471 -0.4706371233
0.0453789657 -0.1084812902 -0.4504331097
0.0456675476 -0.0775478946 -0.4430736461
0.0431831148 -0.0622691458 -0.4505668522
0.0004402772 -0.0850046873 -0.4474776387
-0.0527166065 -0.0723878649 -0.4639450873
0.0333347805 -0.0888774133 -0.4396466119
-0.0180573213 -0.0723010784 -0.4661082314
0.0374778810 -0.1006092421 -0.4492579782
0.0372754735 -0.0720828131 -0.4561530752
0.0248752045 -0.1113261309 -0.4648693915
-0.0734230449 -0.0872502235 -0.4746224774
-0.0338527026 -0.1217275582 -0.4987491674
-0.0644399639 -0.0698881660 -0.4806782916
-0.0403629955 -0.1311611772 -0.5112086782
0.0229169669 -0.1132073621 -0.4710056224
0.0111171851 -0.1277202191 -0.4970961796
-0.0099250366 -0.1047303674 -0.4602623505
-0.0022305899 -0.0730431325 -0.4516650506
-0.0197684853 -0.0758927473 -0.4612426421
-0.0467712763 -0.0745225903 -0.4717088372
0.0099312237 -0.0899992216 -0.4586509086
-0.0300607035 -0.0827911504 -0.4750625990
0.0362919771 -0.0635480830 -0.4703698416
0.0231651780 -0.1277100110 -0.5077302082
0.0206719478 -0.0836424128 -0.4662272965
0.0409175151 -0.0677043331 -0.4654673877
-0.0679360880 -0.0999085614 -0.4730985357
-0.0520054387 -0.0626169764 -0.4781973164
0.0578525357 -0.0980476840 -0.4458468094
0.0482286974 -0.0599082132 -0.4562972146
-0.0298362408 -0.0777983502 -0.4819003741
0.0185311752 -0.1087756879 -0.4568465616
-0.0184032530 -0.0762041717 -0.4720699315
0.0234695942 -0.1261677655 -0.4958933183
-0.0222250115 -0.0920698844 -0.4609874700
0.0229485564 -0.1045862978 -0.4687748797
-0.0553813751 -0.0922593880 -0.4618703456
0.0304224071 -0.0670505595 -0.4761535188
-0.0630171049 -0.0959995270 -0.4679759262
0.0591919912 -0.0824722148 -0.4445952936
-0.0360547785 -0.1217610764 -0.4823815026
0.0229665339 -0.1063873591 -0.4662992988
0.0499223757 -0.1124728726 -0.4564769082
-0.0655979156 -0.0910970346 -0.4643282690
-0.0104832738 -0.0668480379 -0.4678714833
-0.0167063030 -0.1052137762 -0.4625690862
-0.0281521191 -0.0926324003 -0.4666678553
0.0193579243 -0.1203232176 -0.4790375888
0.0093423137 -0.0820751650 -0.4530426921
-0.0304440355 -0.0987495701 -0.4729727001
0.0094978179 -0.0744454966 -0.4831336598
0.0553368469 -0.1202528868 -0.4612075957
-0.0168669596 -0.0935157095 -0.4538668224
0.0147090442 -0.1289872940 -0.5069090204
0.0648735082 -0.0787149427 -0.4632583803
0.0352933626 -0.0921786325 -0.4411917939
-0.0338519023 -0.1109255495 -0.4800332419
-0.0224991054 -0.1254486186 -0.4973225634
-0.0103623394 -0.0680725696 -0.4766342096
-0.0216801450 -0.1205842877 -0.4841187996
0.0216381896 -0.0920060433 -0.4585665996
0.0043619920 -0.0597956457 -0.4819955934
0.0449990368 -0.0873840364 -0.4339976249
0.0107130682 -0.0823674630 -0.4558073600
-0.0470959663 -0.1213186620 -0.4828964777
-0.0662572490 -0.0991016232 -0.4722186549
-0.0267661310 -0.1039897503 -0.4766448763
0.0394681916 -0.1023168489 -0.4471217096
-0.0023917646 -0.0453494069 -0.4675748254
0.0535258451 -0.1190019843 -0.4580282685
0.0590672418 -0.0848903705 -0.4439227269
0.0395506212 -0.1043183458 -0.4484523068
0.0177526687 -0.0841329395 -0.4586069646
0.0303435644 -0.1009469388 -0.4505177067
-0.0199873284 -0.1048160058 -0.4676437274
-0.0120127950 -0.1128120774 -0.4589783899
0.0098289194 -0.1018034473 -0.4621176793
-0.0430933807 -0.1315224888 -0.5129270446
-0.0496466448 -0.0743891543 -0.4637301551
-0.0625092886 -0.0914834627 -0.4639887776
0.0519923505 -0.0992868596 -0.4457214206
-0.0198418517 -0.0762111396 -0.4554572105
-0.0069099426 -0.0549184784 -0.4686820092
-0.0048193088 -0.0496818303 -0.4667763043
0.0278317581 -0.1149811122 -0.4603743873
-0.0323722581 -0.0832512618 -0.4703733282
0.0394944093 -0.1188223847 -0.4571919296
-0.0390480222 -0.0813754817 -0.4703100559
0.0298404516 -0.1203299370 -0.4639610104
0.0176358740 -0.1202459324 -0.4811489629
0.0028721792 -0.0545084756 -0.4778352844
-0.0305255314 -0.1295539551 -0.5217331021
0.0587179287 -0.0718048617 -0.4687177145
0.0561917132 -0.0801156373 -0.4412510051
-0.0352995463 -0.0817426401 -0.4785698993
0.0027998915 -0.1310300188 -0.4985392707
0.0045666486 -0.0724514205 -0.4795434552
-0.0305557607 -0.1202891738 -0.4810284342
-0.0216394187 -0.0750115837 -0.4686433645
0.0316874329 -0.0955637465 -0.4513031063
-0.0346355175 -0.1251084994 -0.4985676100
0.0101511968 -0.0925030090 -0.4603485764
-0.0150762097 -0.0724313157 -0.4661201416
-0.0099790418 -0.1309254523 -0.5092745382
0.0673287163 -0.0870217024 -0.4568014878
0.0323188963 -0.1182357907 -0.4631078530
-0.0076855185 -0.1064671756 -0.4592042392
0.0307419668 -0.0889002018 -0.4443304406
0.0370545025 -0.1072810823 -0.4538621910
0.0306887973 -0.1118169316 -0.4674452805
0.0511311088 -0.0895813480 -0.4380596280
0.0021299644 -0.1203041092 -0.4777300387
-0.0263455282 -0.1241921710 -0.4994768268
0.0123502315 -0.0994560793 -0.4637417437
-0.0406152186 -0.1229880751 -0.4928398030
0.0362364292 -0.1175676923 -0.4616523350
-0.0464031086 -0.1225811486 -0.4904788124
0.0411383249 -0.0658392683 -0.4667909741
0.0627571328 -0.0790955983 -0.4561263658
0.0456833366 -0.0421557108 -0.4588356514
-0.0035435368 -0.1228043752 -0.4748273598
-0.0601616104 -0.0693644474 -0.4683584390
-0.0259058099 -0.1198051514 -0.4915011681
-0.0681851031 -0.0735270946 -0.4777821124
-0.0395366389 -0.1254391055 -0.4978581972
0.0582714157 -0.1178693507 -0.4667133427
-0.0545222684 -0.0613256914 -0.4736276818
0.0150418904 -0.1268048719 -0.5098601750
-0.0409074626 -0.1202070646 -0.4953447492
0.0552395997 -0.1005075885 -0.4446089419
0.0028498800 -0.0602763933 -0.4799617589
0.0476705506 -0.0937332511 -0.4385367632
0.0329069108 -0.1309262975 -0.4965201759
-0.0219490037 -0.1231907368 -0.4945855141
-0.0070634218 -0.0819867367 -0.4465898540
-0.0626731575 -0.0695957671 -0.4735813547
-0.0201546759 -0.1302791905 -0.5073416682
-0.0449015011 -0.0771295822 -0.4610698295
0.0651396788 -0.0919322194 -0.4505403179
0.0266749145 -0.1195722806 -0.4646408215
0.0585072574 -0.0816615634 -0.4435120345
0.0433188193 -0.0595652984 -0.4554902266
0.0442582713 -0.1163163493 -0.4550662030
-0.0361013599 -0.1308043340 -0.5131278423
-0.0502899489 -0.0722250362 -0.4680768454
0.0224671648 -0.1158089968 -0.4702595375
-0.0399834869 -0.1313624216 -0.5152873601
-0.0662364712 -0.1110915549 -0.4823749545
0.0456688213 -0.0492906282 -0.4562522221
0.0315236611 -0.1166074037 -0.4574593990
0.0172970582 -0.0827855814 -0.4654336541
-0.0314061432 -0.1198123167 -0.4771118103
0.0568417795 -0.0572896190 -0.4700726569
-0.0127641430 -0.0964498304 -0.4531193138
0.0300145749 -0.0904707502 -0.4488533034
0.0551712250 -0.0593768732 -0.4669497994
0.0415725797 -0.0640370981 -0.4604555842
0.0347931463 -0.0555425022 -0.4756093719
0.0374733968 -0.0924493268 -0.4391071244
0.0256697830 -0.0697741674 -0.4753505901
-0.0146090752 -0.0937984351 -0.4517180587
0.0286514611 -0.0890962314 -0.4483681284
0.0454077069 -0.0751652168 -0.4428650517
0.0651185438 -0.0767730586 -0.4715248793
-0.0224577120 -0.0996833357 -0.4665384231
0.0429259446 -0.0618112694 -0.4530423048
0.0589055622 -0.0804457238 -0.4450235884
0.0409126620 -0.0599239172 -0.4738152692
0.0392428153 -0.1242164186 -0.4760454348
0.0374303701 -0.1215550335 -0.4661648708
-0.0240641914 -0.1086366623 -0.4666054556
0.0499610797 -0.0378417066 -0.4604395456
0.0680654153 -0.1023747469 -0.4604991178
0.0352368514 -0.0995908400 -0.4494693312
0.0296485017 -0.0689459511 -0.4604779180
-0.0148089487 -0.1152834640 -0.4606571368
-0.0445079753 -0.0749094322 -0.4763510764
-0.0419730493 -0.1234672665 -0.4895238982
0.0079088392 -0.0764560692 -0.4676941685
0.0711132704 -0.1053545485 -0.4650627400
0.0079701422 -0.1113256179 -0.4672603540
-0.0630602302 -0.0715036102 -0.4685401747
0.0260607166 -0.1146183121 -0.4614178787
0.0076008192 -0.1334786172 -0.5070072121
-0.0147260644 -0.0797590241 -0.4489070206
0.0191040179 -0.0860588518 -0.4619548058
0.0443413328 -0.1193178580 -0.4620511537
0.0133132036 -0.1049750073 -0.4587297943
0.0633110550 -0.0822569333 -0.4540292474
0.0409509853 -0.0688654070 -0.4761459317
0.0002860156 -0.0811841379 -0.4477476353
0.0287217713 -0.1205682192 -0.4840672172
0.0052634504 -0.1020198501 -0.4603611551
0.0068931356 -0.1021216444 -0.4582802980
-0.0327387366 -0.0990798526 -0.4725272392
-0.0604664683 -0.0670686737 -0.4812419713
0.0127995596 -0.1096252122 -0.4662308188
-0.0201853866 -0.1328190172 -0.5070537079
0.0525177204 -0.1213260474 -0.4611761356
-0.0523270946 -0.0788650268 -0.4617219456
-0.0347332385 -0.1172989090 -0.4706366852
-0.0423944795 -0.1205856482 -0.4780833566
0.0315938216 -0.1017387965 -0.4564734299
-0.0068269518 -0.1226374195 -0.4826551027
0.0495336711 -0.0467556358 -0.4579140582
-0.0027243530 -0.1243817197 -0.4899328330
0.0249026821 -0.1244905813 -0.4878612779
-0.0723609426 -0.0819774349 -0.4629368245
0.0158193889 -0.1137662710 -0.4643394300
-0.0205254674 -0.1017693354 -0.4669655807
0.0605836231 -0.0776593601 -0.4532582639
-0.0172793827 -0.1107479997 -0.4660962195
0.0281951362 -0.1224318480 -0.4780622218
0.0438238686 -0.0749712979 -0.4435639771
0.0638571735 -0.0903169223 -0.4467597599
-0.0730715917 -0.1000949273 -0.4791344525
-0.0056329962 -0.0625438803 -0.4617882451
-0.0193617700 -0.0921556515 -0.4562568781
-0.0193762036 -0.1013598202 -0.4639302194
-0.0505507253 -0.0621446893 -0.4796974659
0.0361594157 -0.0728706511 -0.4459876298
0.0250637159 -0.0849500438 -0.4537089325
0.0281675020 -0.1178308033 -0.4609941496
-0.0325837263 -0.0870683420 -0.4737981053
0.0458101849 -0.1160554374 -0.4627741865
0.0422105478 -0.0592398106 -0.4641151363
0.0563711107 -0.0911031512 -0.4491736133
0.0371566638 -0.0953960493 -0.4428521991
0.0186130222 -0.0758483725 -0.4841899870
0.0050481389 -0.1039865706 -0.4610139674
0.0105384111 -0.0770470842 -0.4735093613
0.0454007532 -0.1103326492 -0.4545409862
0.0013462612 -0.0713530665 -0.4636515908
-0.0198761222 -0.0755368495 -0.4564078319
0.0369921771 -0.1268587496 -0.4857249010
0.0601046924 -0.0910623771 -0.4472057039
0.0389640983 -0.1005404828 -0.4480668906
0.0204914025 -0.1139657830 -0.4711181272
-0.0001257877 -0.0751988113 -0.4510112753
-0.0346416261 -0.1232905092 -0.4899171612
0.0201698835 -0.0829195122 -0.4507545990
0.0002868504 -0.0688520473 -0.4675185296
-0.0649964096 -0.0724362457 -0.4689832626
0.0174197906 -0.0829615405 -0.4701993587
0.0081998923 -0.1095824578 -0.4670101338
0.0353682756 -0.0720517707 -0.4556867516
0.0506109458 -0.0928455774 -0.4454486269
-0.0274538666 -0.0749480371 -0.4814471807
0.0622314854 -0.1184376150 -0.4747097777
-0.0496492960 -0.1264836717 -0.5034895844
0.0499949987 -0.0967563008 -0.4426737556
-0.0509259672 -0.0905520880 -0.4617078372
0.0155180426 -0.1314186521 -0.5070654290
-0.0106069892 -0.0925381605 -0.4527964010
-0.0058264675 -0.0625560629 -0.4589085382
-0.0224880383 -0.0681671423 -0.4804464016
-0.0331411559 -0.0909678202 -0.4661176900
0.0654916986 -0.1038464685 -0.4583897532
0.0369525115 -0.0722545937 -0.4587812351
0.0074018261 -0.0741986448 -0.4744973285
0.0430770755 -0.0679332328 -0.4421388710
0.0302395504 -0.1201815918 -0.4586837865
0.0500868073 -0.0357894627 -0.4614318483
-0.0370392856 -0.1255590038 -0.4985899647
-0.0454993375 -0.0941230733 -0.4665035910
0.0112254752 -0.0749571203 -0.4809699658
-0.0243695298 -0.0801238588 -0.4606889878
-0.0568579601 -0.1111924862 -0.4754333149
-0.0505595073 -0.0629891558 -0.4831745860
-0.0418874960 -0.0816598549 -0.4613568457
0.0526773192 -0.0899646148 -0.4386372413
-0.0134098730 -0.1017169262 -0.4602917219
-0.0244039565 -0.1180344788 -0.4932699610
0.0473723936 -0.0793120615 -0.4384389670
0.0176017304 -0.1116338644 -0.4705145591
0.0295718931 -0.1066603838 -0.4610074161
-0.0189350872 -0.0612235416 -0.4796897277
-0.0148358214 -0.0991322562 -0.4588469595
-0.0453163367 -0.1253791096 -0.4911223955
-0.0244570136 -0.0728885189 -0.4844489993
-0.0724349541 -0.1046819610 -0.4812270367
-0.0451380895 -0.1223019227 -0.4865726042
-0.0632158691 -0.1118625953 -0.4798869478
0.0104671313 -0.0657764715 -0.4803454519
-0.0503034801 -0.0972618181 -0.4662335266
-0.0099196935 -0.1185319526 -0.4690218360
-0.0472341139 -0.1087914744 -0.4718777232
-0.0181946590 -0.1349787829 -0.5089880234
0.0278298389 -0.0971797669 -0.4569448699
-0.0282432172 -0.1208788663 -0.4987526750
-0.0029552081 -0.0881130921 -0.4483817263
0.0404653446 -0.1240272732 -0.4790634326
0.0401550713 -0.1198583659 -0.4632314106
0.0524631212 -0.1036032161 -0.4482274533
0.0504844372 -0.1027939283 -0.4423567058
0.0559912665 -0.0747604165 -0.4457595941
0.0223305137 -0.0840951441 -0.4658965016
0.0494827498 -0.1035592074 -0.4447322845
0.0182622405 -0.1259339824 -0.5097488038
0.0019670420 -0.0819795040 -0.4523708168
-0.0187802187 -0.0747980104 -0.4738100505
0.0589419797 -0.0500893771 -0.4646971572
0.0302210975 -0.1152836197 -0.4774812814
-0.0345016659 -0.1073834720 -0.4761663441
0.0180104107 -0.0874190471 -0.4581705007
0.0300129093 -0.0851725895 -0.4493064190
0.0363398200 -0.0717723998 -0.4621017407
-0.0424294410 -0.0837626424 -0.4636131150
0.0358058215 -0.0727962119 -0.4489072863
-0.0138512256 -0.1176292465 -0.4640273103
-0.0442368350 -0.1260578177 -0.5030430311
-0.0644117469 -0.0716734905 -0.4711588535
0.0424028337 -0.0844093032 -0.4383177764
-0.0101038028 -0.1074896858 -0.4610755905
0.0297415220 -0.0926281679 -0.4513515595
0.0129937811 -0.1150881493 -0.4616978206
-0.0115461552 -0.1209385981 -0.4773889415
-0.0330351117 -0.0869951761 -0.4638378825
0.0046406435 -0.1227489320 -0.4834402925
0.0042054547 -0.0988975604 -0.4571534937
0.0034777032 -0.0718705550 -0.4765956660
-0.0548211834 -0.1199991517 -0.4828789274
-0.0020181146 -0.0473609939 -0.4684847274
0.0346826691 -0.0740692527 -0.4554147791
0.0358668982 -0.1142046272 -0.4570730040
-0.0544916890 -0.1080217821 -0.4716882676
-0.0079008137 -0.1055020643 -0.4537515696
0.0096458143 -0.0995313213 -0.4613726698
0.0332275892 -0.1272080194 -0.4853803573
0.0180643170 -0.1177042683 -0.4635949941
-0.0295183281 -0.0976985559 -0.4741030168
0.0489665500 -0.0389944071 -0.4586686552
0.0518340552 -0.1278876076 -0.4839293653
0.0585453154 -0.0911323751 -0.4499683040
-0.0017378357 -0.0994694087 -0.4583244408
0.0205226336 -0.1150144905 -0.4676865796
0.0291389231 -0.1279320192 -0.4864703563
-0.0015232196 -0.1332922979 -0.5127027091
0.0343293641 -0.1103757266 -0.4555316442
0.0418499509 -0.0553766303 -0.4680579175
-0.0499821232 -0.0688538806 -0.4787296509
0.0007528635 -0.0612194961 -0.4763009346
-0.0123367169 -0.0717535497 -0.4825870208
-0.0386022779 -0.1211486170 -0.4787829491
0.0530172179 -0.0695709076 -0.4528679410
0.0075430325 -0.0775702260 -0.4543705285
0.0600310939 -0.0881915360 -0.4473876614
-0.0275610651 -0.1298084882 -0.5220194001
0.0374684763 -0.0797667011 -0.4456260757
0.0272320447 -0.1022773308 -0.4631566638
0.0288911280 -0.1140595339 -0.4654871917
0.0150806739 -0.0832873561 -0.4568154591
0.0657945773 -0.0792059118 -0.4665909732
0.0293695192 -0.0648745793 -0.4812063824
0.0259058199 -0.1204089273 -0.4736348073
-0.0118619870 -0.0823150071 -0.4477624144
-0.0011130651 -0.1292486872 -0.5008928465
0.0626724873 -0.0976538903 -0.4537021360
-0.0170367460 -0.1252202629 -0.4920194395
-0.0571430243 -0.0928102932 -0.4604372752
-0.0653736699 -0.1008096423 -0.4702143225
0.0254357632 -0.1169247461 -0.4739636785
0.0399829345 -0.0921999498 -0.4361794918
-0.0228074206 -0.0719027072 -0.4766391894
-0.0426510882 -0.0897174786 -0.4682973425
-0.0357920734 -0.0848075963 -0.4659092931
0.0320502513 -0.0916786894 -0.4456810365
-0.0388674387 -0.1151167556 -0.4691610934
0.0468968637 -0.0677799210 -0.4448117912
-0.0138394899 -0.1249905133 -0.4896401659
0.0074510568 -0.0749335182 -0.4786227415
-0.0698546545 -0.0754599961 -0.4744503790
0.0643979385 -0.0826702118 -0.4541756511
0.0153818146 -0.1125126437 -0.4671124166
-0.0687525781 -0.0733065303 -0.4743392467
-0.0160111867 -0.1293952339 -0.5009797909
0.0294649833 -0.0854486891 -0.4434705337
0.0282952506 -0.0826049016 -0.4741969959
0.0146666690 -0.1015032711 -0.4619035143
-0.0191895128 -0.1050066663 -0.4631421142
0.0383641537 -0.0877148444 -0.4367215312
-0.0601924248 -0.1125299059 -0.4782945031
0.0320777954 -0.0750043605 -0.4571375673
0.0450727597 -0.0646827459 -0.4466102361
-0.0525429968 -0.0836943051 -0.4587345071
-0.0118168637 -0.0688935145 -0.4709071082
0.0353114418 -0.0822084083 -0.4386255286
0.0308575586 -0.1320500607 -0.4957359335
0.0075208804 -0.0889812938 -0.4559715862
0.0514288284 -0.0792539716 -0.4340972602
-0.0495268778 -0.1203345461 -0.4791921872
0.0708663095 -0.0900460343 -0.4618098880
0.0571147671 -0.0824565662 -0.4408704215
-0.0149096833 -0.0767327063 -0.4511542803
-0.0547904211 -0.0675100733 -0.4660785239
0.0210565455 -0.1283087297 -0.4957463716
0.0532657331 -0.1226250965 -0.4781063573
0.0308875561 -0.1230877939 -0.4834064530
0.0245811925 -0.0873669973 -0.4551682906
0.0117800534 -0.0779227235 -0.4724246252
-0.0267295773 -0.0955524820 -0.4711435580
0.0539852532 -0.0953729180 -0.4407225617
0.0079908987 -0.1046822340 -0.4630004273
0.0264188955 -0.0841872033 -0.4728845179
-0.0358095110 -0.1288965689 -0.5085805814
0.0020191945 -0.0668137181 -0.4776760152
0.0627505234 -0.0699593085 -0.4647589368
-0.0580563949 -0.0839319184 -0.4589241581
0.0577130190 -0.1161762256 -0.4560652483
-0.0051911778 -0.0567732233 -0.4660483824
0.0105061740 -0.1310999523 -0.5085344613
0.0002364181 -0.0846653964 -0.4460124339
0.0269066244 -0.0851364204 -0.4475893202
-0.0424472617 -0.1076728922 -0.4737318834
-0.0091785424 -0.0791954955 -0.4501092176
0.0191696586 -0.0834164736 -0.4805247280
-0.0174644419 -0.0771729370 -0.4513859098
0.0290675815 -0.0687040389 -0.4731317659
0.0557231412 -0.0847993102 -0.4403784699
0.0337529427 -0.1185530296 -0.4568492320
-0.0200122496 -0.0950893924 -0.4609503005
0.0378606921 -0.0744499121 -0.4704054454
0.0093321731 -0.1327050018 -0.4988234782
0.0671126926 -0.0819800003 -0.4613443892
0.0413300943 -0.0673640109 -0.4763567602
0.0575104128 -0.0605074635 -0.4711015034
0.0092120883 -0.1188182491 -0.4676081225
0.0223887280 -0.1198651280 -0.4695972811
-0.0138349349 -0.0965248053 -0.4583902697
-0.0278601536 -0.1211949545 -0.4957937693
-0.0104252694 -0.0909554920 -0.4461923285
0.0255449187 -0.1242180771 -0.4783556784
-0.0170307404 -0.1227848431 -0.4816172336
0.0379840397 -0.0943170821 -0.4411207818
0.0101953151 -0.0721391150 -0.4808581381
-0.0163130828 -0.1323546649 -0.5115046448
0.0696894649 -0.0827687174 -0.4689010829
0.0462093431 -0.0593896562 -0.4551807734
0.0426455784 -0.0828428598 -0.4391573847
0.0379061241 -0.0731951857 -0.4756933645
-0.0016251458 -0.1243433235 -0.4864465110
-0.0053778880 -0.1015097245 -0.4523177064
0.0583535533 -0.0718703607 -0.4669075829
0.0297362893 -0.0716105926 -0.4664419236
0.0351986715 -0.0577938281 -0.4682381472
0.0504783761 -0.0333297268 -0.4640176156
-0.0404311057 -0.1260823852 -0.4925045038
0.0281705962 -0.1154833176 -0.4734031823
-0.0427167340 -0.0887538676 -0.4665656710
0.0609612530 -0.0636723655 -0.4680257958
0.0103013863 -0.1118205203 -0.4633966581
-0.0173765482 -0.0899299507 -0.4557560749
-0.0618948253 -0.1053783824 -0.4715315498
0.0002683084 -0.0998180265 -0.4583695113
0.0167437857 -0.0724021466 -0.4819203664
0.0019420826 -0.0993909324 -0.4569409223
0.0173428581 -0.1088985077 -0.4691412283
0.0483421076 -0.1217637608 -0.4680477994
0.0576520611 -0.0879782987 -0.4432911910
-0.0213038535 -0.0775543307 -0.4771541399
0.0060214490 -0.0750079320 -0.4666731598
0.0495574727 -0.1302888459 -0.4879593538
0.0352753380 -0.0669107659 -0.4752130285
0.0079179721 -0.0796192091 -0.4511257400
-0.0369604030 -0.0802078280 -0.4828912677
0.0401264607 -0.0959754694 -0.4456521326
-0.0594461699 -0.0647162523 -0.4817649564
0.0415091550 -0.1165337733 -0.4556269571
0.0052506073 -0.0842934504 -0.4493301630
0.0496570770 -0.0995583080 -0.4457567875
0.0440822655 -0.0753365295 -0.4405057081
0.0212679750 -0.1226979293 -0.4703863076
-0.0094562150 -0.0873681007 -0.4437333939
0.0401109341 -0.0783489405 -0.4380126278
0.0021166459 -0.0974196339 -0.4556438602
-0.0544958251 -0.1190704996 -0.4881094316
-0.0295769331 -0.1352384933 -0.5103716489
0.0107556335 -0.0969881073 -0.4610733135
-0.0674810814 -0.1038479394 -0.4733682646
0.0209999449 -0.1248775022 -0.4907688288
0.0096269811 -0.1164743433 -0.4632656261
0.0384709271 -0.0699068512 -0.4479525715
-0.0573860829 -0.1201898642 -0.4882907015
0.0396667036 -0.0689772416 -0.4585785062
0.0495707157 -0.0437196644 -0.4565471536
0.0497411526 -0.0869792313 -0.4358505298
-0.0288540231 -0.1216177601 -0.4778019636
0.0030233015 -0.1118972779 -0.4557643274
0.0252993187 -0.1194863350 -0.4700918229
0.0248478195 -0.1154076511 -0.4708596874
-0.0530037564 -0.1037784725 -0.4682944017
0.0015602722 -0.1225263973 -0.4935458378
0.0643170721 -0.0987113401 -0.4564839439
-0.0564311112 -0.1089937879 -0.4712734622
-0.0531182734 -0.1182315842 -0.4773180132
-0.0587884878 -0.0909401799 -0.4576146150
0.0356516764 -0.0892500470 -0.4369798960
-0.0529482204 -0.1155795168 -0.4770141400
0.0064079834 -0.1165474315 -0.4665577439
-0.0152634102 -0.1277078558 -0.5155464852
0.0254508389 -0.1162120410 -0.4556968379
-0.0153361578 -0.0790531782 -0.4505659345
0.0044471692 -0.0861258098 -0.4496931218
0.0046831539 -0.1335515399 -0.5088158494
-0.0241174677 -0.1164670469 -0.4685823608
-0.0250847279 -0.1240409940 -0.4955688816
-0.0664986884 -0.1108465423 -0.4783845536
0.0192965624 -0.0741286798 -0.4806635307
-0.0423784832 -0.0870228509 -0.4652185232
-0.0404293069 -0.0988426288 -0.4690835055
0.0248391666 -0.0942524927 -0.4587956968
-0.0217475462 -0.1036047253 -0.4685488054
-0.0208912306 -0.0974743629 -0.4630525672
-0.0595499786 -0.0803046628 -0.4611209944
0.0430731316 -0.0702153709 -0.4443517829
-0.0027555677 -0.0843768587 -0.4460239325
-0.0067576911 -0.0643967682 -0.4583277471
0.0533368388 -0.1199164379 -0.4631466157
-0.0095322985 -0.1200520709 -0.4745927285
-0.0150701854 -0.1193892061 -0.4731112914
-0.0677747406 -0.0793213605 -0.4632346316
-0.0458651158 -0.1305511223 -0.5112846259
0.0383350864 -0.0695806699 -0.4534528406
0.0525763368 -0.0714937460 -0.4456872198
-0.0123559299 -0.0697110954 -0.4634328744
0.0502102099 -0.1079279517 -0.4495715346
0.0605765035 -0.0743493651 -0.4659737802
0.0278592513 -0.1225806842 -0.4742784051
-0.0499267983 -0.0836802757 -0.4588299823
0.0406969457 -0.1218595924 -0.4736059873
0.0286509680 -0.1165837527 -0.4704330876
-0.0008943529 -0.0665658224 -0.4681668613
-0.0325853000 -0.1316667780 -0.5149625723
0.0601785055 -0.0893607096 -0.4459545490
-0.0274120195 -0.1294329799 -0.5178329560
0.0076854899 -0.0662830410 -0.4823600163
0.0171520584 -0.0865991651 -0.4563794862
0.0567803171 -0.0673815764 -0.4638099711
-0.0382054478 -0.0926338618 -0.4712542981
0.0477124770 -0.0749826906 -0.4415421728
0.0427922407 -0.0749717866 -0.4448637152
0.0623141530 -0.1190904031 -0.4773227683
-0.0176153479 -0.0784699410 -0.4505409085
0.0290175688 -0.1004184002 -0.4591208482
-0.0020932242 -0.0775566629 -0.4488731628
-0.0141225752 -0.0631476258 -0.4782561618
0.0509869842 -0.1193430165 -0.4596765588
-0.0554080409 -0.0632316426 -0.4717019117
0.0578180937 -0.0640641917 -0.4715647830
0.0075201962 -0.1112009850 -0.4598845004
-0.0301641648 -0.0836253710 -0.4736373647
0.0353078977 -0.0768863146 -0.4798160060
-0.0237856147 -0.1143092427 -0.4639719459
-0.0395700449 -0.1307711702 -0.5044238711
-0.0413149324 -0.1215126482 -0.4815257478
0.0189579658 -0.0833377325 -0.4625808264
0.0073481513 -0.0876778239 -0.4550840408
-0.0021564657 -0.0766362703 -0.4510116866
-0.0565258516 -0.1004332303 -0.4638317678
-0.0530775651 -0.0641011855 -0.4733689426
-0.0476462351 -0.1005704873 -0.4676392777
0.0020272441 -0.1272051725 -0.4953573034
-0.0082440856 -0.0585181495 -0.4711641219
-0.0338062425 -0.1143395721 -0.4709777263
0.0487437539 -0.1269037816 -0.4813023470
-0.0021424426 -0.0793945579 -0.4480058809
0.0121202085 -0.1231274630 -0.4864313501
-0.0379603251 -0.1293832566 -0.5004737138
0.0446865214 -0.1004808201 -0.4464159612
0.0623741464 -0.1012210622 -0.4550856215
-0.0715492024 -0.0824934306 -0.4695914698
0.0304516346 -0.0800967645 -0.4413342561
0.0560648218 -0.0709941387 -0.4624556005
0.0619088011 -0.0735239370 -0.4601646092
0.0400428727 -0.0915355213 -0.4376046791
-0.0215258782 -0.1068061134 -0.4717071392
0.0592466579 -0.0738316425 -0.4639078197
0.0439007068 -0.0498930400 -0.4572116379
0.0235590943 -0.0765628025 -0.4604325252
-0.0398821985 -0.1071300620 -0.4733853643
-0.0003698812 -0.0696772344 -0.4610655294
-0.0309935268 -0.0878371713 -0.4664548997
0.0164428612 -0.0922231532 -0.4601363921
-0.0400206085 -0.1109053917 -0.4722482792
0.0349172210 -0.0867129840 -0.4364181669
-0.0601873427 -0.0771047749 -0.4640550947
0.0021490608 -0.0692905958 -0.4763659389
-0.0371015644 -0.0819913704 -0.4709530535
-0.0471212111 -0.0767514035 -0.4609140549
-0.0189248713 -0.1076910067 -0.4663733547
0.0069426192 -0.0676379524 -0.4703875190
0.0093141301 -0.0682075097 -0.4706908924
0.0333014410 -0.0816369094 -0.4388791025
-0.0595680054 -0.1065973472 -0.4768174533
0.0327579320 -0.0842301378 -0.4387320570
-0.0137517863 -0.1300552681 -0.4995427256
0.0618830144 -0.0534567033 -0.4652073322
0.0356546752 -0.0767632946 -0.4701602459
-0.0137410514 -0.1210692455 -0.4789535830
0.0318646146 -0.1198151998 -0.4611802784
0.0295467284 -0.0784849003 -0.4574044943
0.0351672892 -0.0774935104 -0.4756435940
0.0477899935 -0.0371916083 -0.4608647771
0.0265382891 -0.0869019307 -0.4529933108
0.0198925599 -0.1297680219 -0.4933501482
0.0249740126 -0.0877912140 -0.4493893317
0.0381895515 -0.1203754827 -0.4638142659
-0.0208559963 -0.1208031818 -0.4924132655
0.0260044121 -0.1226261047 -0.4670388685
0.0598573028 -0.0571482814 -0.4689329789
-0.0319393373 -0.1067531803 -0.4770888482
0.0364857288 -0.0750157601 -0.4753173200
-0.0280408758 -0.1013138866 -0.4695424650
-0.0371110678 -0.1279897911 -0.5057552181
0.0142772425 -0.0744176000 -0.4803911835
-0.0717894796 -0.0801205248 -0.4667940481
0.0249957740 -0.0816149840 -0.4530564494
0.0681924662 -0.0819200609 -0.4661106580
-0.0026414361 -0.1227562098 -0.5185113958
-0.0494282528 -0.1214057275 -0.4825139310
-0.0247989005 -0.0843219148 -0.4590065511
0.0319135958 -0.1203993057 -0.4833763598
-0.0334772851 -0.0899492798 -0.4679756969
0.0093375575 -0.0966496093 -0.4589720305
-0.0734418627 -0.0970900400 -0.4777242154
-0.0522362164 -0.1096735379 -0.4730421868
-0.0047029427 -0.0646841742 -0.4581765935
-0.0572156641 -0.0670598173 -0.4679222958
-0.0447652965 -0.1018579257 -0.4709482791
0.0256611258 -0.1097577558 -0.4571819280
0.0557168215 -0.0927796675 -0.4450470199
0.0235711529 -0.1310251686 -0.5074759823
0.0119767623 -0.0781238303 -0.4669855524
0.0458993176 -0.0545214206 -0.4560198494
0.0624181913 -0.1124144135 -0.4653695250
-0.0150306912 -0.0848361293 -0.4478250198
-0.0102297499 -0.0901740404 -0.4477255177
-0.0105454559 -0.0678836046 -0.4661750192
0.0645033797 -0.1129961408 -0.4613372180
-0.0600854762 -0.0790178066 -0.4638133105
0.0081896586 -0.0764523133 -0.4655792381
-0.0274134309 -0.1238178613 -0.4906634192
-0.0441036015 -0.0759495586 -0.4710725538
-0.0071403919 -0.0677291916 -0.4534845775
0.0424447423 -0.0597350002 -0.4677776539
-0.0210519244 -0.0651853038 -0.4811027453
0.0417653562 -0.0841259727 -0.4346768575
-0.0272669118 -0.1345221958 -0.5084221239
0.0542335746 -0.0966945154 -0.4438735246
0.0007076914 -0.0723916891 -0.4562736806
0.0001876317 -0.0676455423 -0.4699974060
-0.0171466017 -0.0745123489 -0.4821469102
-0.0201855203 -0.1262550389 -0.4960503969
-0.0346858940 -0.1172036919 -0.4734232866
0.0587496893 -0.1216399170 -0.4705850098
-0.0289419920 -0.1252118555 -0.4878031838
-0.0058672614 -0.1302945687 -0.5161321366
0.0302569651 -0.0778642085 -0.4587006831
0.0416316641 -0.0646729695 -0.4506734755
0.0676400341 -0.1047947193 -0.4564394764
0.0618641023 -0.1162381319 -0.4788260029
0.0465259179 -0.0555067770 -0.4544139206
-0.0022016686 -0.1314796157 -0.4986508664
0.0360582567 -0.0590266469 -0.4745996603
0.0419488379 -0.1044572213 -0.4498848009
0.0341269407 -0.1146608878 -0.4602464898
0.0620492194 -0.0945546323 -0.4484195403
-0.0077799109 -0.1029627272 -0.4586137382
0.0675607969 -0.0855233840 -0.4582084124
-0.0657198468 -0.0959027061 -0.4704785587
0.0521675394 -0.1221414818 -0.4676134191
-0.0269285793 -0.0937726988 -0.4693488819
0.0479062352 -0.1153231813 -0.4562848816
-0.0629462119 -0.1022925353 -0.4667879647
0.0222615865 -0.0841494054 -0.4584307684
0.0727436526 -0.0897740389 -0.4676753682
0.0327829370 -0.0670256988 -0.4662993090
-0.0333184093 -0.0844350483 -0.4659701046
-0.0115488047 -0.1084524765 -0.4555789952
-0.0209274265 -0.0705273915 -0.4808256919
-0.0244120841 -0.1324450709 -0.5184140692
0.0386919403 -0.0926253204 -0.4372999899
0.0248125150 -0.0818848745 -0.4727530404
0.0316344711 -0.0856713279 -0.4400810969
0.0294757219 -0.0808413073 -0.4746399288
0.0701273497 -0.0982853219 -0.4601521455
0.0101804239 -0.0672113917 -0.4759159718
-0.0175969284 -0.1067486213 -0.4655564997
-0.0013846742 -0.0651486042 -0.4685215867
-0.0246902336 -0.0990579033 -0.4691486496
-0.0455336681 -0.0873874431 -0.4674699716
-0.0473573636 -0.0742610178 -0.4675532980
0.0416449558 -0.0596205551 -0.4708750920
-0.0608585387 -0.0876046623 -0.4588026461
0.0192522844 -0.0797141637 -0.4772692437
0.0036499412 -0.0616897544 -0.4818437107
0.0141162756 -0.0720562733 -0.4777373232
0.0205021291 -0.0775340667 -0.4743280151
-0.0243395989 -0.1141430003 -0.4721488073
-0.0599762169 -0.0675840406 -0.4741438444
0.0099175263 -0.1053514556 -0.4617951445
0.0357105075 -0.0562876977 -0.4737925008
0.0468927710 -0.1219309280 -0.4758733056
0.0225063561 -0.0798179942 -0.4581149243
0.0264161721 -0.0813831099 -0.4456395302
0.0058792384 -0.0762253377 -0.4609867882
-0.0711321229 -0.0970482867 -0.4747806959
-0.0601779293 -0.1031524710 -0.4687141491
0.0507089815 -0.1253253533 -0.4734535299
0.0331250263 -0.0919946201 -0.4432821273
0.0399866068 -0.0795382426 -0.4409603885
-0.0052949311 -0.1254050778 -0.4915077490
0.0039536854 -0.0839946265 -0.4528017568
-0.0002010656 -0.0524200586 -0.4730248191
0.0527851930 -0.1221806806 -0.4744506762
