-0.1919998633 0.0224884088 -0.2966341317
-0.1832246165 -0.0524269445 -0.2727455138
-0.1719781556 0.0246211662 -0.2922107513
-0.1900723715 -0.0444502388 -0.3048057648
-0.2090585954 -0.0672585259 -0.3187971325
-0.0929478797 -0.0401126199 -0.3175259729
-0.1063112197 -0.0109513293 -0.3861934718
-0.1361354501 -0.0691859729 -0.3461013909
-0.1494660034 0.0080830539 -0.2993222433
-0.0927534159 0.0049086841 -0.3297873503
-0.2081942724 -0.0547017287 -0.3211689466
-0.1910190915 -0.0234672482 -0.3384879067
-0.2447221588 0.0112199427 -0.2966442731
-0.1295978744 0.0020142444 -0.3772336019
-0.1631081027 -0.0583788568 -0.3752736019
-0.1987832336 -0.0526694505 -0.3256009620
-0.1061068706 -0.0141438772 -0.3884465740
-0.1458759938 0.0213823179 -0.2967726147
-0.1567599550 -0.0602439243 -0.3554483537
-0.1879398831 -0.0284434573 -0.2653263399
-0.1835173533 -0.0577938920 -0.2782022999
-0.1021082622 -0.0371702407 -0.4042619120
-0.0942412776 0.0032595990 -0.3036824950
-0.1073730429 0.0301557637 -0.2920577607
-0.2198602444 -0.0386153944 -0.3078358273
-0.1005522419 -0.0247820271 -0.3691603290
-0.1470649290 -0.0049930826 -0.2897870496
-0.1856001177 -0.0495902209 -0.3178068765
-0.2073217401 0.0358331307 -0.3674575051
-0.2090313860 -0.0200092813 -0.2693042163
-0.2018660780 -0.0206606009 -0.3688791026
-0.2086991680 -0.0555979269 -0.3402919564
-0.1539823799 -0.0571539202 -0.3377095538
-0.1760425453 -0.0572333058 -0.2821520919
-0.2105338962 -0.0196754042 -0.3772889847
-0.1118455035 -0.0301924810 -0.2681988062
-0.1762545219 0.0002452642 -0.3713563624
-0.1415538934 -0.0479010128 -0.3598150442
-0.1141193964 0.0174501243 -0.3292542959
-0.1547721131 -0.0446294300 -0.2952201208
-0.1166360688 0.0109839675 -0.3192852465
-0.2481348782 -0.0168385903 -0.3375063970
-0.1580184994 0.0341384629 -0.3784943192
-0.1665079329 -0.0560981684 -0.3924922560
-0.2083446735 -0.0456747713 -0.2756921463
-0.1633150040 -0.0667358558 -0.2956991758
-0.1446454755 -0.0721285968 -0.3607492215
-0.1731692179 -0.0160681364 -0.2720698318
-0.1640079041 -0.0661770255 -0.2858443122
-0.2002048355 -0.0638454183 -0.3812010003
-0.1299448909 0.0208200651 -0.3295039890
-0.2019676097 0.0022023191 -0.2725560838
-0.0878042486 0.0005290097 -0.3376097213
-0.1394172925 0.0175049888 -0.2958183827
-0.0997117212 -0.0170577271 -0.3140425740
-0.1220348044 -0.0565614784 -0.3121015237
-0.0809950587 -0.0433937964 -0.3440010276
-0.1923454240 -0.0244381701 -0.2651138150
-0.1743697651 0.0153616706 -0.3249422469
-0.1771856072 -0.0699950617 -0.3410686764
-0.1272850492 -0.0704007934 -0.3573214657
-0.0912844065 -0.0646429830 -0.3279962570
-0.1445077075 -0.0045407209 -0.2915009622
-0.1300112943 -0.0421468297 -0.3148596535
-0.1547231869 -0.0594174464 -0.3093322002
-0.1911266908 -0.0679520499 -0.3468006342
-0.2117120248 -0.0093806304 -0.3602378181
-0.2150346202 0.0155321120 -0.3343865779
-0.1823373075 0.0074657899 -0.2775220099
-0.1269513793 -0.2314275707 -0.3298860930
-0.1912719025 -0.0538387343 -0.3115717678
-0.1018938020 -0.0064973050 -0.3141984081
-0.1733394256 -0.0365820420 -0.2471533655
-0.1265050172 -0.0645652147 -0.3440979338
-0.2376303597 -0.0058610392 -0.3222847461
-0.1137637613 0.0072331954 -0.3197657904
-0.1865285915 -0.0693768614 -0.3863180789
-0.1060521654 0.0189517146 -0.3466150501
-0.1447146729 -0.0171111221 -0.2903949240
-0.2405706203 0.0054373221 -0.2931058570
-0.1324716413 0.0170537898 -0.3117800989
-0.0789527522 -0.0248922735 -0.3536030196
-0.0973628442 -0.0571076207 -0.3094619141
-0.1953044140 -0.0601437570 -0.3810149379
-0.1594870379 -0.0487332443 -0.3866980507
-0.0953256915 0.0092549146 -0.3329468923
-0.2360867193 -0.0105252594 -0.3023642926
-0.1872610475 -0.0097028035 -0.2677313948
-0.1869795473 -0.0157877811 -0.3881432854
-0.1728762099 -0.0566486406 -0.3151553224
-0.1131825055 -0.0031415114 -0.4000566204
-0.2482978112 0.0111704057 -0.2975175685
-0.2409941787 -0.0350660016 -0.3269266920
-0.1939155307 -0.0389041289 -0.3183241413
-0.1752592141 -0.0366960892 -0.2903991953
-0.1693347777 -0.0151395183 -0.2914773967
-0.0917206891 -0.0519010701 -0.3472259046
-0.1796033856 0.0193843786 -0.2878696893
-0.1150932021 0.0147233148 -0.3226632846
-0.1125739745 -0.0176377536 -0.3152347084
-0.0980610273 -0.0724998081 -0.3486237780
-0.2297116798 0.0091457172 -0.3414348918
-0.1433431650 0.0031203646 -0.3714276060
-0.1762984890 0.0223284407 -0.2737798486
-0.0637743106 0.1363984789 -0.3195039194
-0.0966736712 -0.0224456806 -0.3133741021
-0.1682401167 -0.0122302890 -0.3961742157
-0.1022320290 -0.0369432648 -0.3141211456
-0.0455983848 0.0010696522 -0.2110410845
-0.1896043801 -0.0020902567 -0.2648998832
-0.1201479140 -0.0565820919 -0.3140616241
-0.1267179449 -0.0634379944 -0.3484077573
-0.1824728814 -0.0325298967 -0.2727717664
-0.2042277392 -0.0374350520 -0.2698575360
-0.0942756330 0.0081801683 -0.3389748334
-0.2172847393 0.0063572263 -0.3278339464
-0.1964442281 -0.0286761223 -0.2649949812
-0.1393686031 -0.0094611405 -0.2926055600
-0.1536963039 0.0158977026 -0.3788230134
-0.1124695742 -0.0130456347 -0.3839054177
-0.1741720817 -0.0704473729 -0.3624548886
-0.1827853367 -0.0590344647 -0.3076398442
-0.1118167335 -0.0001401632 -0.2921991077
-0.2157271039 -0.0428045333 -0.3055801190
-0.1521360144 -0.0433079132 -0.3495727411
-0.1954068802 -0.0586637192 -0.3271934099
-0.1020287617 0.0044874717 -0.3207074921
-0.2437763608 -0.0326426850 -0.3535959765
-0.1873596187 0.0251101126 -0.3479417693
-0.1481095754 -0.0610547349 -0.3614769184
-0.2028335126 -0.0644478652 -0.3143913625
-0.1258613034 0.0224437746 -0.3135721162
-0.1823373769 0.0162954031 -0.2489941903
-0.1740483101 -0.0372050899 -0.2938080199
-0.1891446740 -0.0528435520 -0.2757557701
-0.2203772786 -0.0005424691 -0.2748741857
-0.1415643431 0.0199502321 -0.3174807870
-0.0997701720 -0.0373748858 -0.3985806623
-0.2390373146 -0.0030095612 -0.2842452099
-0.1045062682 -0.0098301467 -0.3112161345
-0.1492294671 -0.0418042372 -0.3579168637
-0.1713465146 -0.0546599672 -0.3349202188
-0.1985398862 -0.0295859512 -0.3767510828
-0.0346860421 -0.0063792594 -0.2314954351
-0.2062423653 0.0046328880 -0.3655954780
-0.1263893817 -0.0507587339 -0.2850263145
-0.0997861347 -0.0457729808 -0.2777054987
-0.2410212916 0.0035550774 -0.2984837950
-0.2080043250 -0.0043236029 -0.3010027860
-0.1820839416 -0.0537707498 -0.2915338847
-0.1537505528 0.0595093211 -0.3608195475
-0.2295992448 0.0003173556 -0.3322446693
-0.1624671610 -0.0587423095 -0.3127024260
-0.0652067677 0.0842373332 -0.1934903790
-0.1015443734 -0.0156947013 -0.3036085756
-0.2127773482 0.0035717346 -0.3725428072
-0.1459504742 -0.0681682555 -0.3008505389
-0.1796760136 0.0152870258 -0.2830884104
-0.0883239649 -0.0603400947 -0.3343412247
-0.0821039326 -0.0459437443 -0.3305873622
-0.1116185430 -0.0165540112 -0.3099727413
-0.2052108568 0.0014963043 -0.2658812822
-0.1149042774 -0.0023721429 -0.3100562102
-0.2051608718 -0.0685412729 -0.3311693356
-0.1702393496 0.0097456018 -0.2854933358
-0.1122708913 -0.0292323943 -0.2609843721
-0.2155993458 -0.0087256274 -0.2902979761
-0.1655974626 -0.0568410845 -0.2960918688
-0.1608938481 -0.0121457761 -0.4003342869
-0.1129195435 0.0099011186 -0.3199290886
-0.1115610396 -0.0068647169 -0.3089600207
-0.1899773338 -0.0578785708 -0.3605344825
-0.1388390049 -0.0542433200 -0.3594335964
-0.1912898676 0.0019100661 -0.3756185244
-0.2307727861 -0.0148230469 -0.2838556572
-0.1433686196 -0.0246969092 -0.3646553304
-0.0979957065 -0.0247165840 -0.3657478698
-0.1193516354 -0.0043297455 -0.3847632808
-0.1617099731 0.0110076474 -0.3862531551
-0.0888546465 -0.0026122079 -0.3490298211
-0.1773522156 -0.0610642756 -0.3178023697
-0.0674366765 0.0007360087 -0.2227067939
-0.1983055272 -0.0600825060 -0.3044131402
-0.2042974499 -0.0101195623 -0.2678070456
-0.1845007566 -0.0347385929 -0.2721975545
-0.1648299946 0.0061025383 -0.3702363644
-0.1235435627 -0.0023786572 -0.4001205473
-0.2022604886 -0.0684397841 -0.3358747483
-0.1151411975 -0.0115058419 -0.2900409600
-0.1917940607 -0.0190961764 -0.3732017200
-0.2091624215 0.0098918309 -0.3391294887
-0.2138082393 -0.0427348802 -0.2997375049
-0.1893495716 -0.0097496300 -0.2670041975
-0.1628039323 -0.0168764771 -0.2939853604
-0.1324237101 -0.0321307143 -0.3002911105
-0.2118084572 0.0077037461 -0.3148420027
-0.1157016417 -0.0701464473 -0.3668144053
-0.1949786392 -0.0202093017 -0.3290850844
-0.1711211205 -0.0604588681 -0.3718469606
-0.1543147458 0.0198890179 -0.3091177943
-0.1010618713 -0.0586422842 -0.3257640652
-0.1118908807 -0.0391867985 -0.4014312903
-0.1103569893 0.0024693781 -0.2685791831
-0.1198476481 -0.0100173187 -0.3046507956
-0.2050669501 -0.0054244306 -0.2679684946
-0.1291047475 0.0157828909 -0.3413489274
-0.0987575988 -0.0284854051 -0.3686910502
-0.2239150954 -0.0180194158 -0.2827031693
-0.2298839981 -0.0142000772 -0.2884777698
-0.1073571723 -0.0081431410 -0.3098032622
-0.1803140711 -0.0497472970 -0.2042479526
-0.0844425210 -0.0344721402 -0.3243193970
-0.2126413388 -0.0630563598 -0.3290027302
-0.1940206233 -0.0529061076 -0.3361558698
-0.1713140097 -0.0412602059 -0.3134323401
-0.1269427553 0.0178952692 -0.3262092684
-0.1565747449 -0.0674472947 -0.3348450879
-0.1324558878 -0.0628917864 -0.3977256351
-0.1217977124 0.0060024498 -0.3955186348
-0.1369387749 0.1470308361 -0.3661781048
-0.1138888300 -0.0498466881 -0.3088496846
-0.1209842563 -0.0171452439 -0.1490507272
-0.1338492271 -0.0145015485 -0.2681968678
-0.1623403993 0.0224944901 -0.3037185314
-0.1743348206 -0.0668765170 -0.3305929034
-0.1932474088 -0.0325365798 -0.3398622989
-0.2126659656 -0.0018544311 -0.2764384113
-0.1309937797 0.0059103969 -0.4000298045
-0.1246400403 0.0123434568 -0.3148015178
-0.2463281813 -0.0129758236 -0.3279847543
-0.2074327970 0.0123541139 -0.3244625344
-0.1897450068 -0.0270314681 -0.2663891170
-0.2219656804 -0.0070927578 -0.2722674728
-0.1728407109 -0.0160501037 -0.2649602379
-0.2422870981 0.0027216071 -0.2868506313
-0.1429786318 -0.0100948202 -0.3517100192
-0.1751983295 -0.0027690315 -0.2722121449
-0.1007062269 -0.0429134326 -0.2688491350
-0.0546039579 0.0151157273 -0.2010136412
-0.1350460534 -0.0797886225 -0.3731286237
-0.0924020177 -0.0659216524 -0.3374607719
-0.1955938140 0.1378841092 -0.4698621865
-0.0953448264 -0.0307683276 -0.3615478056
-0.2139430148 -0.0614968446 -0.3089009911
-0.2168219724 0.0032945027 -0.2688553038
-0.1406938100 -0.0041618726 -0.3969292906
-0.1222697737 -0.0377604873 -0.3005218715
-0.1631199382 0.0440956906 -0.3641016743
-0.1963018711 0.0090461572 -0.3430583591
-0.1525861904 0.0172026229 -0.3029288373
-0.1844075539 0.0158992685 -0.2574740252
-0.1627071010 0.0225155136 -0.3017899449
-0.1349010512 -0.0149078759 -0.4073702284
-0.1878765341 0.0203962913 -0.2793278787
-0.0793791916 -0.0839243371 -0.1806616695
-0.1884402154 0.0215476068 -0.3795977563
-0.1179676162 -0.0419342533 -0.3073107291
-0.1313871907 -0.0585712772 -0.3443250794
-0.1757259104 -0.0424612464 -0.3166576977
-0.0823324544 -0.0221487555 -0.3368339391
-0.1865541440 -0.0454800101 -0.1695960495
-0.1421202683 0.0182498076 -0.3095895798
-0.1126570255 0.0013329639 -0.3168409765
-0.1190147060 -0.0582042906 -0.3386218571
-0.1993706486 -0.0177585453 -0.2656621954
-0.1215326938 -0.0046033726 -0.3898717975
-0.1826123123 -0.0146872492 -0.2698870928
-0.1517124673 0.0401383718 -0.3407302324
-0.1338364774 -0.0277734491 -0.3516642430
-0.1765250507 -0.0159956134 -0.3214360044
-0.2047668611 -0.0002430001 -0.2722548860
-0.1779520618 -0.0491438322 -0.3320829656
-0.1100715847 -0.0126209842 -0.3764186753
-0.1113116208 0.0026305987 -0.3667593879
-0.1254567933 -0.0687248890 -0.3526772932
-0.1676072927 0.0075766163 -0.3622778534
-0.1524840362 -0.0320095348 -0.3994007753
-0.1461381876 -0.0205414507 -0.4049941323
-0.2022161302 -0.0146575665 -0.2667489980
-0.1387774943 -0.0618309633 -0.3367513526
-0.0871658766 -0.0637237423 -0.3214920947
-0.1877218719 -0.0877986347 -0.3837354508
-0.0098454239 -0.0046297265 -0.2620858546
-0.1301549671 -0.0786590261 -0.3663031764
-0.0992907709 -0.0273873323 -0.3135682381
-0.2105112456 -0.0470104275 -0.2973927901
-0.1641906293 -0.0738251287 -0.3487904284
-0.1739536308 -0.0466965545 -0.2937934536
-0.1047679863 -0.0364978765 -0.3669103847
-0.1832292269 -0.0465594498 -0.3188755352
-0.2045122762 -0.0027370145 -0.2700148882
-0.1742664369 0.0102385740 -0.3837072713
-0.1616784214 0.0251111567 -0.3678073147
-0.0972094019 -0.0096360302 -0.3139053400
-0.1317231119 -0.0363333940 -0.3460795434
-0.1621049029 -0.0534531878 -0.2684238419
-0.2137486485 0.0114285154 -0.3602569461
-0.2767003649 0.0032021686 -0.3214444606
-0.1736966118 -0.0230772798 -0.3264664249
-0.0494774789 -0.0807444921 -0.2117448511
-0.2305835399 -0.0481474803 -0.3475960112
-0.2159348810 0.0312828717 -0.3508888793
-0.1771312749 -0.0096179130 -0.2740130715
-0.0792478664 -0.0051164824 -0.3950086066
-0.1269150125 0.0005138003 -0.3015694094
-0.0887495398 -0.0234886480 -0.3555136700
-0.1021810782 -0.0627824320 -0.3336000326
-0.1550693912 -0.0448088123 -0.2968371823
-0.1152660484 -0.0073042746 -0.3845935562
-0.1825402485 -0.0271573053 -0.2695921286
-0.1894774809 -0.0466617013 -0.4042383131
-0.2294070801 0.0073444481 -0.3267860145
-0.2022394631 -0.0049190193 -0.2670219808
-0.2144061793 -0.0017319382 -0.2720069460
-0.2376945108 0.0043258129 -0.2836891336
-0.2049317202 0.0099447528 -0.3694327629
-0.1595464776 0.0081342020 -0.2944768451
-0.1981337408 -0.0098308245 -0.3760905588
-0.1143234196 -0.0020967888 -0.3115648348
-0.1379566307 0.0027998739 -0.2825882062
-0.2406397768 0.0000423573 -0.2912669061
-0.2220755596 -0.0108709365 -0.3163391913
-0.1275079998 -0.0436792774 -0.4131337722
-0.1699811869 -0.0403594476 -0.2930931354
-0.1424006499 0.0125141466 -0.3047777500
-0.1652709878 -0.0465902131 -0.3875576930
-0.1873311584 0.0187935870 -0.2940927511
-0.1251694202 -0.0549988237 -0.3153875572
-0.1287531169 -0.0220072297 -0.2913531844
-0.2147801820 -0.0173981520 -0.3805327082
-0.2038837017 -0.0123206297 -0.2675436254
-0.1779618809 -0.0414298021 -0.2881373711
-0.0946184532 -0.0535068735 -0.3956604390
-0.1952257188 -0.0356315584 -0.3850230137
-0.2215569980 -0.0318449313 -0.3688637851
-0.0533273191 0.1449449043 -0.3005848798
-0.2021514598 0.0128985993 -0.2791614646
-0.1215604401 -0.0654729431 -0.3567085055
-0.1298868553 -0.0583731063 -0.3386932733
-0.1920633485 -0.0271588917 -0.2656712881
-0.1191679389 -0.0145798952 -0.3115820634
-0.2330401442 0.0014926332 -0.3222680516
-0.1656673259 -0.0024978791 -0.3896264038
-0.1380923626 0.0081572212 -0.3677729966
-0.1847139366 0.0180585172 -0.2635793563
-0.1036044091 -0.0256183314 -0.3677362142
-0.1769968264 0.0248834529 -0.2896216898
-0.1955968823 -0.0542986632 -0.3648421785
-0.1003677946 -0.0158599283 -0.3776458627
-0.2032290142 -0.0603858993 -0.3520289120
-0.2032373595 0.0189984510 -0.2930452706
-0.1654302260 -0.0173186080 -0.2832779459
-0.2283698006 -0.0114125077 -0.2769759580
-0.1497696590 0.0021485486 -0.2950427480
-0.0888258027 -0.0047600143 -0.3523435032
-0.1217752083 -0.0033291580 -0.3868022190
-0.1791001522 -0.0296133529 -0.2768727695
-0.1172825364 -0.0003406451 -0.3097454496
-0.1479700370 -0.0743736796 -0.3587520812
-0.1436635308 0.0014259547 -0.2877185689
-0.1350658464 -0.0594084371 -0.3167523501
-0.1997451903 0.0011697795 -0.3846578694
-0.0844445814 -0.0514314114 -0.3388885185
-0.1458291705 -0.0470470062 -0.3560593363
-0.2391636440 -0.0145957346 -0.3418915060
-0.1025177726 -0.0394002439 -0.3150684264
-0.1201105325 0.0174223968 -0.3296414687
-0.2100811849 -0.0094329252 -0.3705120990
-0.2152878611 -0.0103182750 -0.2711821642
-0.0992588606 -0.0123027663 -0.3139361465
-0.1783994213 -0.0157258343 -0.3299048347
-0.1941703919 -0.0275954791 -0.2663262212
-0.2004890766 -0.0508364787 -0.3190781987
-0.0830823327 -0.0079098491 -0.3363635091
-0.1297217616 -0.0569959326 -0.3124918204
-0.1804937031 -0.0664490146 -0.3316811966
-0.0968318507 -0.0245649908 -0.3135127276
-0.1955888979 -0.0535098671 -0.3499020842
-0.1089569681 -0.0561119665 -0.3037693002
-0.0454441174 -0.0587358689 -0.2049135474
-0.0821255857 -0.0165684951 -0.3599550275
-0.1220279126 0.0049731184 -0.3094114146
-0.1724556477 -0.0588960018 -0.3078703750
-0.1285589091 0.0076388842 -0.3588953850
-0.1594897603 0.0113744045 -0.3376435357
-0.1826425034 -0.0458818092 -0.3880236015
-0.0831844828 -0.0117464779 -0.3201100024
-0.0864945220 -0.0102010377 -0.3561363480
-0.1661638856 -0.0751562591 -0.2975320327
-0.1352867976 -0.0405991857 -0.3601394094
-0.2018104366 -0.0638059331 -0.3375976697
-0.1605643611 0.0098268915 -0.3568452212
-0.1843970792 -0.0024786175 -0.3981866949
-0.2227106065 -0.0335066411 -0.3079210976
-0.1403738061 -0.0527834234 -0.3300190151
-0.1256931032 -0.0463810453 -0.3003966924
-0.1482438881 -0.0527245211 -0.3407449231
-0.1395235044 -0.0346727489 -0.2945047978
-0.0935340197 -0.0620536253 -0.3360126085
-0.1377039457 -0.0569582109 -0.3086307441
-0.1644426742 0.1622128826 -0.4226089018
-0.0850003309 -0.0051054879 -0.3375590705
-0.1771440080 0.0153743008 -0.2869897536
-0.0876136710 0.0001568419 -0.3318263552
-0.1881237482 -0.0397665517 -0.3069424144
-0.1879605690 -0.0003328577 -0.2584420323
-0.0932208110 -0.0304272951 -0.3646373263
-0.1414080144 0.0187206722 -0.3115390876
-0.0452280761 0.0874099486 -0.2229945288
-0.2195434922 -0.0697650096 -0.3272551787
-0.1901628514 -0.0553058037 -0.3090465552
-0.1185150382 -0.0647255705 -0.3482431345
-0.1443732073 -0.0196174427 -0.2910185623
-0.2193342738 -0.0119050497 -0.2728725628
-0.2234465856 -0.0275256670 -0.2885772122
-0.1395230366 0.0162638444 -0.3086094488
-0.1363553954 -0.0574920776 -0.4079119770
-0.1693006365 -0.0524790719 -0.2923798178
-0.1892561322 0.0290395304 -0.3666258385
-0.1326327329 -0.0170797067 -0.2977219494
-0.1627647398 -0.0125400387 -0.2786679471
-0.1056232926 -0.0154818865 -0.3765440602
-0.1268622348 -0.0247658059 -0.3143735163
-0.1580527445 0.0167568532 -0.3675113115
-0.1091042269 -0.0299578671 -0.4047379111
-0.1404950703 -0.0202526942 -0.2788207538
-0.1609282245 0.0250856132 -0.2868264149
-0.0530822878 -0.0122211383 -0.1707387535
-0.1105543421 -0.0029643789 -0.3699215171
-0.1347789908 -0.0446231635 -0.3097100604
-0.2143043592 0.0114780326 -0.3274309078
-0.2367178170 -0.0103262768 -0.3115243096
-0.2228417798 -0.0117301358 -0.2742073463
-0.1925802824 -0.0482719177 -0.3213621590
-0.1200965258 -0.0228143224 -0.3070788477
-0.1205622914 -0.0803549772 -0.3810776034
-0.1145990500 -0.0149096838 -0.2757287026
-0.1326705241 -0.0229349054 -0.2806344107
-0.1201537280 -0.0138728640 -0.3097350576
-0.1725816639 0.0208940708 -0.3070496338
-0.1795872199 0.0174718016 -0.2873345034
-0.0974764711 -0.0343194553 -0.3148497826
-0.1390157849 -0.0480142265 -0.3574981117
-0.1781295659 -0.0247583182 -0.3364713874
-0.1946277757 -0.0515409852 -0.3033447798
-0.1598529876 0.0126101118 -0.2967906230
-0.2052678072 0.0072871944 -0.2969928624
-0.1920338163 -0.1114849071 -0.3777979127
-0.2176119034 -0.0028306465 -0.2786017946
-0.1750107905 0.0123178300 -0.2853692774
-0.1420640204 0.0195197190 -0.3143310816
-0.1578726103 -0.0092880252 -0.2781833861
-0.1297973326 0.0077424274 -0.3070458515
-0.1247620594 -0.0613159366 -0.3162005646
-0.1544762497 -0.0610353006 -0.3522808004
-0.1670751396 -0.0150134032 -0.2921865409
-0.1119992381 0.0154792857 -0.3264940300
-0.1586455157 0.0009821630 -0.3926857916
-0.1975525458 -0.0542193704 -0.3021098682
-0.1473080865 -0.0042169363 -0.2911583093
-0.1718758392 -0.0602140687 -0.3157100603
-0.1118171068 -0.0145735579 -0.3069083501
-0.1034538889 -0.0227289880 -0.4058541054
-0.1619915731 -0.0196935409 -0.2925652740
-0.1514174263 -0.0296090064 -0.3943572656
-0.1717342019 -0.0565428218 -0.3068746030
-0.1748801266 -0.0389134570 -0.3267853147
-0.1847441720 -0.0667114754 -0.3316514841
-0.1740486085 -0.0352672861 -0.2917123867
-0.1716501371 -0.0020741457 -0.2769152161
-0.1867589062 -0.0347680099 -0.2711895621
-0.1751729698 -0.0549310489 -0.2997473925
-0.0613980835 0.1381818326 -0.3015883862
-0.0676896553 -0.0176767579 -0.3350604036
-0.0925005002 -0.0188275046 -0.3693769963
-0.1573234377 0.0097945404 -0.3592779918
-0.2215477850 0.0001802144 -0.3080716107
-0.1214583528 0.0134037226 -0.3379400661
-0.0617712538 -0.0388481793 -0.2605352285
-0.1846766288 -0.0297295686 -0.2694967511
-0.1813988625 0.0183811475 -0.3638503156
-0.0879407886 -0.0002550372 -0.3271151647
-0.1318829410 0.0179515847 -0.3250906344
-0.1763180543 -0.0269350370 -0.2848346619
-0.1239682565 0.0155919045 -0.3193021210
-0.1999244353 0.0389627966 -0.3143546671
-0.1193474969 -0.0208940932 -0.3100889066
-0.1060011785 -0.0050088515 -0.3699290935
-0.1657484219 -0.0484055581 -0.2860049643
-0.1688369198 0.0154884078 -0.2943651448
-0.1922253297 -0.0345375213 -0.3319897370
-0.1831946522 -0.0075303444 -0.2623665895
-0.2475358108 -0.0038451804 -0.3211683306
-0.1935913592 -0.0651389290 -0.3491314163
-0.1743305168 0.0156233935 -0.2894803931
-0.1247713490 -0.0350930315 -0.3171158101
-0.1881136696 -0.0472702447 -0.3276923284
-0.1784669945 -0.0675996661 -0.3027239689
-0.1789264203 -0.0293090654 -0.3248905987
-0.1753820554 -0.0651422753 -0.3423533427
-0.1688430929 0.0173107800 -0.3830588304
-0.1777383379 0.0092923119 -0.3431397469
-0.1294221254 0.0005953429 -0.4013794787
-0.1388862150 -0.0475127009 -0.3294630755
-0.1330015621 -0.0617899935 -0.3471734588
-0.2116526097 -0.0601638098 -0.3022796901
-0.1063324794 -0.0687275357 -0.3357002941
-0.1957886006 0.0211736292 -0.2988066471
-0.1841651214 0.0147008742 -0.2515479993
-0.1607215827 0.0218803654 -0.3589565701
-0.2014322770 0.0145066952 -0.3232026129
-0.1184340790 -0.0103338268 -0.3057752550
-0.1295219031 0.0216404343 -0.3103839013
-0.1301640595 0.0170112841 -0.3347451795
-0.1369519920 -0.0322138261 -0.3572870335
-0.1543797095 -0.0327682488 -0.2917903193
-0.2190330385 -0.0099332132 -0.2730436015
-0.1837955968 -0.0310467587 -0.3848812198
-0.2306175723 -0.0116891974 -0.2866864647
-0.1069005015 0.0145563114 -0.3266951761
-0.1769383921 -0.0276909173 -0.2793065823
-0.1175977261 -0.0355522511 -0.2837515504
-0.1071596362 0.0151903646 -0.3295944005
-0.2243980005 -0.0196516048 -0.2911358120
-0.0994216288 -0.0069442022 -0.3139699191
-0.1515660233 0.0186479949 -0.3065473370
-0.2466344829 -0.0046052862 -0.3150329634
-0.1136407120 0.0162237949 -0.3398084674
-0.2437626344 -0.0172980150 -0.3347878335
-0.1846820848 -0.0000519950 -0.2696427193
-0.1945146441 0.0156988357 -0.2845893634
-0.1040177517 -0.0451229288 -0.3941473984
-0.2316240903 -0.0149201197 -0.3110020980
-0.2100898670 0.0034866522 -0.2755466706
-0.1231144752 0.0224159106 -0.2958067489
-0.1764571939 -0.0348425470 -0.2909951981
-0.1850539670 -0.0718334862 -0.3412064750
-0.1691642646 -0.0350523416 -0.2937449863
-0.0943796550 -0.0041164750 -0.3191083568
-0.1184945935 0.1427117644 -0.4341397023
-0.1345335668 0.0094565015 -0.3824427034
-0.1802164707 -0.0556789031 -0.2896191758
-0.1272441415 -0.0054167728 -0.2975642905
-0.1969895636 -0.0005933238 -0.3781058162
-0.1382814274 -0.0785176241 -0.3676091362
-0.2177453704 -0.0523477221 -0.3061197924
-0.1820601480 -0.0202810944 -0.3872309192
-0.2139229089 0.0242043248 -0.3562603627
-0.1501141609 0.0235933861 -0.2994424322
-0.1493879836 0.0221672957 -0.3029635494
-0.1181043616 0.0092246268 -0.3562132039
-0.2208688773 -0.0197971286 -0.2844861088
-0.1013693621 0.0003992480 -0.3605605990
-0.1917773160 -0.0346142147 -0.2675719955
-0.1249875253 0.0023208558 -0.3048071379
-0.1413437216 -0.0199868394 -0.3648467712
-0.1373144966 -0.0826303441 -0.3690723094
-0.0918498298 -0.0080584217 -0.3622912850
-0.1327652770 -0.0193985172 -0.2971461730
-0.1524914164 -0.0711444102 -0.3469701429
-0.1283893291 -0.0497761248 -0.3313491198
-0.1446715002 -0.0620086554 -0.3512593730
-0.1576893202 0.0133867907 -0.3748669512
-0.0792950725 -0.0026723914 -0.2236955520
-0.2218783453 0.0024085256 -0.3159848613
-0.1352274454 -0.0285105047 -0.3453610517
-0.1097058285 -0.0452744148 -0.3108395039
-0.1198161913 -0.0122263485 -0.2877920954
-0.1204428364 -0.0701651292 -0.3279515546
-0.2063095808 0.0079321588 -0.2772516104
-0.1791609817 0.0273491222 -0.3829323431
-0.1650683571 -0.0448775293 -0.2953426109
-0.1237809448 -0.0524227651 -0.3384862605
-0.1020409636 -0.0498531384 -0.3041384602
-0.0932952481 -0.0444586172 -0.3796694928
-0.2130154081 -0.0675337846 -0.3173138623
-0.2028388960 0.0093380324 -0.3520182839
-0.1797460226 -0.0561091032 -0.3048332897
-0.1625198878 -0.0457879491 -0.3144518108
-0.1253271698 -0.0506088442 -0.3324555995
-0.2153467238 0.0048838115 -0.3041235922
-0.1945781313 -0.0245433108 -0.2648516456
-0.1090978992 -0.0112183211 -0.3799708938
-0.1847804444 -0.0290411895 -0.3233935888
-0.1399026851 -0.0422157227 -0.2923797257
-0.2239480303 -0.0271210862 -0.3623068689
-0.2185581873 -0.0553318436 -0.3091930730
-0.1916697948 0.0002840914 -0.3329123961
-0.2115996621 -0.0306864978 -0.2761215218
-0.0471636099 0.0147638649 -0.1930924264
-0.1723331020 -0.0116951959 -0.4045029081
-0.0987861848 -0.0092698778 -0.3137954951
-0.1978434577 0.0194654815 -0.2871530049
-0.2046455987 -0.0646543203 -0.2895192784
-0.0831364355 -0.0292649551 -0.3393890456
-0.1988717603 0.0145433463 -0.3689110050
-0.1248126992 -0.0598156250 -0.3535523816
-0.1507643416 -0.0339886283 -0.3393366903
-0.1347486119 -0.0149070669 -0.2951554635
-0.2392376967 -0.0128012618 -0.3048379449
-0.2504710898 0.0065061932 -0.3035081948
-0.1291726701 -0.0551465591 -0.3358849604
-0.2048650250 0.0073393881 -0.2777737970
-0.1363893132 -0.0619794612 -0.3059313095
-0.1687902046 -0.0449357794 -0.3102419576
-0.1736771636 0.0152546274 -0.2584134690
-0.1640740385 0.0005837279 -0.2861924108
-0.1972269123 0.1212423159 -0.4864378180
-0.1773001888 -0.0270251218 -0.2773340252
-0.2467028065 -0.0073615003 -0.3105821955
-0.0798047984 -0.0124737687 -0.3445946147
-0.1165401393 -0.0774589505 -0.3727094256
-0.1342473439 -0.0363817518 -0.3586145421
-0.1602389611 -0.0580765872 -0.3822003174
-0.0968490376 -0.0095026989 -0.3658550820
-0.1245099369 0.0366480413 -0.2422011303
-0.1229808770 0.0130024903 -0.2785592762
-0.1039711854 0.0087702649 -0.3514333948
-0.1712148379 -0.0686757451 -0.3330110097
-0.1697497049 -0.0095633596 -0.2822811428
-0.1346951733 0.0227018655 -0.3038846756
-0.1064433597 0.0003405884 -0.3164568451
-0.2237103264 0.0014351097 -0.2896332742
-0.1997611435 -0.0414182123 -0.3732839749
-0.1793933587 -0.0125245394 -0.2718333861
-0.2034772710 0.0224405463 -0.3485593463
-0.0753552315 -0.0304341425 -0.3259711696
-0.2305588107 -0.0540094406 -0.3129345634
-0.1805257788 -0.0254098005 -0.3248481772
-0.1295897012 0.0183334611 -0.3236034870
-0.2028747659 -0.0016294987 -0.3655623546
-0.2082807795 -0.0484333386 -0.3533989032
-0.2032273517 -0.0430410867 -0.3818084908
-0.1823334434 -0.0274261122 -0.3225627738
-0.1277401661 0.0118885186 -0.3102271196
-0.1797093204 -0.0614880537 -0.2969406459
-0.1319647810 -0.0278854113 -0.2991757189
-0.1051114824 -0.0561709851 -0.3212277103
-0.1489559638 0.0160380162 -0.3762447886
-0.0998667823 -0.0487719112 -0.3837966327
-0.1474291786 -0.0584087544 -0.3751175494
-0.0889053172 -0.0019140164 -0.3244483846
-0.1374179551 0.0213315632 -0.2946364960
-0.1690683185 -0.0017466302 -0.2792904584
-0.0844801440 -0.0098013708 -0.3465400425
-0.0825396415 -0.0097195894 -0.3254074113
-0.1647104067 0.0196024306 -0.3003201023
-0.2346455161 -0.0032230723 -0.2857562805
-0.1887011711 -0.0335165560 -0.3810463637
-0.1399856217 0.0194442723 -0.3139724369
-0.2103604763 -0.0233834977 -0.2596983511
-0.0877284314 -0.0254283212 -0.3756187942
-0.1310118678 -0.0320451462 -0.3371593073
-0.1425319798 -0.0353041409 -0.2614628323
-0.1699717201 0.0195278222 -0.2971865386
-0.1665388563 -0.0702592914 -0.3608312024
-0.1914553378 -0.0186226869 -0.4073760327
-0.1170404834 -0.0348477424 -0.3188130631
-0.0697819961 0.0486947945 -0.1850263915
-0.1198993019 -0.0276828829 -0.2978146557
-0.0738390611 -0.0188544299 -0.1855393277
-0.1173654196 -0.0547981488 -0.3120967726
-0.1614229756 0.0015718147 -0.2763658309
-0.1898422924 -0.0318770404 -0.2670579775
-0.1065398956 -0.0411464443 -0.3092536927
-0.2160290154 -0.0651342664 -0.2955255305
-0.1743933390 0.0202596328 -0.3092415224
-0.1584121979 -0.0400970073 -0.2893132995
-0.1771735036 0.0174053536 -0.2845608412
-0.1505095264 -0.0648762691 -0.3658516223
-0.1027461863 -0.0404005814 -0.3646651528
-0.1250011460 -0.0516222229 -0.2839557967
-0.2302347251 -0.0644883601 -0.3215274174
-0.1252592857 -0.0382498361 -0.3563741153
-0.1003302140 0.0000080253 -0.2788201053
-0.1692978042 0.0054363153 -0.2876343403
-0.0617694242 0.0938939764 -0.3191970766
-0.1448460035 -0.0414069403 -0.2702824379
-0.1946676800 -0.0195364571 -0.2649754684
-0.1820343388 -0.0072663845 -0.2696362481
-0.1571192052 -0.0149174189 -0.2920381464
-0.1361353743 -0.0610688887 -0.3193682403
-0.1824377784 -0.0070276872 -0.2679498489
-0.2015348963 0.0075680396 -0.2755610539
-0.2113885376 -0.0193951923 -0.2704451943
-0.1781536060 -0.0011909703 -0.3868579403
-0.1071675478 -0.0196442231 -0.3672566133
-0.2048801458 -0.0548659526 -0.3244290703
-0.1707431608 -0.0132972056 -0.2711658924
-0.1845048692 -0.0067657240 -0.2678763804
-0.0903445169 -0.0153873436 -0.3912948226
-0.1788807205 -0.0166455865 -0.3256514289
-0.1147062790 0.0229971897 -0.2993233338
-0.2066485669 -0.0457022256 -0.2817826759
-0.0816957774 -0.0146643217 -0.3514849502
-0.1502835411 -0.0089769361 -0.2882215839
-0.1676004756 0.0067768820 -0.3749144029
-0.1700981505 -0.0602399719 -0.3196601916
-0.2274023144 0.0013264951 -0.2895914464
-0.1932848777 -0.0379437246 -0.3323757074
-0.2504031734 -0.0208968627 -0.3191778961
-0.1170469725 -0.0231323247 -0.3116812399
-0.2000341225 0.0055965690 -0.2491650162
-0.1609005620 0.0008402642 -0.3750430347
-0.1748680913 -0.0522976291 -0.2900984998
-0.0819519006 -0.0038011255 -0.3469669249
-0.1226391588 0.0001299294 -0.3976529215
-0.1170378807 -0.0387804532 -0.2754549378
-0.1567860166 -0.0553277062 -0.3810396204
-0.1433036085 -0.0427813170 -0.3628048784
-0.1143297745 -0.0271993597 -0.3155692224
-0.1092616705 0.0061520623 -0.2591529895
-0.1148640941 -0.0271052189 -0.3161049602
-0.1922171654 -0.0205960209 -0.3801685273
-0.1768890397 -0.0566916185 -0.3347431568
-0.1441859509 0.0144342941 -0.3289872938
-0.2365990847 -0.0502714319 -0.3322634144
-0.2113454089 -0.0021959958 -0.3054494423
-0.1206061147 -0.0304813621 -0.3092218095
-0.2468004878 -0.0201690915 -0.3198476339
-0.2307409624 -0.0199977038 -0.2917536271
-0.1451989304 -0.0390230750 -0.3493938470
-0.1495142625 0.0029782926 -0.3668513018
-0.1697241253 -0.0592086198 -0.3923726702
-0.1325003287 -0.0670811471 -0.3498848630
-0.2159940016 0.0143756553 -0.3435064270
-0.1730732825 0.0103310454 -0.3667544759
-0.1571572052 0.0234179294 -0.2992769265
-0.1252468478 -0.0544862335 -0.4032242033
-0.1085271563 -0.0042464448 -0.3139107869
-0.1704401560 -0.0030627626 -0.2744645350
-0.1440505326 -0.0382589379 -0.2937643473
-0.1948229315 -0.0601714566 -0.3062165353
-0.1786584244 -0.0272364282 -0.3856308457
-0.0865353095 -0.0026897614 -0.3342879843
-0.2423533997 -0.0116514318 -0.3300481103
-0.2223686438 -0.0314058946 -0.3050163399
-0.1498434500 0.0056538450 -0.2909400406
-0.1547837753 0.0071042399 -0.2951179370
-0.1142966421 -0.0474526175 -0.3206000291
-0.0863860650 -0.0537026190 -0.3407425161
-0.1454232356 -0.0625607818 -0.3318464366
-0.1373291064 0.0235056432 -0.2803128678
-0.1446474037 -0.0346395994 -0.2914686207
-0.1979256079 0.0162266423 -0.3637019467
-0.1470421962 0.0004601427 -0.2944147136
-0.1575740106 -0.0507658107 -0.3429202564
-0.2195891338 0.0018971601 -0.2910790274
-0.1599701972 0.0081596944 -0.3677070788
-0.1811644273 -0.0461629667 -0.3317615463
-0.1267552674 0.0152536321 -0.3144781889
-0.1738121501 -0.0302936538 -0.2912020482
-0.0915495215 -0.0319747534 -0.3148040839
-0.1316925675 -0.0221812106 -0.2993299661
-0.0837393102 -0.0193348462 -0.3613930055
-0.1508719524 -0.0640866462 -0.3618551797
-0.1587884252 -0.0672246752 -0.3515768716
-0.1301469114 -0.0173780286 -0.3020502683
-0.2185952801 -0.0253810936 -0.3738145569
-0.1890405074 -0.0188465517 -0.3754883678
-0.0919859096 -0.0217957266 -0.3160351515
-0.1247610963 -0.0497642375 -0.3176672159
-0.1899768668 -0.0824171965 -0.3855971775
-0.1610614538 0.0118215156 -0.3318549923
-0.1196419700 -0.0184056212 -0.3165958352
-0.0851358478 0.0045228788 -0.3324591128
-0.1692428788 -0.0131841936 -0.2772207922
-0.2174267895 0.0017160705 -0.3824007527
-0.1689141069 -0.0125890718 -0.2894928265
-0.2488022976 -0.0051499424 -0.3123962582
-0.1509199826 -0.0145285578 -0.4015991818
-0.1235710157 0.0172839672 -0.3239803383
-0.1867814235 -0.0181259247 -0.2531622729
-0.1922248904 -0.0632465810 -0.3864192757
-0.1463342969 -0.0468674315 -0.1422441384
-0.0918025573 -0.0144580205 -0.3940646687
-0.2301074302 -0.0225911389 -0.2955584155
-0.1358877735 -0.0594434559 -0.3597257013
-0.1112014356 0.0059681072 -0.3633571965
-0.2375083652 -0.0320245780 -0.2999243850
-0.1215715403 -0.0720269931 -0.3662053410
-0.2237127567 -0.0010954626 -0.2974161721
-0.1731907418 -0.0333797659 -0.2747630999
-0.1258149707 -0.0802696718 -0.3843333674
-0.1542490868 -0.0662642160 -0.3607865962
-0.1520615295 0.0272884430 -0.2805491267
-0.1103668533 -0.0376299089 -0.3056456979
-0.1618505146 -0.0042704010 -0.2625854385
-0.1762471616 0.0141996107 -0.3777983651
-0.1881712485 0.0090631882 -0.3435057997
-0.1992791661 -0.0563500621 -0.3344106712
-0.1073559460 -0.0239843914 -0.3752735159
-0.1390349413 -0.0104897726 -0.3500764592
-0.1510678937 -0.0476466319 -0.3989760972
-0.1784841021 -0.0397793923 -0.3121197205
-0.0908204820 -0.0438331151 -0.3707527792
-0.1785713199 -0.0253485671 -0.2761156641
-0.1332712381 0.0127092881 -0.3777096022
-0.1627913167 -0.0608009248 -0.3669104611
-0.2176291347 -0.0137589654 -0.3045382415
-0.1300979526 -0.0317716463 -0.3100850232
-0.2251237126 -0.0192153859 -0.2971422267
-0.0872134736 -0.0026432378 -0.3471700612
-0.2015966523 -0.0441366865 -0.2742296639
-0.2080737577 0.0107758930 -0.2781203010
-0.1029106070 -0.0457031098 -0.3172309990
-0.2058050669 0.0121279791 -0.3174710394
-0.2048105719 0.0157905373 -0.2836864406
-0.1203903183 0.0098444568 -0.3129886985
-0.0773367020 -0.0162754465 -0.3249374755
-0.1609243609 -0.0635493427 -0.3279442880
-0.1291666139 0.0027745311 -0.3037346379
-0.1539658313 -0.0025059297 -0.3873805289
-0.1193610383 -0.0755053598 -0.3770370316
-0.1875713790 -0.0580945283 -0.2830678252
-0.2139520668 0.0057262961 -0.3571387593
-0.1168270974 -0.0675934726 -0.3487488624
-0.0947533355 -0.0222002164 -0.3126591481
-0.1933509522 -0.0489490743 -0.3086675120
-0.1101138612 0.0100898972 -0.3560640785
-0.1106371583 -0.0089009743 -0.2920874013
-0.1670534511 0.0027410832 -0.2839458372
-0.1750826145 -0.0337984544 -0.3873628950
-0.2421298117 -0.0193565998 -0.3200330000
-0.1847240753 0.0098322179 -0.2774288448
-0.0995916886 -0.0078488410 -0.3047649282
-0.1772952254 0.0103526021 -0.2822124566
-0.2037467000 -0.0508824769 -0.3543049452
-0.1992503741 0.0057443126 -0.3806507452
-0.1776008630 -0.0273580503 -0.3323623035
-0.1086981110 0.0156382825 -0.3292401880
-0.1032228676 -0.0604589630 -0.3696201762
-0.1125618278 -0.0670269089 -0.3653873744
-0.1093154709 -0.0022447470 -0.3139460398
-0.1730659224 -0.0045829013 -0.2724477564
-0.1938830184 -0.0670884354 -0.2857285136
-0.1246149134 0.0105129495 -0.3116972160
-0.2313005443 -0.0606320239 -0.3237400464
-0.0802837835 -0.0142842045 -0.3300332189
-0.2003960501 -0.0064376862 -0.3788712617
-0.1656532823 0.0000146816 -0.3824664350
-0.1546493570 0.0193247740 -0.3047973014
-0.1492167238 -0.0512139261 -0.3604311207
-0.2280652153 -0.0537257406 -0.3474347574
-0.1591528345 -0.0429873727 -0.2835595392
-0.1316411706 -0.0070745075 -0.2965017508
-0.1243800279 -0.0725264661 -0.3383998147
-0.0893308674 -0.0357925115 -0.3589646023
-0.1071028748 -0.0240067498 -0.3687483526
-0.1328672004 -0.0363481419 -0.3023836208
-0.1350980855 -0.0299384021 -0.2948463840
-0.1679170939 -0.0151748789 -0.3937495204
-0.2391245720 -0.0094299812 -0.3250950847
-0.1003110769 -0.0143725300 -0.3076128887
-0.1319930238 -0.0073039917 -0.2945058221
-0.0804652304 -0.0007918143 -0.3265079539
-0.1848803359 -0.0044532672 -0.2673554570
-0.1193317152 0.0269847907 -0.2908312440
-0.1459380529 0.0266068388 -0.2773594077
-0.2104617679 -0.0289452190 -0.3706575578
-0.1384363923 -0.0101852613 -0.2712306801
-0.1295533142 -0.0688713720 -0.3539073307
-0.1531024526 -0.0123741911 -0.2761807188
-0.1473035995 -0.0601478497 -0.3551261670
-0.1266527971 -0.0345650290 -0.3159648279
-0.1740456698 -0.0016869503 -0.3875074070
-0.1537853532 0.0112033061 -0.3367376986
-0.1387247676 -0.0569568200 -0.3050408900
-0.1125214510 -0.0218310282 -0.3162261695
-0.2132054639 -0.0378568329 -0.3622855361
-0.2036708577 -0.0914465925 -0.5369916811
-0.1034138690 -0.0687883709 -0.3403390351
-0.1866428986 0.0049913229 -0.3567021563
-0.1119818241 -0.0226250699 -0.3153195416
-0.2342604298 -0.0423658796 -0.3517645499
-0.1626769742 -0.0593891274 -0.3789438450
-0.2284376300 -0.0567082020 -0.3192165827
-0.1224822723 0.0178849771 -0.3356407469
-0.1803577693 -0.0573182820 -0.2766065485
-0.1702695085 -0.0393214991 -0.3094084239
-0.2104943246 -0.0061086272 -0.2713456750
-0.1408183150 -0.0627394867 -0.3927059320
-0.1492273219 -0.0512472400 -0.4006589852
-0.1407652198 -0.0546970084 -0.3088645094
-0.0895520005 -0.0612390728 -0.3380857264
-0.1678022464 -0.0046888616 -0.2777700778
-0.1815054430 -0.0723930594 -0.3491181388
-0.2098665622 -0.0047829571 -0.2725662949
-0.1169854855 -0.0086780910 -0.3006589482
-0.1269449731 0.0177084233 -0.3321064117
-0.1317044141 -0.0564474284 -0.2840371276
-0.0966879935 0.0083460751 -0.3375788258
-0.0815009230 -0.0203108913 -0.3418391245
-0.1315310177 -0.0460847749 -0.3413369932
-0.0972983590 -0.0206102233 -0.3128509072
-0.1664711069 -0.0065133499 -0.3867720177
-0.1598728498 -0.0112254840 -0.2892783543
-0.1986372331 0.0191988713 -0.2994486483
-0.2186614234 0.0038622430 -0.3057121979
-0.1019496806 -0.0129061650 -0.3675941728
-0.1916027486 0.0214142348 -0.3666672304
-0.2037119427 -0.0491988933 -0.3129394887
-0.1548430092 -0.0489804325 -0.3929302291
-0.2020324465 0.0224970435 -0.3648437690
-0.2145622731 -0.0588482246 -0.3121331520
-0.1728195450 -0.0141555069 -0.2874151292
-0.0527362558 0.0198653562 -0.3955636802
-0.2205569176 0.0257151872 -0.3471083210
-0.1843813198 0.0180918399 -0.2845476583
-0.1511983076 0.0198991314 -0.3185238173
-0.1097879722 0.0132771779 -0.3265346905
-0.1697552402 -0.0196577239 -0.2922988940
-0.1173342118 -0.0053338506 -0.3046609549
-0.1897414984 -0.0361435804 -0.3176012370
-0.1463780569 -0.0480205408 -0.3523172761
-0.2003910160 0.0094271475 -0.3423786686
-0.1841375534 -0.0290448235 -0.3774096381
-0.1723781435 -0.0411367191 -0.3885313365
-0.1812014112 -0.0691528636 -0.3341474957
-0.1801650141 -0.0588003170 -0.3122018437
-0.1430911445 -0.0702993126 -0.3369016780
-0.2355201934 -0.0010250917 -0.3180510125
-0.2414938187 -0.0321316164 -0.3221995153
-0.1881466682 0.0176025997 -0.3127386538
-0.0853848698 -0.0327846661 -0.3471050064
-0.2469841513 0.0000321205 -0.3245209596
-0.1494500051 0.0171397436 -0.3045409698
-0.1349941299 -0.0525095231 -0.3046936592
-0.1772154088 0.0200974494 -0.2917801774
-0.0391088983 0.0186027163 -0.1922249622
-0.1874160644 -0.0273065609 -0.2669988108
-0.1888327610 -0.0632921292 -0.3128176184
-0.1164995881 0.0174023256 -0.3246292226
-0.1198325862 -0.0030219740 -0.3029121000
-0.1129479096 -0.0563839255 -0.3948886935
-0.1730362116 0.0090537265 -0.3441275090
-0.0601996747 0.1178408668 -0.3223936725
-0.1825074687 0.0109560446 -0.3805531628
-0.1941409415 -0.0005442364 -0.2677335268
-0.0877152401 -0.0481387459 -0.3146335850
-0.1938280291 -0.0459429107 -0.3173803698
-0.1695708333 0.0141454930 -0.3822410673
-0.0826983110 -0.0243235274 -0.3319808167
-0.1429154965 -0.0477544160 -0.3276388760
-0.0894158753 -0.0272653548 -0.3168237582
-0.1948191490 0.0004385166 -0.2697178461
-0.1830347944 -0.0396580216 -0.2751960714
-0.1947944803 -0.0244964039 -0.3372089499
-0.1244438493 -0.0523763912 -0.3165394487
-0.1370310136 0.0243397949 -0.2997447880
-0.1226492293 -0.0374745071 -0.3179190951
-0.2070509082 0.0015667366 -0.2948653950
-0.1758943397 0.0066456277 -0.2741674746
-0.1912675842 -0.0477763966 -0.2983485857
-0.2371486481 -0.0043214012 -0.3339342159
-0.1813323079 -0.0491647243 -0.3200318601
-0.1671952646 0.0209824407 -0.2575300605
-0.1504584759 0.0205154861 -0.3687728319
-0.2317490209 -0.0058184971 -0.3099235376
-0.2004265225 -0.0412627910 -0.3102040872
-0.1894577570 -0.0111087032 -0.3384615744
-0.1669129574 0.0102574465 -0.2901284029
-0.1740136274 -0.0601577480 -0.3752689898
-0.0995844117 -0.0301899621 -0.3141285857
-0.1139890129 -0.0337368135 -0.2644861547
-0.0918846802 0.0057834791 -0.3420482723
-0.0996299301 -0.0299029801 -0.3129541651
-0.1451669582 -0.0642628725 -0.3544417631
-0.1568953558 -0.0854668242 -0.3920088852
-0.1225966380 -0.0424490099 -0.3030353841
-0.1035242332 -0.0466306693 -0.3576943607
-0.2414698508 -0.0138614261 -0.2942180864
-0.1878180457 0.0131373697 -0.3306321466
-0.1322818654 0.0076234465 -0.3066070045
-0.1122580964 -0.1451595081 -0.1792129370
-0.1390304679 -0.0418124928 -0.2962568634
-0.1712851076 0.0117124958 -0.3729054228
-0.2009963449 -0.0591798094 -0.3753164102
-0.1953767108 0.0499449114 -0.3557885410
-0.1720412043 -0.0361562354 -0.3142023992
-0.1325888554 -0.0224146548 -0.2975506591
-0.0977545232 -0.0149647212 -0.3132205904
-0.2476243096 -0.0200345958 -0.3355796199
-0.2022772099 -0.0626737824 -0.3174138760
-0.1714601530 0.0181333877 -0.2945090505
-0.1788452193 -0.0446070644 -0.2895567359
-0.0780125694 -0.0333300099 -0.2536929910
-0.1793994655 0.0132914666 -0.2841270463
-0.2370238919 -0.0079342428 -0.3150867771
-0.2112431051 -0.0377520625 -0.2740791097
-0.1706318105 -0.0001053734 -0.2778052171
-0.1223965644 -0.0606985651 -0.3321205241
-0.0959149247 -0.0071120645 -0.3591387428
-0.2069620021 0.0270874171 -0.3315666804
-0.1830388575 0.0098798257 -0.3760534330
-0.1253502799 -0.0198818016 -0.3129207838
-0.1487507021 -0.0592707028 -0.3029664115
-0.1478087402 -0.0458408880 -0.2864690372
-0.0921493089 0.0223556173 -0.2589044590
-0.1831056557 -0.0356588835 -0.3156514740
-0.1698844967 -0.0418110927 -0.2901757286
-0.1426972939 0.0014632982 -0.4013143533
-0.1032097384 -0.0309639706 -0.3830528119
-0.0914427519 -0.0328194053 -0.3596282072
-0.2011801009 0.0104110653 -0.3348286256
-0.1868772958 -0.0305033762 -0.3393657342
-0.1293320221 -0.0077402899 -0.2965906331
-0.1071454929 0.0171175307 -0.3290630597
-0.0875097862 -0.0552855066 -0.3216273414
-0.1791526396 -0.0237361332 -0.3177039822
-0.1650564599 0.0238755790 -0.2889959776
-0.1769673667 -0.0179177801 -0.2681034177
-0.1696615027 0.0069720540 -0.3596318900
-0.1522721952 0.0156175152 -0.3551848550
-0.1868017112 -0.0654381229 -0.2903246104
-0.1365197191 -0.0033469044 -0.3981036867
-0.1511985756 0.0044778518 -0.3957286273
-0.1500342098 0.1829750439 -0.3802044981
-0.1895290227 0.0124096437 -0.3752651917
-0.1154293723 -0.0071931214 -0.3052305701
-0.1878668904 -0.0403964786 -0.3198770826
-0.1496356768 -0.0449712846 -0.2924191212
-0.2223198201 -0.0123845205 -0.3048356386
-0.1995630502 -0.0294309628 -0.2667243943
-0.1996869307 -0.0512606357 -0.2782463735
-0.2096031887 -0.0496696848 -0.3198520364
-0.1836403190 -0.0418428234 -0.3809042838
-0.0791534825 -0.0072122705 -0.3483033244
-0.2198602667 -0.0115846002 -0.3653830882
-0.1772613703 -0.0687617540 -0.3378878060
-0.1390072534 -0.0197955089 -0.2900464472
-0.0898601754 -0.0111497525 -0.3214789169
-0.2174552693 -0.0050847543 -0.2768951595
-0.2173954695 -0.0060899896 -0.2760403156
-0.1474530421 -0.0622551090 -0.3574361785
-0.1477648768 -0.0411617810 -0.2940413199
-0.1810284084 -0.0717830028 -0.3539923681
-0.2106925706 -0.0526046826 -0.3056547580
-0.2122524180 -0.0072693809 -0.2702994276
-0.1980449198 -0.0495740306 -0.3242802273
-0.1328826147 -0.0752895531 -0.3780624335
-0.1150978180 0.0131637788 -0.3519065296
-0.1339649707 -0.0221349373 -0.2982982993
-0.1926254769 0.0208484712 -0.2875897131
-0.1868105474 -0.0045241947 -0.3832581928
-0.1052489149 -0.0307858756 -0.2732557234
-0.1965125000 -0.0379391368 -0.3119142743
-0.1001762525 -0.0593666814 -0.3620891506
-0.1276432668 -0.0195874896 -0.3096044875
-0.1859849481 -0.0477173880 -0.1784955239
-0.1678560624 0.0221849552 -0.3080240547
-0.1823913332 -0.0530716531 -0.3165229062
-0.1078470213 -0.0589115408 -0.3159383930
-0.1471376815 0.0155834357 -0.2895348639
-0.1822192067 0.0195868023 -0.2875783455
-0.2006474193 -0.0010830450 -0.3757905641
-0.0455674848 -0.0076510610 -0.1693156273
-0.1373316512 -0.0747499308 -0.3394225532
-0.1656173485 -0.0550242033 -0.3762262062
-0.1206895738 -0.0211890253 -0.3036009385
-0.1749990341 -0.0246175821 -0.2874695637
-0.1313391213 0.0030602781 -0.3735357220
-0.2345021894 -0.0007552408 -0.3482567019
-0.1069388619 -0.0529081003 -0.3051464867
-0.0702888501 -0.0345681976 -0.2528892044
-0.1038767518 -0.1365409765 -0.2030664641
-0.2067056327 -0.0548120135 -0.2888973197
-0.2253005150 0.0046082726 -0.2971948753
-0.1718544550 -0.0395758160 -0.2938612059
-0.1319634983 -0.0530580226 -0.3019678029
-0.1222065914 -0.0345330576 -0.3174216175
-0.1916077578 -0.0591172191 -0.3294941032
-0.0998153377 0.0053513809 -0.3237419883
-0.1524141351 0.0047930977 -0.2951094899
-0.1635268853 -0.0566305633 -0.3230715960
-0.1890068229 0.0073443360 -0.3483890008
-0.1639180404 0.0059781484 -0.2912503815
-0.1722892564 -0.0420683569 -0.2927443408
-0.1773081435 -0.0330460271 -0.3335254146
-0.2201963375 -0.0306550548 -0.2986518847
-0.1073738712 0.0102298102 -0.3241331481
-0.1599826782 0.0063712778 -0.2944578822
-0.1329412465 -0.0589472352 -0.3583625715
-0.1116077525 -0.0479766497 -0.2835663136
-0.0849467926 -0.0079242425 -0.3249271826
-0.1756136143 0.0165408131 -0.3693550914
-0.1074445488 -0.0177636263 -0.2900137467
-0.1900870341 -0.0104784398 -0.3229676468
-0.1497513316 -0.0360945189 -0.3417375259
-0.1357163801 -0.0015684858 -0.3867855595
-0.0613961551 0.0064970097 -0.1668450855
-0.2391338221 -0.0426150736 -0.3304412590
-0.1842932584 -0.0376829719 -0.3303718911
-0.1468995535 0.0196547722 -0.3144827200
-0.0929629677 -0.0373057205 -0.3729276112
-0.0239448699 -0.0013043638 -0.2230972219
-0.2001640037 -0.0483314330 -0.3546889364
-0.0817644452 -0.0152961244 -0.3451431212
-0.0812421887 -0.0166448596 -0.3430803289
-0.1846816442 -0.0270333353 -0.2678736821
-0.1786914973 -0.0539159800 -0.2995027577
-0.2464047341 -0.0365934526 -0.3559019612
-0.1304163560 -0.0304591301 -0.3000459387
-0.1370990583 -0.0372799512 -0.2971475194
-0.1763809106 -0.0621892176 -0.3812820550
-0.1427962372 -0.0662697045 -0.3119266096
-0.2072472615 -0.0531342753 -0.2780714147
-0.1434343320 -0.0121535417 -0.3645640056
-0.2058454039 -0.0501883949 -0.3515897229
-0.0997354252 0.0154598583 -0.3336586019
-0.2125132330 0.0241272605 -0.3339265677
-0.0994828733 0.0145859693 -0.3299652381
-0.1009433801 -0.0050091136 -0.3612853020
-0.1245096637 -0.0430346641 -0.3543941340
-0.1651370649 -0.0679318307 -0.3435824500
-0.2006102102 0.0343162655 -0.3709093391
-0.0359971785 0.0024003938 -0.2244032457
-0.1755031134 -0.0119250043 -0.2775649742
-0.1765835137 0.0130636661 -0.3320364720
-0.1881072000 -0.0070400058 -0.3333092186
-0.0392408271 -0.0194480295 -0.3553193999
-0.1898251271 -0.0565715547 -0.2808996162
-0.1488287967 -0.0716478589 -0.1491627212
-0.1620044417 -0.0586306945 -0.2914420129
-0.1343483387 -0.0044149655 -0.2961146918
-0.1777135608 -0.0194753237 -0.2747180336
-0.1668530609 -0.0556136981 -0.2991049664
-0.1132651897 0.0195503537 -0.3231977850
-0.1271756025 -0.0274229154 -0.3144052953
-0.2292443735 -0.0378244812 -0.3627319718
-0.2498792125 0.0075127236 -0.3085936798
-0.1235526257 -0.0490544540 -0.3469746341
-0.1207499746 -0.0364001846 -0.2720823464
-0.1558490787 0.0104614933 -0.3396317299
-0.1471692388 -0.0509011574 -0.2833031936
-0.1247831295 -0.0353800261 -0.2933570455
-0.1261952501 -0.0641530246 -0.3975255321
-0.1938329990 -0.0679938374 -0.3842651066
-0.1645761598 -0.0554561007 -0.3012611413
-0.1696109116 -0.0302459900 -0.2940625527
-0.1072281920 -0.0173817105 -0.3142536092
-0.1568072608 0.0075911733 -0.3712247913
-0.2141906597 -0.0534182123 -0.3131441988
-0.1565885191 -0.0090052493 -0.2878720740
-0.1905302481 -0.0481910544 -0.3047893519
-0.2316343624 -0.0225881265 -0.3598719902
-0.2208853561 -0.0055956226 -0.3128205480
-0.1750721569 -0.0161824159 -0.3350750637
-0.2381863123 -0.0271531890 -0.3139512250
-0.1552161461 0.0077297426 -0.3891760893
