0.0234165955 -0.1128944606 -0.3685236275
-0.0304676459 -0.0980693275 -0.4352421192
0.0002576641 -0.0960301375 -0.3846777046
-0.0590654933 -0.1553797409 -0.3677447731
0.0004835969 -0.0980820449 -0.4167027692
-0.0422659317 -0.1041985796 -0.4195552486
-0.0342796125 -0.1189047995 -0.3541889647
-0.0872981916 -0.1164037953 -0.3718526501
-0.0021639377 -0.1089760035 -0.3543569072
0.0178238931 -0.1090708646 -0.4042899527
-0.1022911381 -0.1244621654 -0.4164492977
-0.1121588602 -0.1437169585 -0.4348134584
-0.0253511351 -0.1033514355 -0.4196605055
0.1149296190 -0.1024442037 -0.4243458977
-0.1061605682 -0.1345246021 -0.3694262045
-0.0670672485 -0.1584612486 -0.3774684141
0.1047396103 -0.0774555096 -0.4420089265
-0.0518285079 -0.1023220219 -0.3795132810
-0.0065436204 -0.0970670618 -0.4014764281
-0.0095657098 -0.0967260313 -0.3789797699
-0.1122116761 -0.1465843671 -0.3690147394
0.1107711810 -0.1030085864 -0.4310863856
0.1171480210 -0.1248596478 -0.4553536818
-0.0219656286 -0.1468220905 -0.3677415196
-0.0143968779 -0.1467062517 -0.3647089097
-0.0628888839 -0.1353592665 -0.3522048953
-0.0496715442 -0.1027862588 -0.3762925005
-0.1192374626 -0.1415179955 -0.3841844668
-0.0491245734 -0.1016483639 -0.3642699786
0.0327541561 -0.1164594476 -0.4344114373
-0.0900232053 -0.1102806927 -0.3946978616
0.1184193017 -0.0897587662 -0.4309479954
0.1072295448 -0.0934906828 -0.4452444310
0.0326178345 -0.1068958585 -0.4272606385
-0.1117783751 -0.1188554231 -0.3840116606
-0.0743606016 -0.1058622059 -0.4270375795
0.1503941931 -0.0981175090 -0.4658491188
0.0124568458 -0.1039080737 -0.3608367939
-0.0896035639 -0.1565977653 -0.3712843042
0.1114980250 -0.0719073173 -0.4444988107
-0.0149385801 -0.1742050177 -0.3726774241
0.1151230506 -0.0842620975 -0.4648057413
-0.0540515922 -0.1073341712 -0.4339954649
-0.0354731494 -0.0993948312 -0.3878823198
-0.0396922498 -0.1000485931 -0.3935700390
-0.0192793933 -0.1566715092 -0.3675519446
-0.0721773364 -0.1695798141 -0.3864839566
0.0966267865 -0.0708566201 -0.4108572075
-0.1206332113 -0.1403549260 -0.4159062024
0.0221698571 -0.1043387948 -0.4368467146
-0.0123858314 -0.0993299159 -0.4229377562
-0.0765840404 -0.1071903380 -0.3917059600
-0.0170448484 -0.1226845757 -0.3477338681
0.1355637523 -0.1174088927 -0.4771223187
-0.0045356009 -0.0986274769 -0.4166897293
-0.0620801050 -0.1046695240 -0.3745342175
-0.0927591995 -0.1696701765 -0.3750437398
0.1436645298 -0.0982488117 -0.4579216573
-0.0598149594 -0.1314863419 -0.3626245129
-0.0601530407 -0.1161288078 -0.3568414653
-0.0044284851 -0.1183125744 -0.3513151143
-0.1077004469 -0.1638223206 -0.3732011384
-0.0168422026 -0.1633335396 -0.3630994215
0.0359899046 -0.1228237076 -0.3970138409
-0.0994070341 -0.1586321281 -0.3659923056
-0.0417696056 -0.1493179099 -0.3603403050
-0.1395296879 -0.1518657119 -0.4014262193
-0.0093092971 -0.1048175638 -0.3548151511
-0.0197183805 -0.1521784346 -0.3564156397
0.1389257779 -0.1227393061 -0.4512689599
0.1682757461 -0.1146763781 -0.5064165507
0.1252179715 -0.1300220035 -0.4714980109
0.0277596097 -0.1309627295 -0.3606038690
-0.1224860964 -0.1394628729 -0.3951119209
-0.1096649938 -0.1480474063 -0.4686496821
-0.0443920480 -0.1032804672 -0.3889741693
-0.0601731122 -0.1713108788 -0.3779562307
0.1203671844 -0.0691030255 -0.4485818593
-0.0716377974 -0.1087993205 -0.3713713944
-0.0074100094 -0.1005069554 -0.4162090996
-0.1061504519 -0.1186593139 -0.4396255019
0.0095765671 -0.0977917054 -0.4169527176
-0.0774069608 -0.1146396270 -0.3716453762
0.1321098831 -0.1024371881 -0.4610158619
-0.0543712844 -0.1064135120 -0.3667058584
0.0157624725 -0.1337867861 -0.3518506281
-0.0144791298 -0.1216290147 -0.3490336372
-0.0532691441 -0.1076497436 -0.3641887903
-0.0274084232 -0.1492319800 -0.3674691066
-0.0519393099 -0.1064642872 -0.4417327342
-0.0986708486 -0.1208351322 -0.4271750180
0.0246109177 -0.1213990710 -0.3525315361
-0.0820062340 -0.1117314563 -0.3718050361
0.1062109542 -0.0812388603 -0.4401613170
-0.0092040276 -0.1140110280 -0.3519677681
-0.0073383568 -0.1112618255 -0.3537427996
0.1294008620 -0.1195065794 -0.4797143162
-0.0021798588 -0.1067759624 -0.3548916176
-0.0723333971 -0.1070229153 -0.4171758908
-0.0390819152 -0.1509660227 -0.3608155182
-0.0196974286 -0.1575885068 -0.3543383327
-0.0720959360 -0.1072244917 -0.3925545536
0.0025033179 -0.1163307074 -0.3490378609
-0.0749864108 -0.1756943585 -0.3734071667
0.0136254867 -0.0972342102 -0.4107124586
0.0086510058 -0.1113023110 -0.3538917574
0.0152386983 -0.1095815045 -0.3566681485
-0.0849132184 -0.1071637642 -0.3790468045
0.1183492577 -0.0989257721 -0.4547775756
-0.0844235559 -0.1080736602 -0.3770748023
0.1211657717 -0.1116258824 -0.4577382641
0.1234425535 -0.1134136305 -0.4361415204
-0.0897276911 -0.1338496875 -0.3665023007
-0.0543451014 -0.1041976568 -0.3693354008
-0.0270005224 -0.1136737724 -0.3541002699
-0.0070564523 -0.1214254879 -0.3492005087
-0.0923924170 -0.1109212899 -0.4142732598
-0.0135757751 -0.1765975751 -0.3738817036
-0.0894481801 -0.1211430478 -0.3713118913
-0.0450088027 -0.1215451779 -0.3588419304
-0.0225507558 -0.1140278136 -0.3540632361
-0.0815947714 -0.1748578292 -0.3723066308
-0.0190969858 -0.0989589076 -0.4458903075
0.0154139839 0.0309067617 -0.3226751706
-0.0597228822 -0.1057528008 -0.3967948472
-0.1146544376 -0.1465916768 -0.3712688957
-0.0918863208 -0.1118633594 -0.4224626026
-0.0269615062 -0.1006403009 -0.3967210344
-0.0091033951 -0.1491440453 -0.3600067494
0.0083618310 -0.1059861114 -0.3985624883
-0.0091986573 -0.0939660713 -0.4306198535
-0.0157858994 -0.0983164048 -0.4225363019
-0.0900213004 -0.1128660619 -0.4220922682
0.1050951556 -0.0861768632 -0.4414495894
-0.0266380505 -0.1018065451 -0.4159722307
0.0100638831 0.0227342711 -0.3096688292
-0.1084402607 -0.1137463904 -0.3828337119
-0.0342592022 -0.1043696108 -0.4373331073
-0.0713140789 -0.1657467373 -0.3714168488
-0.0660099280 -0.1647532823 -0.3678506830
0.0065739141 0.0211844348 -0.3093730933
-0.0124970325 -0.0993380609 -0.4391466020
-0.0394576492 -0.1039480366 -0.4423489175
-0.0447869320 -0.1047535467 -0.4300760662
-0.0950935974 -0.1133752884 -0.4199229924
0.1170929511 -0.0807827627 -0.4543480974
-0.1183842060 -0.1330237199 -0.4036479898
-0.0605920618 -0.1461659828 -0.3591133224
-0.0122592905 -0.1004952488 -0.4175651023
-0.0764538468 -0.1926716004 -0.3839775714
0.0138682883 -0.1014352123 -0.3694195350
-0.0991372105 -0.1316155740 -0.3693449840
-0.1218179339 -0.1454217238 -0.3842823162
-0.0243542465 -0.0969916718 -0.3598154443
0.1428678874 -0.1229913796 -0.4522233578
-0.0887222917 -0.1069820409 -0.3741879136
-0.0170178066 -0.0969176233 -0.3740631069
-0.0024577320 -0.1318618688 -0.3454502048
0.1067154192 -0.0881396176 -0.4094194372
-0.0967561095 -0.1393928218 -0.3643594887
-0.0747819553 -0.1289647174 -0.3643512641
-0.0169410164 -0.1484226238 -0.3550559284
-0.0317936928 -0.0993370226 -0.3999261033
-0.0745971128 -0.1628445834 -0.3817313910
-0.0547966839 -0.1309651303 -0.3568009876
-0.0741027972 -0.1640510203 -0.3832968369
-0.0127394312 -0.0971769088 -0.3576906844
-0.0410253742 -0.0992168151 -0.3859251632
-0.0550528696 -0.1039846421 -0.4398671880
-0.1101858507 -0.1262059912 -0.3786444132
0.0447885026 -0.1212187763 -0.4268667347
-0.0702660754 -0.1691736728 -0.3863359392
-0.0546340525 -0.1017539131 -0.3727921758
0.1357680692 -0.1043164806 -0.4671080167
-0.1318171383 -0.1412558781 -0.4073167226
-0.1204909757 -0.1475988417 -0.4369269672
-0.0789852787 -0.1113510737 -0.4420255256
-0.0468155414 -0.1026658304 -0.4240562866
0.0984885870 -0.0591136344 -0.4179860385
0.0360480234 -0.1120658917 -0.4248921882
0.1124694856 -0.1128791712 -0.4483877619
-0.0095771131 -0.1318685824 -0.3504576479
-0.1047570790 -0.1541059504 -0.3716131278
-0.0373004387 -0.1135348563 -0.3584819849
-0.0700059420 -0.1086908791 -0.4270503115
-0.0945623037 -0.1827921450 -0.3780189113
-0.0671895512 -0.1069550867 -0.3917889695
-0.0896713077 -0.1063479105 -0.4018086573
-0.1024320856 -0.1094348813 -0.3948554914
-0.1073164003 -0.1356189491 -0.4327324024
-0.0143598430 -0.0985206993 -0.4017101196
0.1324859368 -0.0991127116 -0.4649639617
-0.0192676134 -0.0965844210 -0.3645925898
-0.0849698348 -0.1241436825 -0.3691754111
-0.0716907826 -0.1072605177 -0.3964962393
-0.1044727137 -0.1203641317 -0.4279586244
-0.0718472256 -0.1070814499 -0.3993348398
-0.0786840916 -0.1169340461 -0.3703103811
-0.0169209991 -0.0972171575 -0.3838825410
-0.1090336037 -0.1413223096 -0.4644651903
-0.0437119269 -0.1030183208 -0.4025060543
-0.1196380920 -0.1231906024 -0.4302951608
0.0366208371 -0.1230769764 -0.3923638153
-0.0274559012 -0.1031461152 -0.4196604596
-0.0046997839 -0.1648073270 -0.3593934430
-0.0292452999 -0.0965767017 -0.4146692568
0.0423967911 -0.1285166249 -0.4087514186
-0.0690642349 -0.1640613278 -0.3835946063
-0.0173827975 -0.1632523240 -0.3763347223
-0.1042839782 -0.1582281715 -0.3725414572
-0.0096380606 -0.0969681405 -0.3839001280
-0.0970552824 -0.1566241280 -0.3707579649
-0.0527003794 -0.1032378128 -0.4253671070
0.1162106771 -0.0930088309 -0.4264375516
0.0390768770 -0.1202848789 -0.4242152829
0.0006411508 -0.0978654226 -0.4297211086
-0.0694787231 -0.1065442817 -0.3724306817
-0.0871779201 -0.1087269379 -0.3861339617
-0.1228224080 -0.1435866025 -0.3792382712
0.0119745070 -0.1047541425 -0.3595200777
0.1568360013 -0.1309189813 -0.4579073902
-0.0642636837 -0.1057995991 -0.3795514489
-0.0792414737 -0.1083792531 -0.3860451333
0.1702572599 -0.1133474891 -0.5167239701
0.0325473324 -0.1166692777 -0.4115375209
0.0315613114 -0.1065536787 -0.4189852618
0.0464104326 -0.1266112047 -0.4323419286
-0.0519778746 -0.1515305950 -0.3618044739
-0.0140421295 -0.0976111453 -0.3845182956
-0.0449187234 -0.0985525343 -0.4438072109
-0.0642515004 -0.1587315802 -0.3663580242
-0.0044334565 -0.0985148932 -0.4115278526
-0.0167337267 -0.0954771582 -0.4345167390
-0.0264603227 -0.1016426763 -0.4141141309
0.1234938331 -0.1050461875 -0.4362042489
-0.0167531198 -0.0961071097 -0.3616711057
-0.0169097285 -0.1011572885 -0.4200058584
-0.0444140091 -0.1022770260 -0.4487904483
-0.1004944479 -0.1205848738 -0.4127696378
-0.0438213572 -0.1046294197 -0.4484578371
-0.0619191873 -0.1049521181 -0.3789189104
0.0174250598 -0.1053843234 -0.4048046833
0.1470209764 -0.1204956119 -0.4550979284
-0.0243440357 -0.1290579910 -0.3503138391
-0.0971644550 -0.1916541810 -0.3794158410
-0.0916110853 -0.1110150753 -0.4171856770
-0.0682111168 -0.0947079492 -0.4475693552
-0.0273119239 -0.1318545961 -0.3522523614
-0.0095468557 -0.0984184320 -0.4364639170
0.1456494088 -0.1064896002 -0.4510669209
0.1278923924 -0.1124606310 -0.4350563076
0.1064893746 -0.0750648936 -0.4225795562
-0.0086649687 -0.1733907204 -0.3671424890
0.0468972006 0.0002399340 -0.3389119074
-0.0966626033 -0.1103204563 -0.3931851685
-0.0714757000 -0.1072384073 -0.3901794625
-0.0868924130 -0.1356738278 -0.3640299578
-0.0741510615 -0.1072508767 -0.4100235254
0.1307397949 -0.1017630985 -0.4579217974
-0.0849293888 -0.1312009764 -0.3649125648
-0.0721747310 -0.1836869889 -0.3829613118
0.0203332330 -0.1200414753 -0.3494866114
-0.0265902535 -0.0973103803 -0.3598927058
-0.1018593622 -0.1092269655 -0.3846524377
-0.0843868308 -0.1310377374 -0.3672867670
0.1085114247 -0.1107844355 -0.4342396020
-0.0172438332 -0.1069849401 -0.3549873277
-0.0968007542 -0.1861927294 -0.3774399434
0.0022995748 -0.0973863370 -0.3790773289
0.0464122542 -0.1320042790 -0.3993615805
-0.0114814934 -0.1007024823 -0.4190465034
-0.0773764905 -0.1784016499 -0.3834519701
0.1547413112 -0.0981429910 -0.4487989156
-0.0665133029 -0.1217622262 -0.3644052299
-0.1204758286 -0.1412895322 -0.3868424296
0.1022424588 -0.0820303461 -0.4400996447
-0.1191731099 -0.1407635381 -0.3883510329
-0.0193981699 -0.1597188255 -0.3491335741
-0.1217245514 -0.1433637943 -0.4419763057
-0.1213647736 -0.1432624166 -0.4396708499
-0.0567219258 -0.1783430672 -0.3765046486
-0.1025215009 -0.1208765101 -0.4312205132
-0.0899306008 -0.1220423205 -0.3703984904
-0.1058308574 -0.1736719157 -0.3766899502
-0.0568575496 -0.1367522042 -0.3526281385
-0.0843622535 -0.1188957691 -0.3706467152
0.0096390331 -0.1049875394 -0.3575450182
0.0103164772 -0.1041301164 -0.3588852239
-0.0111691162 -0.1625136681 -0.3612524457
-0.0795128798 -0.1714584545 -0.3846895907
-0.0465804757 -0.1366282470 -0.3564489720
0.1383768359 -0.1040251050 -0.4125346809
-0.0911965668 -0.1099415645 -0.4059517682
0.1189835677 -0.1238860321 -0.4493779048
0.0234107578 -0.1130698386 -0.3765653777
0.1071553811 -0.0886838610 -0.4282771614
0.1084252788 -0.0932428724 -0.4293128473
-0.0780815713 -0.1078900145 -0.3801440636
0.1622540563 -0.0775877081 -0.4982305696
-0.0076083654 -0.1418703753 -0.3548577338
-0.0126157561 -0.0999894366 -0.4199451506
-0.0297625412 -0.1042509137 -0.4375112090
-0.0168356814 -0.0985556742 -0.3969765279
0.1398279397 -0.1148469375 -0.4609306840
-0.0254697427 -0.1486450411 -0.3478296080
-0.0118896185 -0.0960153119 -0.3697155935
-0.0715446696 -0.1218599454 -0.3654001653
0.1177847788 -0.0901392102 -0.4411046396
0.1388708571 -0.1045851301 -0.4569968816
0.0131731011 -0.0992594076 -0.4095927662
-0.0792528639 -0.1090567499 -0.4568601171
0.1329910703 -0.1118094058 -0.4352907078
0.1528700508 -0.0748789491 -0.5025677152
0.1130520067 -0.1189907509 -0.4250771636
0.0027599363 -0.0970272041 -0.3642354920
-0.0517864721 -0.1071406391 -0.4399081378
-0.0195102271 -0.1032073101 -0.3587767088
-0.0236783127 -0.1090882457 -0.3590981250
-0.0975928529 -0.1268524099 -0.3719009999
-0.0122247175 -0.1319954755 -0.3506502350
-0.0829095112 -0.1822047001 -0.3740312695
-0.0819809539 -0.1107916176 -0.4226568056
0.1452640816 -0.0466790915 -0.4871593479
0.0115073036 -0.1095286872 -0.3945198497
-0.0996950837 -0.1151142647 -0.4046081265
0.1218605660 -0.0882012041 -0.4750574427
-0.0187936642 -0.1394078134 -0.3461422075
-0.0700656325 -0.1081467420 -0.3909551501
-0.0405536725 -0.1609006112 -0.3633167946
-0.0762773910 -0.1080500453 -0.3859443625
-0.0745805079 -0.1359662847 -0.3507124185
0.1211512833 -0.1015946361 -0.4470773835
0.1643534871 -0.0915281885 -0.5006781375
-0.0326012214 -0.1141755191 -0.3562893963
-0.0619404543 -0.1079948733 -0.4453297121
0.1218841031 -0.1101774529 -0.4094980663
-0.0374711496 -0.1047402930 -0.4296289097
-0.0467658562 -0.1045214797 -0.4362211919
-0.1299237950 -0.1220100917 -0.3832051720
-0.0899650267 -0.1102798967 -0.4346196892
-0.1224906557 -0.1432002731 -0.3939937851
-0.1186078354 -0.1461324913 -0.3685853877
-0.0186079642 -0.1555934090 -0.3466511721
-0.1098680888 -0.1639504802 -0.3749965027
0.1410498139 -0.0452363351 -0.4833307939
-0.0124029854 -0.0961921676 -0.3748735812
-0.0615398383 -0.1062303779 -0.4070233734
-0.0821175692 -0.1085900601 -0.3990690018
-0.0390306071 -0.1013992229 -0.3770959824
-0.0675913594 -0.1770669271 -0.3848777075
0.1089476675 -0.0967465751 -0.4300667614
0.0420994043 -0.1192781713 -0.4231655835
0.0019469619 -0.0934446579 -0.4397729468
-0.0248315261 -0.1109079489 -0.3576438718
-0.0708553913 -0.1545536102 -0.3608623745
0.1226583342 -0.0811157850 -0.4729822766
-0.0554995074 -0.1058099443 -0.3914536716
-0.0476029732 -0.1282316135 -0.3563109701
-0.0203095452 -0.0974679304 -0.3947371690
-0.0485718085 -0.1195211511 -0.3574879150
-0.0722120979 -0.1313463312 -0.3638419558
0.1180499868 -0.0902152416 -0.4620957990
0.0193399897 -0.1136227943 -0.3910168779
-0.0423401306 -0.1016446002 -0.3819237285
0.1185793780 -0.0995520019 -0.4583691248
-0.0325906709 -0.1034505096 -0.4192193422
0.0090488410 -0.0921584318 -0.4322937819
0.1025038861 -0.0723467604 -0.4126816814
-0.0613163076 -0.1034143867 -0.4270062378
-0.0052710074 -0.1737724226 -0.3648156611
-0.0766872882 -0.1115713242 -0.3696112986
-0.0756212375 -0.1507773523 -0.3601325662
0.0995055390 -0.0873918616 -0.4212904641
-0.0757391155 -0.1757416129 -0.3881075680
-0.1044278997 -0.1244187505 -0.3744841185
0.1098535117 -0.0959729267 -0.4263970691
-0.0973379162 -0.1139508454 -0.4143891508
-0.1191707849 -0.1455062386 -0.4475282275
0.0911023953 -0.0630519741 -0.4097395440
-0.0096833922 -0.1060265149 -0.3567936798
0.0049325662 -0.0973415358 -0.3763141860
0.0004535656 -0.1038024604 -0.3562952088
0.0021850305 -0.1056261655 -0.3595333660
-0.1020812482 -0.1093906596 -0.3918638446
0.0434677534 -0.1246761618 -0.4010852840
-0.0540157388 -0.1189571898 -0.4567088370
-0.0744896323 -0.1313692126 -0.3646177419
-0.0845902321 -0.1095241406 -0.4215694351
0.0005399334 -0.0964117418 -0.3667893856
0.1258337165 -0.0991565605 -0.4363954723
-0.0195321289 -0.1013743436 -0.4435767764
-0.0175803436 -0.1809618392 -0.3752635152
-0.0069453601 -0.1314586106 -0.3460853876
0.1417462724 -0.0407851581 -0.4850506174
-0.1268628407 -0.1412299390 -0.3975662897
0.1305613524 -0.0941027356 -0.4619439442
-0.0620813970 -0.1904420394 -0.3864623264
-0.1416174532 -0.1488233064 -0.3986200353
-0.0649265247 -0.1322000329 -0.3489161194
-0.0244294897 -0.1015596474 -0.4137023231
-0.0241548968 -0.0995970386 -0.3974071517
0.0029511001 -0.1111139634 -0.3542236345
-0.0816377351 -0.1105228723 -0.4287689527
0.0146397689 -0.1127837560 -0.4021529336
-0.0519682443 -0.1024138846 -0.3772095421
0.1223337353 -0.1220927015 -0.4671010553
-0.0147653294 -0.1013333009 -0.4361614613
-0.0746875935 -0.1622027434 -0.3702449349
-0.0923189282 -0.1836598846 -0.3766159260
-0.1251451897 -0.1451083326 -0.3820312585
-0.0726790183 -0.1388185559 -0.3598262916
-0.0092251416 -0.0967818392 -0.3820412334
0.1397396658 -0.0985293899 -0.4131298611
-0.0115630897 -0.0973817855 -0.4000965357
0.1389575199 -0.1144604467 -0.4526775419
0.0278331418 -0.1012414036 -0.4254348217
-0.0072973959 -0.0990639340 -0.4369062327
0.0162132714 -0.1047337331 -0.3692934146
-0.0816483926 -0.1343966387 -0.3616865650
-0.0907134978 -0.1086478444 -0.4541400828
-0.1121454749 -0.1437185696 -0.4442426777
-0.0195501458 -0.0983354329 -0.3993198013
0.1017746363 -0.0805582567 -0.4265114463
0.0010565930 -0.0971187733 -0.4221753760
-0.1266979221 -0.1406393658 -0.4023651236
0.0281756574 -0.1272367339 -0.3591438132
-0.0125160245 -0.1593178958 -0.3730244637
-0.0616612653 -0.1065327834 -0.4045485644
0.0273371312 -0.1298868312 -0.3599689437
-0.0258147069 -0.1295186622 -0.3454203690
-0.0170358854 -0.0968847655 -0.3926476307
-0.0399360798 -0.1020282008 -0.3867388178
-0.1060718131 -0.1072055368 -0.3859966385
-0.0395249812 -0.1020338164 -0.3844467448
-0.0697555627 -0.1157634497 -0.3684160884
0.1051487605 -0.0835364549 -0.4235820268
-0.0763320121 -0.1644359212 -0.3565818186
0.1245829477 -0.0679251634 -0.4480848046
-0.0769923103 -0.1314650053 -0.3627580316
0.0453729472 -0.1283458316 -0.3985581413
-0.0773372434 -0.1115673471 -0.3712149513
-0.0885379577 -0.1246911118 -0.3674184065
-0.0672558416 -0.1068604486 -0.3940919128
0.1190419142 -0.1053617040 -0.4738489005
0.0254155829 -0.1187287239 -0.3589403015
0.0958887319 -0.0807445490 -0.4099299054
-0.0865974977 -0.1070469487 -0.3745785162
0.1535592571 -0.1485221478 -0.4465772691
-0.0322979991 -0.1038295515 -0.4372548070
0.1291593551 -0.1162036451 -0.4608287288
-0.0994349772 -0.1164666312 -0.3738742270
-0.0667363628 -0.1030031074 -0.3936613544
-0.0587964783 -0.1364178744 -0.3458290787
0.1225167794 -0.1169509248 -0.4620236134
0.0378212735 -0.1220298978 -0.4064354629
-0.1189732418 -0.1324283525 -0.4001572031
-0.1456029467 -0.1295463427 -0.3936357614
-0.0370815533 -0.1871180581 -0.3690263495
-0.0789692687 -0.1094884238 -0.4094221041
-0.0473917835 -0.1386916192 -0.3577961072
-0.1238592778 -0.1339713896 -0.4095568557
-0.0727221804 -0.1082745411 -0.4140917002
-0.0219529360 -0.1084686019 -0.3565604011
-0.0720312938 -0.1083211873 -0.4167748835
-0.0322498452 -0.1657231657 -0.3621329345
-0.0825479575 -0.1116304274 -0.4411905460
-0.0571734687 -0.1063644341 -0.3668543192
-0.0623078964 -0.1496615716 -0.3574445338
0.1374164012 -0.1166430952 -0.4273563318
-0.0621028142 -0.1064134884 -0.4015015153
0.0244718371 -0.1196756654 -0.3966367698
-0.0146107729 -0.0980216419 -0.3942281327
-0.0044610262 -0.1486014750 -0.3528011569
0.1222553818 -0.1003843402 -0.4561786558
-0.0794980528 -0.1085233292 -0.3887394923
-0.0358009296 -0.1452204511 -0.3465437572
-0.1101516766 -0.1418156749 -0.4365114767
-0.1008453971 -0.1417096761 -0.3569536802
-0.0230441229 -0.1496087234 -0.3539487142
-0.0251238384 -0.1661959564 -0.3726239743
-0.1228788266 -0.1458145721 -0.4517239073
0.0126217794 -0.1011828527 -0.4096341875
-0.0577393235 -0.1516047325 -0.3604663394
-0.0495607338 -0.1361320080 -0.3568479406
-0.0217825950 -0.1010771049 -0.4011830072
0.1186263246 -0.1086202554 -0.4342914191
0.1130561747 -0.1091962413 -0.4291553512
-0.1238266791 -0.1489722964 -0.4356113201
-0.0478432688 -0.1046898245 -0.4306053629
-0.0196257576 -0.1188428282 -0.3513243846
-0.0667263136 -0.1537364750 -0.3745981321
0.1046495222 -0.0909029886 -0.4455813192
-0.0419472117 -0.1040211892 -0.4448163988
0.0600306893 -0.0070967977 -0.3595981786
-0.0541298931 -0.1316683595 -0.3551687739
-0.0442585546 -0.1020607435 -0.3967791772
-0.0222040367 -0.1015363303 -0.4419424103
-0.0637676322 -0.1489277195 -0.3685436573
-0.0715243228 -0.1070422095 -0.3823465002
-0.0143975635 -0.0993843580 -0.4262559906
-0.0617010963 -0.1746485204 -0.3803004200
-0.0873384865 -0.1083633562 -0.4501143980
-0.0695295170 -0.1060452044 -0.3770213503
0.1412222303 -0.1318785646 -0.4305094564
0.0435005891 -0.1261962755 -0.4348825891
0.0002745008 -0.0982197180 -0.4222099014
0.0057545719 -0.0977712274 -0.4098020196
-0.0169734464 -0.1004862958 -0.4060997848
-0.1198031348 -0.1333145527 -0.3967204592
0.0012200690 -0.1611064491 -0.3558360774
-0.0092030978 -0.1262157275 -0.3474461222
-0.0521162814 -0.1384925491 -0.3555610780
0.0009668262 -0.1573280900 -0.3521296286
-0.0569785202 -0.1061239421 -0.3973427982
-0.0171577950 -0.0966732169 -0.3692704097
-0.0268682728 -0.1113295039 -0.3541171936
0.1644571669 -0.1005935932 -0.5000670589
-0.0445506728 -0.1462518598 -0.3614961803
-0.1117409164 -0.1485337736 -0.3696787787
-0.0065530000 -0.0967532965 -0.3577346139
0.0081463228 -0.1014168138 -0.3597166290
-0.1262626622 -0.1465574357 -0.4323119486
-0.0841706363 -0.1110520381 -0.4341014458
-0.0575124279 -0.1359400006 -0.3576710934
-0.0675009573 -0.1082205432 -0.4502750431
-0.0075676418 -0.1680143525 -0.3626746628
0.0031172498 -0.0993732857 -0.3875011105
0.1271293382 -0.1138382038 -0.4414846179
-0.0546091930 -0.1080176438 -0.4374296401
-0.0069387919 -0.1004635402 -0.4254931246
-0.0667724838 -0.1209077092 -0.3662357894
-0.1088675542 -0.1382257081 -0.4325938460
-0.0827848935 -0.1096183351 -0.4312394428
-0.0920758502 -0.1291771188 -0.3684480683
-0.0018336804 -0.1089674279 -0.3524249986
0.1299622595 -0.1167298453 -0.4397565687
0.1168015646 -0.1220691244 -0.4145804290
-0.0364695072 -0.1017077060 -0.4200022754
-0.0217835361 -0.0963859229 -0.3638198894
-0.0370530494 -0.0994956170 -0.3667626948
-0.0929516025 -0.1127722004 -0.4509669439
-0.0369861608 -0.0993305946 -0.3690062810
-0.0522403669 -0.1638786267 -0.3668198233
0.1090558964 -0.0712539429 -0.4330551072
-0.0314540499 -0.0998675935 -0.3922499443
0.0158416989 -0.0989987754 -0.4093117017
-0.0044289989 -0.0942161976 -0.3796375440
0.0135647021 0.0283848095 -0.3205072778
-0.0212673417 -0.1018066396 -0.4226340969
-0.1092688630 -0.1454768731 -0.4292122076
-0.0892658465 -0.1090879780 -0.3988078286
-0.0642449723 -0.1058810334 -0.3817572070
0.0051859111 -0.0929227603 -0.4349742309
-0.1287819557 -0.1487684453 -0.3948547474
0.1030945336 -0.0775174942 -0.4297161752
-0.0898085802 -0.1290078837 -0.3685255132
-0.0144031123 -0.1137758695 -0.3535894188
-0.0118161062 -0.1484126888 -0.3628532520
-0.0471742834 -0.1540105033 -0.3613259768
0.0223332616 -0.1125285059 -0.3906333539
-0.0348833606 -0.1161165622 -0.3563966827
0.0035201250 -0.0966258672 -0.3739748608
-0.0722551692 -0.1576425993 -0.3726680110
-0.0572218907 -0.1059765107 -0.4020499862
-0.0838320272 -0.1075872302 -0.4575606586
-0.0941860999 -0.1133481503 -0.4483630991
-0.1381766797 -0.1403117209 -0.4084135931
-0.0296317687 -0.1007860141 -0.3829699511
0.1473750626 -0.1034016595 -0.4452059236
-0.0780007954 -0.1475547755 -0.3598884839
0.0199561526 -0.1279397803 -0.3501971817
0.0111193405 -0.1162533112 -0.3509831049
0.0058573729 -0.0940705274 -0.4022779174
0.1422212986 -0.1338509891 -0.4570213905
-0.0593042228 -0.1040348968 -0.3972271268
-0.1061310247 -0.1200177968 -0.4284612834
-0.1050823446 -0.1209647922 -0.3777086425
-0.0043775944 -0.0985744041 -0.4454299537
-0.0274500817 -0.1083081950 -0.3561499272
-0.0569422881 -0.1041223028 -0.3993150032
-0.1095304387 -0.1331571954 -0.4461225455
-0.0243903575 -0.0993276260 -0.3891131970
0.0437651889 -0.1259039901 -0.4080012037
-0.0093865907 -0.1015809886 -0.4418749511
0.1099435206 -0.0927791126 -0.4451971206
0.1196940454 -0.1202934016 -0.4075039039
-0.1052321568 -0.1585399210 -0.3734298348
0.0112265098 -0.1018987706 -0.3618415112
0.0172871861 -0.1098152750 -0.4002846737
-0.0167745112 -0.0970367051 -0.3593541464
-0.0641055399 -0.1858073615 -0.3829676555
0.0377756112 -0.1246624348 -0.4045682414
-0.0253150838 -0.1006283571 -0.3817621272
-0.0167633540 -0.1285953701 -0.3493881734
-0.0695354632 -0.1758658787 -0.3744192980
0.1231372436 -0.1084397712 -0.4229106197
-0.1237534578 -0.1413868113 -0.3941090271
-0.0516155340 -0.1027877674 -0.4524698659
-0.0770850897 -0.1167222270 -0.3697852092
-0.0091943452 -0.0956584092 -0.3666694899
-0.0243868669 -0.1013215639 -0.4364566231
-0.0742890314 -0.1522009115 -0.3743659853
-0.0248713545 -0.1017410998 -0.4350438823
0.1136832036 -0.1099150722 -0.4414880398
-0.0261545596 -0.1506340218 -0.3637091270
0.1318595258 -0.1440153371 -0.4019650045
0.1256696823 -0.0973655966 -0.4556246099
-0.0548227067 -0.1164087950 -0.3644734823
-0.0595444453 -0.1510963819 -0.3666407080
-0.0515634371 -0.1042636607 -0.3653146070
-0.0286393130 -0.1036573039 -0.4220418641
-0.0445103722 -0.1213446264 -0.3566571282
0.0018146064 -0.1163817437 -0.3478996898
-0.0344777959 -0.1029831174 -0.4123529993
0.1040685613 -0.0826041851 -0.4376502743
0.0185904396 -0.1035139281 -0.4374464387
0.0728212662 -0.0223372813 -0.3720633693
-0.0794679476 -0.1621299146 -0.3713674903
-0.1165329026 -0.1288492002 -0.3982359317
0.0381182183 -0.1170810568 -0.4257365964
-0.1000532807 -0.1239333932 -0.4216705023
0.1057720264 -0.0739367140 -0.4184008607
-0.0466509149 -0.1042012863 -0.4093896076
-0.0393515270 -0.1637511274 -0.3628880366
-0.0686826372 -0.1571191944 -0.3720096323
0.0084057621 -0.1042661866 -0.4044820666
0.1092895380 -0.0956585459 -0.4339683035
-0.0693755709 -0.1440751011 -0.3660698852
0.1091954609 -0.0879139903 -0.4207554044
0.0069743124 -0.1022184516 -0.4044285363
-0.0647125292 -0.1083691654 -0.4351308513
-0.1154289441 -0.1208670220 -0.3996283926
0.1509674581 -0.1079458058 -0.4557454011
-0.0093121642 -0.0949448927 -0.4439872448
-0.0408530819 -0.1475490032 -0.3466557708
-0.0498581515 -0.1032106787 -0.3821228290
-0.0018076056 -0.1223325572 -0.3473808723
0.0294302233 0.0233441328 -0.3151709225
-0.0090469665 -0.1552973333 -0.3576559922
-0.0269848962 -0.1333034803 -0.3536991646
0.0365223362 -0.1229783336 -0.3852947920
-0.0251522506 -0.0981603914 -0.3703171973
-0.1222441082 -0.1357435353 -0.4001312056
-0.0445831694 -0.1514213771 -0.3610082388
-0.0117864854 -0.0954433019 -0.3640542857
0.1051317822 -0.0865797897 -0.4150892309
0.1211237296 -0.0991747756 -0.4592906558
-0.0085006105 -0.1615464115 -0.3679321686
-0.1290117258 -0.1327335776 -0.4198239745
0.1195701951 -0.1042143654 -0.4446706224
-0.0125734673 -0.0978510000 -0.3916288481
-0.1207953490 -0.1403178080 -0.4536125703
-0.0068693309 -0.1171412555 -0.3500574572
0.0204966161 -0.1190010911 -0.3517880163
0.0211383053 -0.1204122731 -0.3525286300
0.1083770619 -0.1006882737 -0.4120128104
-0.0933532324 -0.1119010524 -0.4240360260
0.1075926149 -0.0973897877 -0.4470866642
-0.1217978224 -0.1412935635 -0.4195771649
-0.0001899999 -0.0950043155 -0.3948967790
0.0168106974 -0.0905184577 -0.4167786938
-0.0974471942 -0.1095529273 -0.3771685958
0.0157145555 -0.1144327144 -0.3527025583
-0.0969406602 -0.1095451155 -0.3791640304
0.1344842367 -0.1211460929 -0.4357222046
0.1164714675 -0.1030239969 -0.4320728160
-0.0370588144 -0.1487845177 -0.3614432672
-0.1325490821 -0.1457682456 -0.4009529458
-0.1133285752 -0.1340087280 -0.4180055426
0.1503612547 -0.0941933132 -0.4469589060
0.1298392525 -0.1439539564 -0.4836230354
0.1137270210 -0.0759969553 -0.4387572241
-0.0095709848 -0.1066252584 -0.3545787727
-0.0358091140 -0.1751984190 -0.3672349545
-0.0247419179 -0.1570565238 -0.3679427169
0.1189569583 -0.0926621340 -0.4633764056
-0.1139297258 -0.1422592592 -0.3697146182
0.0220069782 -0.1208598025 -0.3918088728
-0.1051238857 -0.1114434034 -0.3915160340
0.0226581734 -0.1264932307 -0.3519414231
0.1768824963 -0.1231311977 -0.5021910014
-0.0222887158 -0.0980316098 -0.3694249880
0.1635804659 -0.0962947479 -0.5010641491
0.0006213141 -0.1048685865 -0.3550310026
-0.0953629687 -0.1129047796 -0.4217746407
-0.0456511353 -0.1556893641 -0.3538919598
-0.0418889774 -0.1163215544 -0.3587879101
-0.0343649316 -0.1372668060 -0.3569850329
-0.0974769366 -0.1096667919 -0.3924675451
-0.0396885538 -0.0998368664 -0.3669003628
-0.0504173807 -0.1604233451 -0.3642000701
0.0026802730 -0.0983535541 -0.4343953803
0.0965661123 -0.0698380717 -0.4268770093
-0.0769917425 -0.1611757330 -0.3812869010
0.0348773827 -0.1214910216 -0.4120248618
-0.1023925435 -0.1207198931 -0.4356732182
0.0211618946 -0.1274717006 -0.3512235743
-0.0521170804 -0.1034505708 -0.3848821155
-0.0345955458 -0.0996634236 -0.3741269781
0.1263103920 -0.1127960448 -0.4186238627
-0.1006005458 -0.1718422328 -0.3714082176
-0.0115357754 -0.1014208969 -0.4291958677
-0.0346224758 -0.1213965531 -0.3537353218
-0.0354190724 -0.1699159894 -0.3668723105
-0.1102542452 -0.1631613872 -0.3727207711
-0.0191093693 -0.0988918129 -0.4019800857
-0.0971548234 -0.1313636745 -0.3687239403
-0.0647459512 -0.1073908530 -0.4271033349
-0.0890790987 -0.1770527217 -0.3670766916
0.0973000228 -0.0877840793 -0.4301552965
-0.0491495854 -0.1062382537 -0.4345347990
-0.0891673603 -0.1827625619 -0.3784794868
-0.0904384361 -0.1818513231 -0.3758499555
0.1542661482 -0.1438049150 -0.4535594504
-0.0560097353 -0.1061846554 -0.4542302526
0.1529149544 -0.1183407403 -0.4564751904
-0.0017310680 -0.0949327871 -0.3967060745
0.0201588322 -0.1083692880 -0.3727182996
-0.0574475024 -0.1586434220 -0.3692529987
0.1228908457 -0.1339972849 -0.4757595382
0.1446038061 -0.1218576555 -0.4596656871
0.1179324842 -0.1156089729 -0.4064226617
-0.1216794571 -0.1359082390 -0.4349427164
-0.0480029583 -0.1430190355 -0.3615150154
0.0042404315 -0.1007923523 -0.3899664317
-0.0592142065 -0.1047647362 -0.3677882251
-0.0943463318 -0.1093661259 -0.3792955930
-0.0347087990 -0.1011636259 -0.3891030831
-0.0920609254 -0.1861346139 -0.3744467784
0.0162182279 -0.1079155134 -0.3939424188
0.1271038113 -0.1223514812 -0.4779141784
-0.0884279589 -0.1448241298 -0.3509179833
-0.0096131732 -0.1136012898 -0.3534711263
-0.0620003021 -0.1081958738 -0.4370950427
-0.1020094249 -0.1343121156 -0.3709779829
-0.0589962516 -0.1044534958 -0.3768200863
0.1236565109 -0.1067164524 -0.4689914979
-0.0271808480 -0.1032199905 -0.4156948825
0.1228352572 -0.1183746026 -0.4701267807
-0.0516887605 -0.1043941379 -0.3955767006
-0.0073094976 -0.0978996735 -0.4028301051
-0.0818024853 -0.1084630122 -0.3741663829
0.0176793612 -0.0938546410 -0.4191879588
-0.1013126848 -0.1090599950 -0.3776952758
-0.0350366654 -0.1037679413 -0.4192296590
-0.0527946177 -0.1067156616 -0.4441060136
-0.0126310409 -0.1694455571 -0.3702960938
0.1074169416 -0.0917494042 -0.4126461136
-0.0396393293 -0.1018389308 -0.4180764451
-0.0149308233 -0.1011426221 -0.4387844792
-0.0015734213 -0.1264333334 -0.3450725336
-0.0348644436 -0.1038733634 -0.3591700977
-0.0345102816 -0.1424347637 -0.3572885172
-0.0048835025 -0.1673344573 -0.3595994340
0.1317512551 -0.1109041603 -0.4476908320
-0.1330308914 -0.1508449200 -0.4000133546
-0.0773267368 -0.1103578250 -0.4191637064
0.1063013612 -0.0729541761 -0.4299601340
-0.0769450678 -0.1097540106 -0.4218715686
-0.0376008935 -0.1030724198 -0.3998928368
0.1229418603 -0.0890690511 -0.4421567470
0.0067169184 -0.0925348057 -0.4374739859
-0.0570917797 -0.1042882989 -0.3714183577
-0.0823441495 -0.1211548969 -0.3715566062
-0.0768059037 -0.1799306117 -0.3776896025
-0.0891864409 -0.1857649744 -0.3745132530
0.0122707526 -0.1025336414 -0.4060665720
-0.0718374472 -0.1082993329 -0.3897444754
-0.1105946259 -0.1393814059 -0.4547917364
-0.0352644942 -0.1022028604 -0.4332617199
0.1260633328 -0.0925919771 -0.4106342361
-0.0544119958 -0.1295865268 -0.3567440989
-0.0466450143 -0.1062609254 -0.4365028189
-0.1121244229 -0.1238304445 -0.4035717459
-0.0190928630 -0.1118587525 -0.3536702903
0.1218487440 -0.0958256279 -0.4527634411
-0.1002671415 -0.1208969885 -0.4327592578
-0.0638569453 -0.1063094331 -0.4344359467
0.1318851439 -0.1263929873 -0.4111822249
-0.0045197859 -0.0972365230 -0.4096032133
-0.0220567455 -0.1418381378 -0.3627243468
-0.0555264880 -0.1610497108 -0.3668227759
0.0206464580 -0.1084788162 -0.4054981144
-0.0119666086 -0.0981753311 -0.3998024611
0.1250118046 -0.0985014850 -0.4690812571
0.1087973454 -0.0814528353 -0.4223497616
0.0098825035 -0.1080778882 -0.3928174436
0.0981693926 -0.0777328033 -0.4333727723
0.0150162502 -0.1035237554 -0.4068846852
0.1053399966 -0.0967172129 -0.4216913868
0.0422916771 -0.1214176366 -0.4159176186
0.0990223159 -0.0749900361 -0.4302258192
-0.0796998847 -0.1195580760 -0.3678016704
-0.0620241946 -0.1286772053 -0.3616584569
-0.0337812767 -0.0999439240 -0.3597138415
-0.0221035988 -0.0996681633 -0.4090182644
0.0112776353 -0.0959542905 -0.4220229903
0.1236889904 -0.0912738821 -0.4474604216
0.1095609764 -0.1084542208 -0.4244490163
-0.0646186117 -0.1062458895 -0.3919653896
-0.0998530690 -0.1234539179 -0.4290872573
-0.1068688867 -0.1287551729 -0.3738425133
-0.0150985058 -0.1040031119 -0.3552823516
-0.1066328920 -0.1288341507 -0.3727069944
-0.0993504758 -0.1165328017 -0.4090074346
-0.0719137185 -0.1081073451 -0.3910600319
-0.0495544936 -0.1270230508 -0.3535977869
-0.0167081241 -0.1596636189 -0.3754855649
0.1276410093 -0.0918659129 -0.4736997640
-0.0181352377 -0.0946072352 -0.4369833979
-0.1159623166 -0.1212956579 -0.3918827698
-0.0052412265 -0.1050736444 -0.3527110242
-0.1042308783 -0.1173897231 -0.4505497413
-0.0043759147 -0.1036131412 -0.3545539498
0.0000982840 -0.0977420820 -0.4128748928
-0.0148310721 -0.1538193002 -0.3648681259
-0.0371712581 -0.0994135365 -0.3716817034
0.1028891110 -0.0729055441 -0.4277150804
-0.0902596462 -0.1734725016 -0.3704041023
-0.0646043455 -0.1066597789 -0.4441851611
-0.1013342340 -0.1113135337 -0.4448794066
-0.0198126032 -0.1013590473 -0.4394840689
-0.0169047584 -0.0994822870 -0.4070401954
-0.0165356441 -0.0985972707 -0.4045710034
-0.0381761998 -0.1437063046 -0.3577889975
-0.0741003318 -0.1193307521 -0.3669069027
0.1324002964 -0.0983433144 -0.4616032711
-0.0145627476 -0.0967481595 -0.3589980196
-0.0070613318 -0.1164057683 -0.3510793642
0.0004341089 -0.0965932045 -0.3796753862
-0.0195086902 -0.1366867217 -0.3549918797
-0.0093457171 -0.0967020366 -0.3766950962
-0.0269515066 -0.0998353693 -0.3998501910
0.1160975511 -0.1012618592 -0.4172036654
-0.0417952931 -0.1056313232 -0.4318397509
-0.0893477314 -0.1112411835 -0.3720431850
-0.0102697101 -0.1232805243 -0.3450960224
-0.0264845257 -0.0976245306 -0.3728188009
-0.0069101486 -0.0962763547 -0.3946026441
-0.0163078232 -0.1709872974 -0.3739339004
0.0304511396 -0.1121178537 -0.4322976283
-0.0234992195 -0.1702248868 -0.3680491675
-0.1179101691 -0.1526042968 -0.3766241968
0.1188354714 -0.0969574608 -0.4376374332
-0.1370588732 -0.1511322309 -0.4028226893
0.0043425555 -0.0971940084 -0.4332045986
-0.0801231404 -0.1566988339 -0.3721081267
0.1664686064 -0.0889111004 -0.4998464266
0.1228492920 -0.1101735764 -0.4682412318
-0.0024017120 -0.0967923749 -0.3991663562
0.1121433245 -0.0989389317 -0.4316885888
-0.0199568423 -0.1696106858 -0.3745348688
0.0467400806 -0.0025858121 -0.3396710977
-0.0431429530 -0.1777417150 -0.3660127553
-0.0016514726 -0.1006003967 -0.4264777914
0.1356056887 -0.1270705011 -0.4499196981
-0.0198929313 -0.1057551880 -0.3563662050
-0.0339814093 -0.0997325009 -0.4514386381
0.0221314511 -0.1213449258 -0.3498583328
-0.0846492996 -0.1071510552 -0.3968109279
0.0166562963 -0.1377373040 -0.3537312448
-0.0174567478 -0.0983833078 -0.3793307572
-0.0224102316 -0.1446945615 -0.3541086346
0.1097446236 -0.1048939909 -0.4468911769
0.0133305355 -0.1165079233 -0.3949550894
-0.0900478707 -0.1080682956 -0.3821808440
-0.0620550224 -0.1067327981 -0.4441984811
-0.0420552706 -0.1364077983 -0.3555777020
-0.1040439808 -0.1090448471 -0.3890904078
-0.0569831681 -0.1193193812 -0.3628849850
-0.1133936023 -0.1414026967 -0.4205834005
0.1140518078 -0.1007761575 -0.4621618961
-0.0218738389 -0.1015142981 -0.4146424878
-0.0970157773 -0.1159003905 -0.4173881836
-0.0139365239 -0.1471554833 -0.3600210696
0.1111098540 -0.0852480669 -0.4185277983
-0.0122183040 -0.1519139752 -0.3572809004
-0.0247049764 -0.1319864082 -0.3527076226
-0.0849202105 -0.1081629681 -0.3947680018
-0.0742028591 -0.1096613852 -0.4316948577
0.0377177622 -0.1236682209 -0.4123977077
-0.0209949765 -0.1450729097 -0.3513216569
-0.0200468851 -0.1033370345 -0.4267573551
0.1131709117 -0.0930376859 -0.4634110528
-0.0339623672 -0.1224415881 -0.3528099122
-0.0371502284 -0.1613980201 -0.3647238412
0.1040178243 -0.0945920936 -0.4251708195
0.0016420895 -0.0961283967 -0.3945398629
0.1098559997 -0.0799474601 -0.4415349333
0.1260400585 -0.1339711695 -0.4754414667
-0.0905118016 -0.1707386727 -0.3754729374
-0.0413188591 -0.0997534309 -0.3647398885
-0.0229545063 -0.1363956317 -0.3504582027
0.1152720116 -0.1253488202 -0.4197934609
-0.0511247996 -0.1022778812 -0.3983261195
-0.0470656511 -0.1340448195 -0.3550700404
0.0174305123 -0.0968352458 -0.4250885585
-0.0998787498 -0.1944403510 -0.3819661254
-0.1043906991 -0.1112199979 -0.3843558623
-0.0745790041 -0.1491340299 -0.3669411468
-0.1065887394 -0.1305038867 -0.4170054284
0.1167178388 -0.1062883500 -0.4539531810
-0.0872400064 -0.1064270252 -0.4536166922
-0.0795281410 -0.1095617041 -0.4437948942
-0.1212768770 -0.1433141996 -0.4246666353
-0.1076863333 -0.1230983575 -0.3801413591
0.1242941551 -0.1070620967 -0.4405981702
0.0468727074 0.0028493118 -0.3396845850
-0.1029615431 -0.1395873388 -0.3547265680
-0.0564294781 -0.1023369468 -0.3883644221
-0.0258204621 -0.1381733965 -0.3492269651
-0.0333145586 -0.0977335358 -0.4325510915
-0.0817746498 -0.1524011639 -0.3735564768
-0.0753100520 -0.1611308858 -0.3638517166
0.0259666815 -0.1061597737 -0.4115288322
0.1080865970 -0.0985364232 -0.4418909717
-0.1095282646 -0.1540771265 -0.3733662256
-0.0193162629 -0.1645093985 -0.3777274638
-0.0994605702 -0.1392344181 -0.3645843175
-0.0345587520 -0.1143363762 -0.3561055400
0.0189534313 -0.1143754258 -0.3948531270
0.1207057936 -0.1138253033 -0.4319324339
-0.0220675170 -0.1481764974 -0.3688672877
-0.0026050639 -0.0955630164 -0.3903411711
0.1253919242 -0.1109739994 -0.4218327740
-0.0821795329 -0.1094640861 -0.3723497954
-0.0616976108 -0.1049132125 -0.3697156022
-0.0976589147 -0.1831454515 -0.3768515651
-0.0444153335 -0.1503189671 -0.3386396824
-0.0199076418 -0.1232744676 -0.3518098245
0.0195701960 -0.1074141115 -0.3714852333
0.0978362980 -0.0808364922 -0.4200206119
-0.0993263827 -0.1240736780 -0.3718936465
-0.0139815709 -0.0949076722 -0.3642007192
-0.1138700049 -0.1260970969 -0.4038646199
-0.0449725298 -0.1054026036 -0.4251677772
0.0278888661 -0.1222022251 -0.3988296370
-0.1059739777 -0.1265674595 -0.4394013248
0.1542501125 -0.1109239753 -0.4469254859
-0.1004773942 -0.1667077725 -0.3699396370
-0.0100072146 -0.1004077672 -0.4160346872
-0.1410567649 -0.1360278911 -0.4050337729
0.1473008558 -0.0923713857 -0.4509909669
-0.0749072697 -0.1069664903 -0.3811745944
-0.0088040782 -0.1389632841 -0.3497550161
0.1271912627 -0.0907529657 -0.4538583189
-0.0846006294 -0.1091422608 -0.4089116995
-0.0507289269 -0.1153802361 -0.4562798318
-0.0300560248 -0.1055524196 -0.4331141456
-0.0520653956 -0.1540645770 -0.3630762337
-0.0770042413 -0.1093747613 -0.4277153703
0.1513026089 -0.1388557065 -0.4551410459
0.1112621004 -0.0777084157 -0.4359946146
-0.0075106060 -0.1390196475 -0.3538247519
0.0211416884 -0.1138708497 -0.3616783774
-0.1099536829 -0.1311833715 -0.3770885635
-0.1400352796 -0.1331838582 -0.4037332794
-0.0023989905 -0.0991898767 -0.3593893295
-0.0068989302 -0.1005308834 -0.4288148322
-0.0968505383 -0.1469441587 -0.3670438292
-0.0802294170 -0.1058235222 -0.4496074079
-0.1095331407 -0.1265527478 -0.3766461560
0.0059906803 -0.0951964950 -0.4251009154
0.0979622983 -0.0814626176 -0.4064622863
0.0182733336 -0.1169606562 -0.3561132048
-0.0246274402 -0.1008147416 -0.4086207132
-0.1183573678 -0.1400722712 -0.3839856684
0.0227384482 -0.1117279424 -0.3723852986
-0.1234298421 -0.1317212831 -0.4077073969
-0.0661866971 -0.1682299972 -0.3794687028
-0.0763371970 -0.1083139393 -0.3920691538
0.1483639294 -0.1053913307 -0.4154739131
0.0029080562 -0.0963530096 -0.4014821638
-0.0429042398 -0.1042154810 -0.4301552371
-0.0094997718 -0.1823871059 -0.3757607110
0.0036818127 -0.0978581160 -0.4012127221
0.1201253788 -0.1092428441 -0.4671404626
0.1221628977 -0.1073654285 -0.4325969555
0.0248230839 -0.1115122261 -0.3798796991
0.0655531840 -0.0148304873 -0.3674004992
0.1047073210 -0.0844268747 -0.4448384570
-0.0774889514 -0.1233612336 -0.3683057874
-0.0335464559 -0.0980199880 -0.4431976597
-0.0359560280 -0.1644298940 -0.3653710069
-0.0469837855 -0.1016617187 -0.3694251346
-0.0396334692 -0.1172030420 -0.3576276015
-0.0850810385 -0.1418717912 -0.3638833859
0.1185498156 -0.0876394885 -0.4588299334
-0.0966602132 -0.1093612906 -0.3752254348
-0.0296208636 -0.1045258621 -0.4314603496
-0.1099504895 -0.1354418207 -0.4439884938
-0.1467366966 -0.1490180270 -0.3978989084
0.1240340925 -0.0980039945 -0.4463444266
-0.0200583384 -0.1597319748 -0.3697835189
-0.0596921716 -0.1607421867 -0.3728175910
-0.0250894533 -0.1465084180 -0.3559124534
-0.1022021130 -0.1439134306 -0.3658897734
0.0165106941 0.0210523099 -0.3235838203
0.0283930453 -0.1163829199 -0.3768464532
-0.0171977485 -0.1593956001 -0.3613807503
-0.1072350150 -0.1289238035 -0.4421970539
0.0160910253 -0.1109598298 -0.3605886784
0.0155917254 -0.1008260716 -0.4077980911
-0.1100705596 -0.1328366025 -0.4299710037
-0.0009912477 -0.1028939560 -0.3584647775
-0.1034685324 -0.1283105832 -0.4320322709
-0.0270787190 -0.1021600251 -0.4393691019
-0.0573259518 -0.1045043355 -0.3943580660
-0.0550266792 -0.1035237369 -0.4270620627
-0.0574593901 -0.1632408053 -0.3653250732
-0.0012686796 -0.0969885538 -0.4193832663
-0.0838905037 -0.1068612375 -0.3885712290
-0.0768012125 -0.1320500050 -0.3648697392
-0.0021906967 -0.0983837864 -0.4123456685
-0.0021388137 -0.0993080688 -0.4352576405
-0.0520857751 -0.1210074504 -0.3611575012
0.0004042426 -0.1188166137 -0.3488947579
-0.0768178478 -0.1444648653 -0.3666085502
-0.0542961065 -0.1018616538 -0.3849333565
-0.0766951924 -0.1538161548 -0.3757826493
-0.0046289697 -0.0966223662 -0.3592327902
-0.0492446673 -0.1020997889 -0.3692094066
0.0260455134 -0.1164291048 -0.3640171018
-0.0444258889 -0.1020765229 -0.3773220079
-0.0179566829 -0.0998077255 -0.4310302651
-0.1020926659 -0.1265950402 -0.3733676473
-0.0418243363 -0.0990601676 -0.3752326959
0.1259360031 -0.1261400560 -0.4746561028
0.1541347672 -0.1262245410 -0.4555160798
-0.0722609289 -0.1169970073 -0.3668453073
-0.1044896541 -0.1267130331 -0.3739837416
0.1224202472 -0.0834649806 -0.4449239108
-0.1159747706 -0.1384656221 -0.4220436037
-0.0747893163 -0.1510996610 -0.3643711874
0.1075451789 -0.1036112247 -0.4336235369
-0.0766797828 -0.1089045600 -0.4101499523
0.1040821124 -0.0877209424 -0.4458049718
-0.0295112281 -0.1021017288 -0.4445307905
-0.0760653611 -0.1074432254 -0.4428123782
0.0205242630 -0.1179957080 -0.3541678281
0.0140451101 -0.0973948257 -0.4371426468
-0.1075331793 -0.1420062663 -0.3704991975
0.1127458291 -0.1069216299 -0.4267943855
-0.0776309519 -0.1102933531 -0.4138581878
0.1108609832 -0.0819775359 -0.4469816663
-0.0501549730 -0.1000043992 -0.3721394777
0.1286548068 -0.1119293525 -0.4568212681
0.0260689170 0.0335835852 -0.3191339762
0.0410499637 0.0188684241 -0.3393278599
0.0012969785 -0.1017955393 -0.3569437116
-0.0295054392 -0.1482921280 -0.3619875042
0.0076914771 -0.0993101799 -0.3615301264
-0.0309384281 -0.0954986572 -0.4427426230
0.1097180577 -0.0950253105 -0.4406390765
0.1034687842 -0.0821245262 -0.4206818659
-0.0018790746 -0.1057846829 -0.3559890389
0.0302397327 0.0279793828 -0.3234074742
-0.0014983320 -0.0972437514 -0.4135300704
-0.0146232719 -0.0966302713 -0.4021810920
-0.0392444040 -0.1140453848 -0.3591737193
0.1117598903 -0.0932902041 -0.4566589721
0.1214060819 -0.0930658126 -0.4551833724
-0.0667123250 -0.1078661620 -0.4161579752
-0.1093859294 -0.1448429878 -0.4267346725
-0.0396595194 -0.1019988739 -0.3991223806
-0.0168457264 -0.1064141001 -0.3562292840
0.1110777679 -0.0822307098 -0.4552730432
-0.0073700816 -0.0956547351 -0.3771977348
-0.0843598117 -0.1838044072 -0.3803494568
0.1115976763 -0.0812713625 -0.4231391512
-0.0312047943 -0.1021365315 -0.4170463417
0.0941736759 -0.0737946638 -0.4224105655
0.1114908725 -0.1036801480 -0.4195406083
0.0013273431 -0.0946076506 -0.4028496045
-0.0441065731 -0.1020722096 -0.3822522899
0.0079409459 -0.1183335869 -0.3505895546
-0.0796519735 -0.1099119381 -0.4119132951
-0.0946813726 -0.1447772642 -0.3657963897
-0.0161104670 -0.1714196817 -0.3529722553
-0.0383347942 -0.1534429736 -0.3618721912
-0.0302321516 -0.1912315050 -0.3729412842
0.0137431883 -0.1074957358 -0.3954449951
-0.1161478556 -0.1294039237 -0.4037126719
-0.1178753824 -0.1320204741 -0.3974079261
0.1126850936 -0.0837795843 -0.4525624371
-0.0219588598 -0.1186610979 -0.3545833298
-0.0389981975 -0.1020576469 -0.4076397437
-0.0914161578 -0.1325151324 -0.3680417538
-0.1223168080 -0.1377718021 -0.4492986950
-0.1149702336 -0.1237695777 -0.3960607276
-0.1002672569 0.0884305828 -0.3107446268
-0.1235914686 -0.1431029863 -0.4121318846
-0.0523744392 -0.1039934060 -0.4018783416
-0.0867855358 -0.1361111635 -0.3684777883
-0.1159488250 -0.1191104281 -0.3978610612
-0.0491395137 -0.1034612262 -0.3866908392
-0.0497163312 -0.1263336665 -0.3586247515
-0.0774748452 -0.1486123796 -0.3667572207
-0.0870951878 -0.1087477745 -0.3944327635
0.0279244256 -0.1189037070 -0.3645174643
0.0287862732 -0.1214221785 -0.3641030182
0.1417318673 -0.1248203774 -0.4504501148
-0.0286732740 -0.1463993240 -0.3537409722
-0.1061269287 -0.1289102687 -0.4361675669
-0.0398396601 -0.1665793531 -0.3651938816
-0.0421717105 -0.1085780201 -0.3615240403
-0.1074349815 -0.1280421278 -0.4329262227
-0.0372704435 -0.1052195493 -0.4315171347
-0.0216292917 -0.1343036409 -0.3549280134
-0.0664418009 -0.1666959963 -0.3823021680
-0.0591272605 -0.1064300218 -0.4396949842
0.1227319341 -0.1301031187 -0.4739812312
-0.0114471880 -0.1262989755 -0.3495177089
-0.0875236446 -0.1106392864 -0.4092812006
-0.0818424906 -0.1097009287 -0.4092442763
0.1116563745 -0.0808165824 -0.4438942959
0.0236351113 0.0242662336 -0.3064696811
-0.0377202385 -0.1571104348 -0.3550804579
0.0147842569 -0.1085544156 -0.4023524420
-0.1358716413 -0.1343192512 -0.4055347796
-0.0462944931 -0.1040544869 -0.4078239380
-0.0443741288 -0.1051229015 -0.4460749328
-0.0244747831 -0.1241641372 -0.3489310103
-0.0919664188 -0.1128055383 -0.4321724636
-0.1176948094 -0.1328225606 -0.3891717020
0.0153952188 -0.1163899300 -0.3520225702
-0.0573132097 -0.1017543242 -0.4475730058
-0.0389254561 -0.1017753489 -0.3889831837
0.1001245839 -0.0875735586 -0.4346929025
-0.0863825230 -0.1608518430 -0.3742949601
-0.0894513000 -0.1618196797 -0.3732778422
0.0141517343 -0.1271155924 -0.3482187390
-0.0981656881 -0.1164591987 -0.4119611010
-0.0286913593 -0.1663704930 -0.3703657404
-0.0797286878 -0.1367398600 -0.3600655397
0.0057382730 -0.0974894182 -0.3648287670
-0.0692986053 -0.1070757757 -0.3950941939
-0.0669680418 -0.1066646457 -0.3838301391
0.0071086388 -0.1116092666 -0.3522875111
-0.0691625916 -0.1073549926 -0.4068785535
-0.0438516895 -0.1485323409 -0.3497262924
0.0009383871 -0.0963194253 -0.4124259472
0.0126563659 -0.0978517840 -0.4074379586
-0.0227290713 -0.1529383316 -0.3655120462
0.0904553237 -0.0672073130 -0.4252687759
0.0225530000 -0.0988692346 -0.4162970890
-0.0158158402 -0.1548490832 -0.3589130600
0.1462954211 -0.1242472674 -0.4481120211
0.0105798967 -0.1234380384 -0.3464905865
-0.0389843204 -0.1243644862 -0.3550130656
0.0084490294 -0.1211853916 -0.3471392335
