-0.0743754886 -0.0947411308 -0.5025824342
-0.0748228000 -0.0903774383 -0.5040734887
0.0089247993 -0.0439733945 -0.4130565791
-0.0731990513 -0.0145170454 -0.4714992824
-0.0244675789 -0.0415240069 -0.3536177940
-0.0571119461 -0.0367092294 -0.3639237019
-0.0937715741 -0.0362137724 -0.4211647965
-0.0737100238 -0.0361660138 -0.3520646306
-0.1119124805 -0.0356597842 -0.3986725214
-0.0169451358 -0.0595161118 -0.3596125214
-0.0707667843 -0.0216303580 -0.4007673860
-0.0539504951 -0.0223956329 -0.4209970328
-0.0770633274 -0.0775419648 -0.4620421545
-0.0978555549 -0.0510152371 -0.4255708407
-0.0962232913 -0.0217387277 -0.4891687151
-0.0440114420 -0.0502055269 -0.5122011488
-0.0337622845 -0.0218032613 -0.3867661286
-0.0695534870 -0.0241830489 -0.4296530336
-0.1141972731 -0.1022057041 -0.4501062836
-0.1082019476 -0.0643815134 -0.4915227760
-0.0916998809 -0.0213893830 -0.4138507284
-0.0444576275 -0.0368785253 -0.3717773855
-0.0240728175 -0.0931193385 -0.3660939757
-0.0953290970 -0.0682282058 -0.4997635988
-0.0742410141 -0.0215948865 -0.3792446508
-0.1014888761 -0.0562027006 -0.4479702417
-0.0223163447 -0.0225521946 -0.3672045867
-0.0575022304 -0.0474492370 -0.3566342029
-0.0994575788 -0.0537699804 -0.3550642264
-0.0440006666 -0.0668024570 -0.3692133874
-0.0744899950 -0.0745062635 -0.3638620674
0.0043263436 -0.0470453651 -0.4411753642
-0.0790136063 -0.0117044337 -0.4803588530
-0.0798272168 -0.0233445680 -0.3673133178
0.0258045066 -0.0491391604 -0.4462779831
-0.0173691685 -0.0417585766 -0.3542842283
-0.0033249815 -0.0556283987 -0.5094406727
-0.0719270247 -0.0573486661 -0.5030215303
-0.0439022431 -0.0246992536 -0.4556421512
-0.1125895922 -0.0571521495 -0.4422464871
-0.1063909172 -0.0358619393 -0.4407547863
-0.0669673360 -0.0166070213 -0.4139907561
-0.0161438474 -0.0470593674 -0.4358648750
-0.0500463395 -0.0197114161 -0.3893084868
-0.0673478199 -0.1176477894 -0.4590982990
-0.0916405448 -0.0487437578 -0.4840296747
-0.1187098142 -0.0650693996 -0.4246504758
-0.0394292537 -0.0153785308 -0.4291843432
-0.0831989119 -0.0223497649 -0.3702128809
-0.1016514909 -0.0397605105 -0.4156104085
-0.0047447489 -0.0763596862 -0.3810678151
-0.1000156765 -0.0592362987 -0.3541881261
-0.1004134221 -0.0156631920 -0.4227448383
-0.0165630495 -0.0198778524 -0.3890844398
-0.1017265828 -0.0244120138 -0.4271347920
-0.1087418923 -0.0853638910 -0.4020935516
-0.0849077229 -0.0201263279 -0.3600495262
-0.0080850468 -0.0858241383 -0.4473112436
-0.1046906689 -0.0309409494 -0.3712101016
-0.1011646235 -0.1160992872 -0.4684388879
-0.1187952560 -0.0660501671 -0.3726969371
-0.0762660283 -0.0116941590 -0.3988642440
-0.0937986889 -0.1101397603 -0.5026164608
-0.0210183306 -0.0231238888 -0.4161749783
-0.0541742290 -0.0187188210 -0.4230320375
-0.0123830754 -0.0944902253 -0.4293923375
-0.0722251884 -0.0912836066 -0.3688088101
-0.1060891302 -0.1008932052 -0.4004729635
-0.0491218007 -0.0549680434 -0.3557689218
-0.1159860561 -0.0587057035 -0.4742406119
-0.0501990807 -0.1157587663 -0.4581569422
-0.0927282305 -0.0450280428 -0.3583637406
-0.0673106164 -0.0208158670 -0.3963906864
-0.1152547648 -0.0595840956 -0.3874136109
-0.0220200814 -0.0594916308 -0.4517931940
-0.0905060919 -0.0169208482 -0.4426814537
-0.0662701540 -0.1181878125 -0.3975841285
0.0045257933 -0.0237281845 -0.4778114131
-0.1147416987 -0.0685535043 -0.4753615250
-0.0692016323 -0.0131627900 -0.4240680100
-0.1214753869 -0.0930625836 -0.4447443704
-0.0950618178 -0.0387822172 -0.5016861993
-0.0655472881 -0.0235307158 -0.5029303436
-0.1076956593 -0.0989520006 -0.3949111538
-0.0757476230 -0.0169483163 -0.4443309653
-0.0772756961 -0.0963217629 -0.3430235966
0.0042436506 -0.0486250249 -0.4084452068
-0.0952368938 -0.0733850599 -0.5049941950
-0.0184635131 -0.0829638087 -0.3831551319
-0.0827723143 -0.0919170092 -0.3407772111
-0.0415641390 -0.0214410474 -0.3767472483
-0.0362505115 -0.1160876505 -0.4340179343
-0.0975055468 -0.0578401657 -0.3815994579
-0.0654432154 -0.1038404791 -0.3555554043
-0.0200572134 -0.0998160885 -0.4166069003
-0.1254711034 -0.0642930814 -0.3726424220
-0.0248563147 -0.0477648671 -0.4033913538
-0.0132677071 -0.0895289670 -0.3920084781
0.0085052995 -0.0860459206 -0.4547600180
-0.0518471450 -0.0191659808 -0.3817199412
0.0011010871 -0.0265403603 -0.4033169738
-0.0090241154 -0.1043962888 -0.4385419683
-0.1006152290 -0.0578646964 -0.4402760503
-0.0451313738 -0.0343530700 -0.3735129541
-0.0154468180 -0.0421991556 -0.4565632175
-0.0328064469 -0.0518313041 -0.3639785926
-0.0167236483 -0.0266169042 -0.3622332597
-0.0248663034 -0.0890574717 -0.5124587805
-0.0762253125 -0.1007309931 -0.5195907874
-0.0364935808 -0.0343100727 -0.4964434733
-0.0863965228 -0.0320756920 -0.3702232540
-0.0703737956 -0.0157062393 -0.4732931087
-0.1211781938 -0.0695714030 -0.4867235112
-0.0869387203 -0.0499816926 -0.3548860601
-0.1285633634 -0.0717487231 -0.3889761318
-0.0220884574 -0.0218024060 -0.3716052473
-0.0633951443 -0.0777451716 -0.3667319908
-0.0829038251 -0.0637831982 -0.4971759127
-0.0201868635 -0.0266505504 -0.4288769698
-0.0453475165 -0.0187286890 -0.4561800328
-0.1227057379 -0.0647935643 -0.4190414013
-0.0063042288 -0.0194354090 -0.4507243657
-0.1070073242 -0.0621048691 -0.4741853438
-0.0378649858 -0.0485350145 -0.5071035808
-0.1301002850 -0.0675438460 -0.3769735423
-0.0118992826 -0.0920513249 -0.4560466378
-0.0743670280 -0.0182302258 -0.3715561156
-0.0428319097 -0.1179101994 -0.3908534811
0.0031780583 -0.0247953018 -0.4597055984
-0.0401666369 -0.0278199958 -0.4911492587
-0.0976663554 -0.0471123257 -0.3797406960
-0.0771860429 -0.0236230543 -0.3745251038
-0.0463272733 -0.0883642079 -0.3670519139
-0.0257503960 -0.0184191722 -0.4066915111
-0.0283360319 -0.0291549672 -0.4261626512
-0.0364307050 -0.0176060028 -0.4060790120
-0.0163771853 -0.0366669685 -0.5030997772
-0.0657489847 -0.0956040775 -0.4939933737
-0.0654939989 -0.0454528309 -0.5206947116
-0.0218852145 -0.0987575304 -0.4619380686
-0.0948591535 -0.0744244735 -0.3965687990
-0.0777026554 -0.0536950701 -0.4115842262
-0.0447922768 -0.0482719842 -0.3534533855
-0.0755728764 -0.0538786937 -0.4091091978
-0.0507730353 -0.0300609930 -0.4987666313
-0.0444028451 -0.0191884638 -0.3839027408
-0.0135236347 -0.0339864904 -0.3600043495
-0.1319317836 -0.0600387627 -0.4343698086
-0.0247884431 -0.0980940379 -0.3695663483
-0.0898261418 -0.0488587978 -0.3480286115
-0.0907043615 -0.0499568127 -0.3660178319
-0.0516533548 -0.0223422271 -0.4195302780
-0.1013295121 -0.0646432227 -0.4032835817
-0.0472683725 -0.1161912922 -0.4597226415
0.0030543806 -0.0787393688 -0.4105908281
-0.1043707177 -0.0559583607 -0.4847060829
-0.1220631699 -0.0615108145 -0.3963492545
-0.0186890595 -0.0205052016 -0.4530009912
-0.0265226719 -0.0367403846 -0.3987958542
-0.0600457803 -0.0215246505 -0.4978948490
-0.0864805673 -0.0673882323 -0.4207035409
-0.0339797404 -0.0684868212 -0.3619658252
-0.0530046104 -0.0115831894 -0.3880322778
-0.0502495244 -0.1145606160 -0.3653623279
-0.0113570056 -0.0192397293 -0.4106323696
-0.0733039832 -0.0986895157 -0.3593999534
-0.0177430221 -0.0930527521 -0.4031650311
-0.0156494050 -0.1111357811 -0.4611514793
-0.1018897932 -0.0628618174 -0.4451482500
-0.0384788613 -0.1300335814 -0.4415902877
-0.0896297518 -0.0527617191 -0.3648970775
-0.0324043380 -0.0959729008 -0.4108255725
-0.0594616357 -0.0963255151 -0.3518664254
-0.1336315368 -0.0620162761 -0.3711291367
-0.0815956650 -0.0218778137 -0.4134420255
-0.0998550446 -0.0578475393 -0.4128963587
-0.0500149511 -0.0241070200 -0.4532850874
-0.0218005360 -0.0355315687 -0.4683927769
-0.0205957142 -0.0880036705 -0.4049635216
-0.0655026054 -0.0187014010 -0.4301595789
-0.0447686147 -0.1155145230 -0.4355691647
-0.1060203123 -0.0888459699 -0.3584879208
-0.0069227984 -0.0191799337 -0.4694242174
0.0023784016 -0.0448774198 -0.3736588370
-0.0309462187 -0.0300308276 -0.4638772222
-0.0474000130 -0.0472526508 -0.3590735871
-0.0331910996 -0.0396966443 -0.5008267938
-0.0439220965 -0.0211467541 -0.4155049936
-0.0058542424 -0.0966145277 -0.4389563910
0.0036959533 -0.0271235575 -0.4545517598
-0.0243717186 -0.0397393936 -0.4127597986
-0.0007080188 -0.0211276719 -0.4428711523
-0.1118274495 -0.0534176372 -0.4046037096
-0.0751696069 -0.0091041386 -0.3684811832
-0.1297860580 -0.0437186426 -0.3699013174
-0.1203837765 -0.0875382371 -0.4217643695
-0.0782755780 -0.0619566012 -0.5020797024
-0.0241535554 -0.1040671486 -0.3773591144
-0.0944707834 -0.0449106194 -0.4748275291
0.0092815468 -0.0723543588 -0.4641335383
-0.1138438754 -0.1046374702 -0.3826140423
-0.0334095783 -0.0159761284 -0.4800110287
0.0000377091 -0.0453384148 -0.3653907923
-0.0137204887 -0.0306954373 -0.3612900211
-0.0507974753 -0.0396704129 -0.5032663510
-0.0335938746 -0.0580037537 -0.3621097760
-0.0728433176 -0.0659060790 -0.4572125898
0.0043581987 -0.0487429009 -0.4010535195
-0.0237382893 -0.0344514854 -0.3871257557
-0.0474849167 -0.0743638856 -0.3733327515
0.0040263952 -0.0493393920 -0.4603332736
-0.0450351439 -0.0717801519 -0.3712384510
-0.0890188936 -0.0525112432 -0.4440274514
-0.0897882388 -0.0323911438 -0.4746934995
-0.0928916174 -0.0759627936 -0.5106479962
-0.0369118360 -0.0195647970 -0.3768774623
-0.1123204953 -0.0970708789 -0.4344315389
-0.1025140988 -0.0516836098 -0.3924888766
-0.0542750890 -0.0192263636 -0.3844100994
-0.0175818851 -0.0987611772 -0.4175929015
-0.0196974247 -0.0929782808 -0.3844239950
-0.0330193823 -0.1211924960 -0.3915841815
-0.0680284330 -0.0236129608 -0.4570413789
-0.0147752718 -0.0300428918 -0.3598521771
0.0070108035 -0.0343947029 -0.4830810366
-0.1033881583 -0.0894014230 -0.4607585802
-0.1066515510 -0.0517486933 -0.4343247431
-0.1055596435 -0.0576971009 -0.4888713729
-0.0489724180 -0.0091410670 -0.3985593905
-0.0048508299 -0.0984506412 -0.4773886691
-0.0754963583 -0.0245082764 -0.4418662148
-0.1177738196 -0.0693390736 -0.4916101942
-0.1184179365 -0.0744184864 -0.4719787863
-0.0939990042 -0.0695015338 -0.3844679299
-0.1063133465 -0.1087548220 -0.4764627946
-0.1035605344 -0.0339120038 -0.3877858243
-0.0968652985 -0.1166762489 -0.4718126069
-0.0128877142 -0.0221518089 -0.4351853879
0.0109134383 -0.0617125954 -0.3991627424
0.0097310657 -0.0584965766 -0.3905825444
-0.0150775373 -0.1021356931 -0.5017304619
-0.0418777217 -0.0882037845 -0.5116698590
-0.1083456894 -0.1070213308 -0.4042922477
0.0239292444 -0.0745136635 -0.4402041617
-0.0505549769 -0.0857644253 -0.4977277310
-0.0793935089 -0.0343329935 -0.3619250939
-0.0178389393 -0.0248637120 -0.4328413249
-0.1205664497 -0.1137696845 -0.3893381968
-0.1065587047 -0.0763252365 -0.4097076780
-0.0271913462 -0.0300692859 -0.4630206523
-0.1219771635 -0.0788122731 -0.3656002028
-0.0652705583 -0.0617488442 -0.4423751614
-0.0364017104 -0.1098565864 -0.3628414301
-0.0850820491 -0.0728478319 -0.5199090357
-0.0385533989 -0.0263935961 -0.4940798982
-0.1002646106 -0.1115298357 -0.4643593264
-0.0660878678 -0.0137267292 -0.4682794757
-0.0877129047 -0.0779297764 -0.4860149334
-0.0649613115 -0.0724918396 -0.4573583439
-0.0962654070 -0.0323886165 -0.4937076405
-0.0425141477 -0.0993339092 -0.3799947815
-0.0829860656 -0.0385633802 -0.4474817591
-0.0245493670 -0.0590904696 -0.3983075194
-0.0944034555 -0.0523970714 -0.4877898091
-0.0510419441 -0.0367713295 -0.4977194449
-0.0771446612 -0.0275750768 -0.3617721570
-0.0818410104 -0.0147415329 -0.3810304721
-0.1087505525 -0.0491354635 -0.4009374879
-0.0356479508 -0.1034893455 -0.4096278005
-0.1497973637 -0.0741323265 -0.4631356891
-0.0129817604 -0.0944201237 -0.4086160127
-0.0600394363 -0.0374286435 -0.5100060426
-0.0993878293 -0.0422234778 -0.3884436399
-0.0600151727 -0.1168119271 -0.4493787408
-0.1000336658 -0.0948560791 -0.4539227732
-0.0878341718 -0.0529195959 -0.4676386964
-0.0252594837 -0.0222015510 -0.4334975603
-0.0227920368 -0.0289574366 -0.3779870669
0.0039713872 -0.0463925248 -0.4931407566
0.0028249808 -0.0331824681 -0.4610848886
-0.0347250166 -0.1207133672 -0.3738918174
-0.1002600179 -0.0593236545 -0.4537470265
-0.0242598348 -0.0194650628 -0.3968028052
-0.1001334819 -0.1172251702 -0.4786721652
-0.0106126153 -0.0191655303 -0.3776657924
-0.1009973021 -0.0187835745 -0.3730331982
-0.0424873590 -0.0941017665 -0.3752128789
-0.0040350502 -0.0562396509 -0.3602597770
-0.0127994309 -0.0906848753 -0.4479953194
-0.0347814374 -0.0241496193 -0.4394996047
-0.0351657678 -0.0422483002 -0.4968813452
-0.1200482874 -0.0687389003 -0.3859952590
0.0016702830 -0.0448047963 -0.4121016306
-0.0093566098 -0.1112770990 -0.4335386695
0.0099461180 -0.0990925986 -0.4264835856
-0.0344078465 -0.0595041003 -0.3567975696
-0.1297789082 -0.0704038189 -0.4313110420
-0.0988777907 -0.0545128948 -0.3711163602
-0.0548509907 -0.1109693209 -0.4061416844
-0.0284990708 -0.0837220414 -0.3614575524
0.0020947529 -0.0303621125 -0.4266744959
0.0074906477 -0.0693329765 -0.4504749143
-0.0568198326 -0.0500813379 -0.3538674196
0.0074122635 -0.0661744001 -0.4433659383
-0.0321623630 -0.0368909772 -0.3592136032
0.0004584243 -0.0867283073 -0.4493522154
-0.0945109843 -0.0620605292 -0.4054397641
-0.1261582995 -0.0641083628 -0.4506594106
-0.0021129633 -0.0582054373 -0.3658342413
-0.0371703147 -0.0664189630 -0.3637765850
-0.0922731931 -0.0518076613 -0.3595234760
-0.0448066084 -0.1189604606 -0.4761937767
-0.0037904376 -0.0978179459 -0.4719913197
0.0039479355 -0.0386289089 -0.4735165455
-0.0050307938 -0.0743664770 -0.3744610466
-0.0592148076 -0.0769150864 -0.3702343547
0.0085663426 -0.0871166740 -0.4385875886
-0.1241528982 -0.0612405398 -0.3740637576
-0.0587332543 -0.0622535797 -0.3588627404
-0.1061423817 -0.1201304928 -0.4849140437
-0.0935765652 -0.0618369785 -0.4612193859
-0.1014198512 -0.0494158659 -0.4012341946
-0.0163665287 -0.0873445454 -0.3964539521
-0.0792061041 -0.0586982146 -0.3582120836
-0.0471982220 -0.0466051770 -0.5088887237
-0.0022345652 -0.0963003379 -0.4795621479
0.0061530500 -0.0722797936 -0.4380809181
-0.1019502487 -0.0404618430 -0.4413316361
-0.0667636354 -0.0867890724 -0.3723577276
-0.1016719891 -0.1089099536 -0.4711206434
-0.0836255073 -0.0151492950 -0.3940553626
-0.0828626878 -0.0106688406 -0.4008561016
-0.1107969871 -0.0321732265 -0.4928247053
-0.0721451822 -0.0621796199 -0.3582486261
-0.0252255614 -0.1008347770 -0.3615917746
-0.0933781049 -0.1184587370 -0.4071237082
-0.1281511493 -0.0593477411 -0.3818814268
-0.0653973094 -0.1167973448 -0.4757125481
-0.1117372287 -0.0959512096 -0.4152926378
-0.0292791586 -0.1278645844 -0.4578675853
-0.0721027617 -0.0489965370 -0.3524497525
-0.1099832429 -0.0889259216 -0.4737566732
-0.0332250102 -0.1163707597 -0.4689486772
-0.0627161468 -0.0285114199 -0.5031816049
-0.0225816872 -0.0511358015 -0.4369440536
-0.0981582502 -0.1101606097 -0.3842690650
-0.0191612452 -0.0347092394 -0.3571099056
-0.0660586455 -0.0164168849 -0.4081979583
-0.0225127139 -0.0338214753 -0.4309407724
-0.1065992570 -0.0670884935 -0.4171747529
-0.1141244552 -0.0931015781 -0.4748373735
-0.0278995226 -0.0202473314 -0.4480571642
-0.0046436622 -0.0220992605 -0.4574861057
-0.0965991699 -0.0129184896 -0.3751675540
-0.0354623722 -0.0906166967 -0.3682502291
-0.0788206342 -0.0368685895 -0.3596924820
0.0020962197 -0.0229418751 -0.4224620008
-0.0753299311 -0.0881146034 -0.3697450804
0.0039903695 -0.0493470488 -0.4669395271
-0.0260269581 -0.0409694858 -0.5050263759
-0.0750456965 -0.1163085220 -0.4785967543
-0.0220282374 -0.0385696431 -0.3556436493
-0.0930959716 -0.0250771342 -0.3619404608
-0.0692484840 -0.0976127667 -0.4960529935
0.0007617145 -0.0269704878 -0.4484744959
-0.0069335724 -0.0234595280 -0.3764572641
-0.0896587459 -0.0965216199 -0.3587940367
0.0016044217 -0.0480836244 -0.3671375859
-0.0371403593 -0.0565884498 -0.3549770437
-0.0623656572 -0.0733175382 -0.3964637493
-0.0938959413 -0.0751660391 -0.4863326669
-0.0863489370 -0.0531554535 -0.4739885925
-0.0420874907 -0.0476695841 -0.3595318298
-0.1098603650 -0.0417153715 -0.3865745402
-0.0688588191 -0.0585068296 -0.4950117697
-0.0963214072 -0.0305705804 -0.3943632259
-0.1230356970 -0.0728285995 -0.4267261612
-0.1011391405 -0.0504377254 -0.3899256119
-0.0437996008 -0.1194409323 -0.3852335085
-0.0849113763 -0.0635734527 -0.3561372452
0.0054327803 -0.0517650733 -0.4087471043
-0.1176249921 -0.0552557292 -0.4288100546
-0.1121006378 -0.0694838776 -0.4742282509
0.0076275390 -0.0616731537 -0.4862056716
-0.0813056003 -0.0541763783 -0.4427662834
-0.1141602925 -0.1158148805 -0.4403799340
-0.1013079921 -0.0605035857 -0.4159543058
-0.0511285176 -0.1044913593 -0.3554045724
-0.0052818119 -0.0183748851 -0.3938545642
0.0000333534 -0.0243814494 -0.3784080753
-0.0308719894 -0.1187011316 -0.4577544249
-0.1188557647 -0.0621269491 -0.4484507749
-0.0089639304 -0.0205364338 -0.4496333152
-0.0572626409 -0.0180330928 -0.4235628196
-0.0911979899 -0.0222236942 -0.4127111137
0.0087696705 -0.0720623852 -0.4705929472
-0.1049346817 -0.1161645652 -0.4688314947
-0.0773358261 -0.0345366771 -0.4671385673
-0.1046494861 -0.0638062671 -0.5014476485
-0.0203300448 -0.0949043436 -0.3629736408
-0.0209863908 -0.0915347640 -0.3941497337
-0.1077045309 -0.0459549385 -0.3706620307
-0.0096325920 -0.0265952975 -0.3686756000
-0.0017361675 -0.0773074442 -0.3875577122
0.0017796024 -0.0356378971 -0.4631474032
-0.1092188041 -0.0558901025 -0.4167114076
-0.0669861599 -0.0700167661 -0.3622966081
-0.0574804508 -0.0184459519 -0.4415840123
-0.0462070458 -0.0233596784 -0.4299372162
-0.0929518245 -0.0597964616 -0.4878681575
-0.0983954461 -0.1130856861 -0.3765495241
-0.0204711027 -0.1071314258 -0.4127779734
-0.0317224524 -0.0630999251 -0.3537500694
-0.0740737441 -0.0225168354 -0.4188025320
-0.1270731022 -0.0907246622 -0.4362636213
-0.0474086034 -0.0486215326 -0.3673114809
-0.0070737232 -0.0201272061 -0.3925309777
-0.0811515453 -0.0184961377 -0.3768274480
-0.0096876193 -0.0847388806 -0.4636373781
-0.0393658624 -0.0463608861 -0.3591833229
-0.0166765142 -0.1152959526 -0.4628602809
-0.0453135977 -0.1099921416 -0.4901588208
-0.1329448001 -0.0644068373 -0.3930026119
-0.1191343857 -0.1065040245 -0.4194981169
-0.0334296543 -0.0829663716 -0.3666645660
-0.1138215352 -0.1092357823 -0.3753360462
-0.0215236682 -0.0215322290 -0.4250206223
-0.0794818127 -0.0236697733 -0.3768450177
-0.0918618588 -0.0469220098 -0.3618318314
-0.0696509989 -0.0997010263 -0.3726856713
-0.0486625752 -0.0204773072 -0.4100955353
-0.0939420922 -0.0359978039 -0.4602378720
-0.0554939386 -0.0187756638 -0.3600996890
-0.0578353533 -0.0883927487 -0.4966008570
-0.0121969709 -0.0448472707 -0.3544890425
0.0032747309 -0.0401672131 -0.4415849187
-0.1183109311 -0.0841390693 -0.3943763621
-0.0383815788 -0.0774276545 -0.3654902743
-0.0095127282 -0.0191979090 -0.4019523017
-0.0247677114 -0.0228194464 -0.3689401222
-0.0152672901 -0.0204460421 -0.3945399249
-0.0760121942 -0.0454194785 -0.4639681289
-0.0540727861 -0.0535521805 -0.3553722799
-0.0594433598 -0.0213786952 -0.4059772933
-0.0998456499 -0.0477280612 -0.4296032067
-0.0609123747 -0.0381977612 -0.3543793382
-0.0897485898 -0.0446720747 -0.3613557204
-0.0223084495 -0.0285983975 -0.4145923866
-0.1204975877 -0.0627618560 -0.3789902189
-0.0092792479 -0.0195561990 -0.3802894835
-0.0956196630 -0.0449843695 -0.4825094484
-0.0789220222 -0.1129883456 -0.3720663605
0.0088077226 -0.0676519324 -0.4666855328
-0.0731271902 -0.0508931217 -0.4007827901
-0.0588942073 -0.0723544979 -0.3665867907
-0.1217026220 -0.0891615788 -0.4361471834
-0.0849239275 -0.0459825606 -0.4469718320
-0.0043075509 -0.0804472221 -0.4078616849
-0.0751744786 -0.0140851606 -0.4846808939
-0.1045870726 -0.0864716163 -0.4092467334
-0.0949031228 -0.0605952546 -0.4914301468
-0.1183434356 -0.0682951178 -0.4775734000
-0.0396388062 -0.0218162860 -0.4170744977
-0.0017628802 -0.0734771318 -0.3785628958
-0.0319148832 -0.0219018710 -0.4223135558
-0.0996333013 -0.0656132417 -0.4063407724
-0.0796869949 -0.1066144564 -0.3585644073
-0.0946905065 -0.0297143644 -0.4519026677
-0.0365825447 -0.0987977787 -0.3747892522
0.0065361337 -0.0424994722 -0.4441536501
-0.0485833194 -0.0812373436 -0.3771580174
-0.0603935507 -0.0118797007 -0.3601403495
0.0033622815 -0.0297906843 -0.4559333551
-0.0265706948 -0.1034182283 -0.3770636555
-0.0681000260 -0.0176018265 -0.4860166397
-0.1045302970 -0.0623002672 -0.3884052597
-0.0942241121 -0.0329111152 -0.4373252334
-0.0328480504 -0.0199600444 -0.4022531317
-0.0847602491 -0.0150698503 -0.4415574528
-0.0171297230 -0.1180485003 -0.4761916674
-0.0249193260 -0.0320966654 -0.3841240515
-0.0858892936 -0.0613365789 -0.4958810785
-0.0945625044 -0.0380717289 -0.3515611210
-0.0218817715 -0.0241491648 -0.3641274452
-0.0189926952 -0.0960037888 -0.4630953983
0.0056953152 -0.0517558875 -0.4538231897
-0.0590473063 -0.0168688005 -0.4800068336
-0.0569601070 -0.0320399254 -0.3671360379
-0.0428402336 -0.1407472512 -0.4535029955
-0.0591573767 -0.0841507677 -0.3761803851
-0.0700759590 -0.0220265330 -0.3998450432
-0.0867744726 -0.0538975138 -0.4546457017
-0.0759153044 -0.0925131593 -0.5149666177
-0.0888714298 -0.0761468544 -0.4784136958
-0.1079015662 -0.0880389625 -0.4526442538
-0.0866771839 -0.0338825190 -0.4909818988
-0.1049804759 -0.1158467218 -0.4720112705
-0.0860599059 -0.0430105892 -0.5012916587
-0.0243707158 -0.0227570527 -0.3874132740
0.0072227683 -0.0466367027 -0.4620643206
-0.1028925305 -0.0185827149 -0.3919150907
-0.0964137254 -0.0365972983 -0.3831308758
-0.0143403655 -0.0447967188 -0.3525955008
-0.0793964979 -0.0370262077 -0.3611324061
-0.0094056647 -0.0194796794 -0.4594971670
-0.1184410411 -0.0626559241 -0.4595549306
-0.0804114909 -0.0971555342 -0.5091957636
-0.0209259961 -0.0594994218 -0.4687368873
-0.0162026957 -0.0202695653 -0.3761013448
-0.0670518459 -0.0575896560 -0.3580844197
-0.0364303586 -0.1299364699 -0.4224935350
-0.1035807486 -0.0974154850 -0.3967333769
-0.0917798169 -0.0070233166 -0.3781900877
-0.0826701677 -0.0461262122 -0.4417666749
-0.0596526389 -0.0266402147 -0.3717030916
0.0056124107 -0.0551803760 -0.3772166823
-0.0545632031 -0.0190214171 -0.4333319784
-0.0966519640 -0.0610140144 -0.4135895583
-0.0068977776 -0.0798496384 -0.4234055142
-0.0770212730 -0.1160741821 -0.4759893323
-0.0877634433 -0.0683335738 -0.3925778338
-0.0141671694 -0.0924435648 -0.4678699077
-0.1274621924 -0.0504923257 -0.3697390271
-0.0063075005 -0.0923175334 -0.4424696922
-0.0809349932 -0.0425402626 -0.3482899918
0.0093375366 -0.0721995567 -0.4561853666
0.0093988395 -0.0754542470 -0.4675455364
-0.0875658915 -0.1091753592 -0.3777740592
-0.1045275785 -0.1136576347 -0.3754529938
-0.0293363290 -0.0241896723 -0.4329900264
-0.0019407284 -0.0786511711 -0.4059043908
-0.0976004826 -0.1008604210 -0.4095787990
-0.0704215799 -0.0174839974 -0.4165045805
-0.0776504007 -0.0497189204 -0.4117154196
-0.0525706442 -0.0917852532 -0.4990501103
-0.0819009179 -0.1174406392 -0.4808307661
-0.0708901177 -0.1177253772 -0.3798915383
-0.0608270033 -0.0174722573 -0.3571025513
-0.0706104247 -0.0916796516 -0.3521524754
-0.0788305320 -0.0393717609 -0.3589378678
-0.1173581498 -0.0457459824 -0.3925091867
-0.0417821172 -0.1167994844 -0.4081430923
-0.0393011467 -0.1159647238 -0.4865558425
-0.0387053168 -0.0157438546 -0.4008495258
-0.0703500998 -0.0730485353 -0.5208671734
-0.0821570398 -0.0492116731 -0.3525604366
-0.0277604407 -0.0970050970 -0.4591853067
-0.0404073397 -0.0412178919 -0.3549150573
-0.0997483819 -0.0341521576 -0.3987735981
-0.0458795482 -0.1129623268 -0.4852152643
-0.1149606801 -0.0747091458 -0.4036786504
-0.0385953043 -0.1235444581 -0.4678459864
-0.0050233880 -0.0199903037 -0.4232263403
-0.0796252467 -0.0208340037 -0.4007322657
0.0166489401 -0.0835583294 -0.4514198636
-0.0190980563 -0.0329534143 -0.4393884124
-0.0345131002 -0.0491182466 -0.3536836641
-0.0227413419 -0.0563962958 -0.3472410437
-0.0815097851 -0.0294461417 -0.5051082512
-0.0844391765 -0.0247595722 -0.3782147904
-0.0946253066 -0.0295782001 -0.3739611504
-0.0399506574 -0.0239782633 -0.4344245824
-0.0360316261 -0.0257860165 -0.3847117169
-0.1069764024 -0.0617187565 -0.4680521535
0.0038241079 -0.0441916365 -0.4008642398
0.0051807219 -0.0516931845 -0.3975566298
-0.0914335400 -0.0231994055 -0.3852415085
-0.0965444572 -0.0445834173 -0.3792536050
-0.0744427838 -0.0752392058 -0.5234567832
-0.0002333473 -0.0579416558 -0.3600023490
-0.0422535434 -0.1014108391 -0.5123505451
-0.0241985280 -0.0330719281 -0.3787747388
-0.0847883026 -0.0543811530 -0.4930275442
-0.0728149959 -0.0156447925 -0.4467003950
-0.0938061549 -0.1116526496 -0.3737785420
-0.1084628552 -0.1066279927 -0.3704081392
0.0109128224 -0.0735441266 -0.3939388774
-0.0118213402 -0.1003522985 -0.4383541463
-0.0419089676 -0.1072828337 -0.4889701261
-0.0002190699 -0.0429898276 -0.3675339388
-0.0377072113 -0.0369900257 -0.3643631216
-0.1091590193 -0.0488899674 -0.3830007898
-0.0951479695 -0.0384295717 -0.4770851134
-0.1186434861 -0.0920449402 -0.3932892901
-0.1138514017 -0.0500353827 -0.4303102140
-0.0916635780 -0.0667568952 -0.3915455811
-0.0857523127 -0.0085314715 -0.3851582221
-0.0791127583 -0.0222382291 -0.4638632432
-0.1024987044 -0.1088234983 -0.4306254118
-0.0819497261 -0.0577354213 -0.3417823651
-0.0195459600 -0.1010005236 -0.4276298680
-0.1048754503 -0.0514050914 -0.4664439845
-0.0047644295 -0.0439395836 -0.3611885635
-0.0643188460 -0.0215369462 -0.3813536731
-0.1267306661 -0.0580794337 -0.4547671003
-0.0244663240 -0.0370570109 -0.4422107290
-0.1234729668 -0.0949330327 -0.4757253885
-0.0039184140 -0.0318874383 -0.4965485859
-0.0226511927 -0.0216904213 -0.4321081622
-0.1121505329 -0.0518470739 -0.3704413992
-0.0763886918 -0.0297844558 -0.5118503595
0.0026455435 -0.0331533176 -0.4847198808
-0.1263665653 -0.0580105575 -0.3939798122
-0.0724082495 -0.0150505388 -0.3740178758
-0.1093711245 -0.0741596008 -0.4918674194
-0.0953842165 -0.0177163616 -0.4497853460
-0.0989112814 -0.0332167231 -0.4012753979
-0.1140747116 -0.1075572261 -0.4683945651
-0.1154986684 -0.0636337983 -0.3947262644
-0.0400005732 -0.0187278741 -0.4458245638
-0.0665537411 -0.1158759862 -0.4703591257
-0.0687025133 -0.0924840265 -0.3430513917
-0.0507803668 -0.0935922156 -0.3699748153
-0.0317111105 -0.1159742191 -0.3723175372
-0.1060486450 -0.0330348451 -0.3818168782
-0.0425286866 -0.0295937948 -0.4998067631
0.0101900211 -0.0726704975 -0.4807780153
0.0028143752 -0.0367270401 -0.4498723408
-0.0946626148 -0.1033476025 -0.5006680395
-0.0453036496 -0.0465085276 -0.5001384490
-0.0929395763 -0.0591055183 -0.4552142924
-0.0656379901 -0.0838361398 -0.3701765709
-0.1011215638 -0.0324866634 -0.4344807489
-0.0306241588 -0.0295689313 -0.4401638374
-0.1022189480 -0.0361009619 -0.4239407695
-0.0610851187 -0.0171054693 -0.4434592909
-0.0772216806 -0.0630192804 -0.4087489097
-0.1156229974 -0.0821045483 -0.4673126847
-0.1260704193 -0.0623852153 -0.4172306655
-0.0819207872 -0.0203077110 -0.4546916317
0.0043672405 -0.0712955630 -0.4219154069
0.0103869036 -0.0725879595 -0.4838819185
-0.0522325754 -0.1252077828 -0.3833611386
-0.0221937979 -0.0407414236 -0.4443571184
0.0069967362 -0.0697478588 -0.3853761438
-0.0812939240 -0.0448565322 -0.4680202305
-0.0640590052 -0.0697704883 -0.3631380115
-0.0118923531 -0.1005484622 -0.4208798530
-0.0439447620 -0.0436739849 -0.5116274181
-0.1054158728 -0.1077895026 -0.4318051696
-0.0425580870 -0.0172343339 -0.4516493279
0.0090407263 -0.0820008712 -0.4231620577
-0.1054800580 -0.0404285992 -0.3725472772
-0.0920999102 -0.0674446084 -0.4550436263
-0.0103982290 -0.0188007589 -0.4783961176
-0.0444629063 -0.0757792243 -0.3744089843
0.0027369933 -0.0346096332 -0.4316305890
-0.0008843098 -0.0484655154 -0.3620225094
-0.1016446563 -0.0941941044 -0.4043422525
-0.0938517416 -0.0249261663 -0.4696389066
-0.0762894774 -0.0135087683 -0.4808628131
-0.0370791393 -0.1115908395 -0.4942528861
-0.0743493293 -0.0290167176 -0.3639498605
-0.0378819179 -0.0980431202 -0.5058933972
-0.0237148021 -0.1241930789 -0.4418866641
-0.0607047083 -0.0587199094 -0.4609592997
-0.0185332214 -0.1100227416 -0.4272702540
-0.0713437464 -0.0424515274 -0.5104611034
-0.0749812539 -0.0618351311 -0.5015830005
-0.0192879627 -0.0272304724 -0.3593669842
-0.0529887287 -0.0718805813 -0.3937150144
-0.0606084165 -0.0242863306 -0.3997497534
-0.0163630469 -0.0409963103 -0.4659484424
-0.0604801624 -0.1151411613 -0.4383254764
-0.0018180649 -0.0196625711 -0.4817757337
-0.0267814354 -0.0236629832 -0.3689442259
-0.0055369357 -0.0926655781 -0.4907490976
0.0062570271 -0.0618604132 -0.4125772648
-0.0624781920 -0.0979028053 -0.4954486084
-0.0394336240 -0.0225842909 -0.4242719946
-0.0189553350 -0.0238859300 -0.3685303479
-0.0189306052 -0.0985743974 -0.3775540549
-0.0259225601 -0.0324999757 -0.3565201002
-0.0798444395 -0.0244692451 -0.4558668616
-0.1022569954 -0.0289976000 -0.3981780877
-0.0082185565 -0.0874856514 -0.4364864893
-0.0481473955 -0.0794173896 -0.3698750065
-0.0739126382 -0.0168640187 -0.4342597145
-0.0774168400 -0.0952303958 -0.3604209384
-0.1185125381 -0.0853580443 -0.4583586994
-0.0018195602 -0.0878436643 -0.4232833269
-0.0732784836 -0.0439050058 -0.4612053646
-0.0490965134 -0.0236703067 -0.4505290329
-0.1018040015 -0.0728592873 -0.3475597085
-0.1012546399 -0.0679456394 -0.4496551796
-0.0362968054 -0.1172604896 -0.4373979077
-0.0390292657 -0.0371379547 -0.3666878100
-0.0218675738 -0.0858353215 -0.5112199792
-0.0642619470 -0.1060205204 -0.3832947910
0.0094517979 -0.0743689981 -0.4471582684
-0.0166954680 -0.1057002295 -0.3939138039
-0.0322846595 -0.1209941107 -0.4083097705
-0.0589749862 -0.0161621615 -0.3975020998
-0.0387567331 -0.0750014958 -0.3704846053
-0.1068964381 -0.1071050270 -0.3741599942
-0.1269359448 -0.0600197787 -0.3681018815
0.0006286832 -0.0192326273 -0.3964329105
-0.0532621082 -0.0213077552 -0.4353626858
-0.0265477289 -0.0199361162 -0.4519575999
-0.0580117727 -0.0589195808 -0.4016242273
-0.1161339354 -0.0656659897 -0.4091637239
-0.0547448255 -0.0719366335 -0.3711365301
-0.0320840279 -0.0136590600 -0.4148505045
-0.0966979894 -0.1173984006 -0.4171407075
-0.1304357965 -0.0678582191 -0.4236807272
-0.0927022230 -0.0475944046 -0.5007455425
-0.0783650823 -0.0942884225 -0.3633629363
0.0001410260 -0.0352067297 -0.4953838387
-0.1001786456 -0.0394557514 -0.3647518224
-0.0711896472 -0.0854429828 -0.3694734400
-0.1030036176 -0.0954831472 -0.3533866657
-0.0353881906 -0.0266040486 -0.4902927707
-0.0931651667 -0.0364178158 -0.3786147237
-0.0812771999 -0.1168640480 -0.4128638845
-0.0898952707 -0.0877594230 -0.3492270785
-0.0059442888 -0.0816720356 -0.4710171924
-0.0863012558 -0.0939126536 -0.3389498594
-0.0595419910 -0.0784503655 -0.3709390006
-0.0457377864 -0.1161571183 -0.4772880114
0.0116346014 -0.0613963298 -0.4085538048
-0.0262740186 -0.0340978414 -0.3997678232
-0.0211179186 -0.0194139834 -0.4049081270
-0.0973995253 -0.0317191854 -0.3786332309
-0.0436145877 -0.0140678251 -0.4433842079
-0.1230978631 -0.0968721821 -0.4498366327
0.0046369904 -0.0296134564 -0.4706732792
0.0019435363 -0.0466379244 -0.4073231262
-0.0738117491 -0.0444539378 -0.5166305199
-0.0114010647 -0.0938623255 -0.4345380368
-0.0428423913 -0.1302810367 -0.4442976865
-0.1168613770 -0.0500635546 -0.4542827188
-0.0004767552 -0.0289380608 -0.3775464744
-0.0478812715 -0.0101696062 -0.4233112465
-0.0635821223 -0.0231287275 -0.4243664742
-0.0377935737 -0.0187916698 -0.4517628124
-0.0869173978 -0.0527670527 -0.4910938107
-0.0795466515 -0.0268866379 -0.3665811041
-0.0089809743 -0.0951363820 -0.4470696557
-0.0735568209 -0.0262302401 -0.3810520888
-0.0772401863 -0.1207988542 -0.4022792825
-0.0909199958 -0.0759367992 -0.4873415488
-0.1172251753 -0.1194283323 -0.3915355354
-0.0959566960 -0.0206021678 -0.4741845338
-0.0644897464 -0.0751097030 -0.3657680568
-0.0533830643 -0.0545451404 -0.5189710000
-0.0901000802 -0.0521149152 -0.3572588081
-0.0191613280 -0.0312405422 -0.3593475474
0.0081661660 -0.0750556719 -0.4637615925
-0.0194199745 -0.0436158489 -0.4584194016
-0.0943392397 -0.0509447385 -0.4802806755
0.0172183619 -0.0785650218 -0.4428464828
-0.1045927510 -0.0405163021 -0.3883380785
-0.0474530466 -0.0942582083 -0.3767299965
-0.0903981185 -0.1180761482 -0.4180915985
-0.0842085489 -0.0469582871 -0.3547734141
-0.0450585466 -0.0458831507 -0.5066292357
-0.1010626174 -0.0359365864 -0.4336282854
-0.1176753683 -0.0858135518 -0.4914130900
-0.0700852267 -0.0508558946 -0.4074694179
-0.0485665671 -0.1155682995 -0.4514982084
-0.0545417141 -0.0487372672 -0.3566186112
-0.0571776021 -0.1116351084 -0.3587882814
-0.0344446474 -0.0226271037 -0.4242605947
-0.1077709915 -0.0675053345 -0.4200874258
-0.0371407112 -0.0216925428 -0.3763361797
-0.0027282449 -0.0928792111 -0.4331771452
-0.1050257213 -0.0622595435 -0.4823000294
-0.0608482232 -0.1167521388 -0.4540156725
-0.0155256936 -0.0530902011 -0.4491316481
-0.0715839013 -0.1198099384 -0.3842317523
-0.0218110302 -0.0332063221 -0.4653543243
-0.1117910463 -0.0648702208 -0.4276110313
-0.0597578048 -0.0348456324 -0.3619278351
-0.0761459673 -0.0407691736 -0.3461815765
-0.0997919352 -0.0525144406 -0.4926642009
-0.0426250293 -0.1204438363 -0.4033934241
0.0088318413 -0.0853588413 -0.4163512509
-0.1068680915 -0.0541627816 -0.4295961150
-0.1018398545 -0.0430710917 -0.4222124328
-0.0483555990 -0.0966684377 -0.4975048887
-0.0735318472 -0.1172222535 -0.4474941977
-0.0188173495 -0.0262970057 -0.3633507457
-0.0656181892 -0.0995456009 -0.3486517283
-0.0435969525 -0.0452561088 -0.5089828058
-0.0114656767 -0.0913316522 -0.4970842897
-0.0247753539 -0.1191792630 -0.4318290799
-0.0750928538 -0.0183924308 -0.4960417548
-0.0365957582 -0.0783250570 -0.3612709642
0.0080987189 -0.0639713144 -0.4810508177
-0.0189450180 -0.0280274964 -0.4262391261
0.0062114026 -0.0668071680 -0.4125685853
0.0043278537 -0.0447739538 -0.4507432678
-0.0695102520 -0.0964881839 -0.3595000469
-0.0542642300 -0.0699018862 -0.3708559908
-0.0037793646 -0.0940223456 -0.4819107021
0.0149668632 -0.0513784348 -0.4241110459
-0.0190985618 -0.0230518597 -0.4165577123
-0.0223280886 -0.1094310563 -0.5083565660
-0.0860381414 -0.0249192858 -0.4807523478
-0.0786404879 -0.0181613297 -0.3684722319
-0.1238288932 -0.0916401930 -0.3706009106
0.0008637508 -0.0266765604 -0.4118180941
-0.0746624118 -0.1192025529 -0.3883816421
-0.0260810895 -0.0952202867 -0.3954328186
-0.0373065415 -0.1211926237 -0.4420782600
-0.0514513059 -0.1161749146 -0.4663102877
-0.0945115956 -0.0917560681 -0.5080676596
-0.0395321740 -0.0533616970 -0.3522680955
-0.0923447868 -0.0900087313 -0.5091680046
-0.0849400032 -0.1001188285 -0.5068054143
-0.0589741508 -0.1208209145 -0.4689798157
-0.0683830782 -0.0970014792 -0.3503409197
-0.0585773324 -0.0233328349 -0.4355845691
-0.0862836844 -0.0079548957 -0.4784242660
-0.1120363639 -0.1044176298 -0.3591785967
-0.0138459876 -0.0874731220 -0.4054278455
-0.1005292633 -0.0483609692 -0.4211509593
-0.1145185590 -0.1110975276 -0.4397105470
-0.0012462482 -0.0818766926 -0.3908574699
0.0010304480 -0.0349074963 -0.4073817488
-0.0237152911 -0.0426078494 -0.3933452665
-0.0201722904 -0.0990327709 -0.4402937954
-0.1281058696 -0.0831661182 -0.3780646570
-0.0900557009 -0.0418461546 -0.3644024731
-0.0970369316 -0.0398535095 -0.3844313168
-0.1070316196 -0.0416356051 -0.3698478334
-0.0252453592 -0.0321941112 -0.4530702726
-0.0717617018 -0.0626580502 -0.4084249795
-0.1049183560 -0.0545907405 -0.4500891736
-0.0911961484 -0.0733210435 -0.4343346836
-0.0121308413 -0.0966237513 -0.4156769292
-0.0619850655 -0.0994225096 -0.3769162538
-0.0841942990 -0.0538570228 -0.4613704016
-0.0717281962 -0.0596546014 -0.5073378853
-0.0793633019 -0.0530914025 -0.4676675215
-0.1173894320 -0.0962942156 -0.4148733348
-0.0070274789 -0.0622397530 -0.3631046152
-0.1017268657 -0.1039203919 -0.4099200336
-0.0651637756 -0.0737229330 -0.4024610249
-0.0826653644 -0.0109659418 -0.4520054967
-0.0299976408 -0.0212442738 -0.4428160894
-0.0855876878 -0.0228579845 -0.4234338105
0.0111996927 -0.0818306713 -0.3947531059
-0.1205802083 -0.0438390424 -0.4315113584
-0.0778881639 -0.0152053275 -0.4678558238
-0.0893596088 -0.0270484624 -0.3767931255
-0.0856010986 -0.0324527298 -0.4670691131
-0.0102094308 -0.0813722571 -0.4718973204
-0.0792636089 -0.0419502994 -0.3585664332
-0.0795386246 -0.0199834341 -0.4471725606
-0.1248712641 -0.0675424927 -0.4181481884
-0.0595321022 -0.0233491510 -0.4408510923
-0.1144549298 -0.0453126674 -0.3795555760
-0.0241730139 -0.0639957751 -0.3550642950
0.0023959749 -0.0324460603 -0.3834399374
-0.0160952300 -0.0599347569 -0.3551467864
-0.0126011606 -0.0227175742 -0.4379365200
-0.0531071105 -0.0219223159 -0.4271140224
-0.1094788754 -0.1056971544 -0.4110050773
-0.0108683638 -0.0806134128 -0.4043659029
-0.0292998310 -0.0196804928 -0.3766234204
-0.0047215438 -0.0216970590 -0.4386188020
-0.0913973554 -0.0596464368 -0.3642954684
-0.1000627274 -0.1034504417 -0.3660404976
-0.0953796036 -0.0250553712 -0.4894909908
-0.1264607257 -0.0727171021 -0.3843704467
-0.0364617126 -0.0197798542 -0.3992975812
-0.0734777910 -0.0707820629 -0.3973910488
-0.0788808302 -0.0096217532 -0.4172501297
-0.0925278503 -0.0574885117 -0.4624137841
-0.0646743130 -0.0566220565 -0.4470538589
-0.0503607715 -0.0853433383 -0.3735012563
-0.0476949350 -0.0223849803 -0.3724692472
-0.1204496444 -0.1112693561 -0.4019677710
-0.1124469296 -0.0699305874 -0.4468109854
-0.0575070463 -0.0601772478 -0.4482749922
-0.1176552355 -0.0621935705 -0.4838771107
-0.0068131341 -0.0864916087 -0.4672262449
-0.0873042065 -0.0479693250 -0.4921166681
0.0043856443 -0.0811369181 -0.4070087225
-0.0904450768 -0.0905503683 -0.3521629889
-0.0465458187 -0.0101585059 -0.4547741542
-0.0884701637 -0.0364847331 -0.4604297098
-0.1037567218 -0.1072561435 -0.4019458534
-0.0597258348 -0.0122144035 -0.4738465908
-0.0864850228 -0.0412289258 -0.3538208713
-0.0301727992 -0.0415336518 -0.4971093717
0.0044157233 -0.0404902453 -0.3866986715
-0.0249193950 -0.0995315614 -0.3660873401
-0.0867512203 -0.0313520542 -0.4063400737
-0.0335875297 -0.0168221797 -0.4151604648
-0.0796422304 -0.0441866674 -0.3543776788
-0.1232442644 -0.0697973453 -0.4319720309
-0.0975942336 -0.1102778243 -0.4780409005
-0.0176198602 -0.1148226061 -0.4527852801
-0.0956953435 -0.0226331134 -0.4777008234
-0.0197591020 -0.1013292158 -0.4234594053
0.0153260678 -0.0812838893 -0.4328166448
-0.0963289623 -0.0604476178 -0.5002890495
-0.0277851238 -0.1016846641 -0.4160952732
-0.0910823953 -0.0337661475 -0.4802907632
-0.0247444245 -0.0996355519 -0.4963294852
-0.0621690093 -0.0249328649 -0.3639129896
-0.0921941820 -0.0078400009 -0.3745697127
-0.0316590975 -0.0327040040 -0.3469997145
-0.1059626947 -0.1037137223 -0.4565037139
-0.0713999093 -0.0667233895 -0.3597304224
-0.0387641290 -0.0347712134 -0.4909445521
-0.0763115579 -0.0953425852 -0.5082556457
-0.0184947881 -0.0877803447 -0.4111511922
0.0265040360 -0.0558058261 -0.4542984831
0.0035743285 -0.0349630889 -0.4709552242
0.0064847737 -0.0869624763 -0.4225541698
-0.0394148250 -0.0617943669 -0.3622227195
-0.0403805298 -0.0117749646 -0.4414963333
-0.0643880852 -0.0471579081 -0.3545720346
-0.0948979857 -0.0339445863 -0.3792830400
-0.0641625735 -0.0205770931 -0.4952264288
-0.0875436960 -0.0529774495 -0.3527014680
-0.0228915355 -0.0221678678 -0.4462276355
0.0011439682 -0.0447821930 -0.3678540629
-0.0569063151 -0.0191676089 -0.3787248364
-0.1163436452 -0.0809744270 -0.4467744746
-0.0890625978 -0.1030512295 -0.3634380766
-0.1273918062 -0.0621997938 -0.3841253101
-0.0651657479 -0.0355188716 -0.3515593149
-0.0228510242 -0.1012345930 -0.3774115618
-0.0266204160 -0.0355954841 -0.3553451598
-0.0921543086 -0.0181882987 -0.4932648029
-0.0654939387 -0.1210020819 -0.4622796514
-0.0994915106 -0.1059608242 -0.4946459090
-0.0330646889 -0.1003974044 -0.3757553563
-0.0896732413 -0.0439135253 -0.3508265424
-0.0162551939 -0.0198316596 -0.3788612119
-0.1208801120 -0.0990702897 -0.3628635129
-0.1117764943 -0.1104217405 -0.4492896063
0.0069112036 -0.0835378238 -0.4325790546
-0.0805221738 -0.0589057170 -0.4166501405
-0.1172179480 -0.1172055818 -0.4300210470
-0.0984002652 -0.0491559931 -0.4717359396
-0.0457119662 -0.0734534352 -0.3670154788
-0.0941555347 -0.0590777904 -0.4331284590
-0.0977068913 -0.0411499219 -0.4288649381
-0.0772215128 -0.0594260246 -0.3590265810
-0.0633024387 -0.0962216228 -0.3459495916
-0.0919251394 -0.0320583063 -0.3767299958
-0.0218507775 -0.0232952700 -0.3666499802
-0.1140073468 -0.0924120861 -0.4718264928
-0.0440387339 -0.0219279182 -0.4524334845
-0.0680430728 -0.0071478022 -0.3802910728
-0.0163233729 -0.1076663976 -0.4834966590
-0.0234043751 -0.0460006876 -0.4813599932
-0.0947970929 -0.0419725114 -0.3752330306
-0.0411357451 -0.0132857544 -0.3914101352
-0.1143528115 -0.0622801582 -0.5000841399
-0.0841254848 -0.0196483192 -0.4966263055
-0.0018090368 -0.0793383509 -0.4717579563
-0.1206430953 -0.0570529443 -0.3756385961
-0.0295381684 -0.1197256370 -0.4791805721
-0.1007229756 -0.0254609583 -0.3788285172
-0.0277514582 -0.0443757652 -0.3688522979
-0.1245549414 -0.0594678321 -0.4632405844
-0.0316725738 -0.0259088274 -0.4529453185
-0.0864155504 -0.1149585425 -0.4076032871
0.0057572821 -0.0548856505 -0.4190619684
-0.0515894899 -0.0179180822 -0.5002071339
-0.1030228420 -0.0611642493 -0.4118657499
-0.0737889801 -0.0632590637 -0.5040535596
-0.1114482605 -0.0567333197 -0.3791924127
-0.1090804323 -0.1166623018 -0.4399581364
-0.1076146595 -0.0888502636 -0.4481017447
-0.0962248136 -0.0449102999 -0.3768283611
-0.0398555222 -0.1362970070 -0.4190992390
-0.0542610425 -0.0140363383 -0.4353376046
-0.0986743828 -0.1122115152 -0.4370457483
-0.0738735664 -0.0097585073 -0.3920825080
-0.0439056450 -0.0919616499 -0.3766833231
-0.0399966582 -0.1247222660 -0.3860471378
-0.0828045531 -0.0341060599 -0.3642477708
0.0026399600 -0.0721977853 -0.3844246401
-0.0334616174 -0.0276593877 -0.3735644668
-0.0492329989 -0.0445884096 -0.3666529623
0.0006990451 -0.0244376897 -0.4318179244
-0.0371246477 -0.0222645521 -0.4194896319
-0.0442572124 -0.0963656400 -0.3500241889
-0.0989513262 -0.0515128876 -0.3717465938
-0.1013101087 -0.0519436453 -0.3837652277
-0.1098357926 -0.0452527277 -0.3908888809
-0.1031392184 -0.1167135075 -0.4580912053
-0.0978564687 -0.0426589478 -0.4734214749
-0.1037405784 -0.1167692457 -0.3833571933
-0.0911933916 -0.0302099961 -0.4861024879
0.0001173943 -0.0223873310 -0.4312610018
-0.0775036382 -0.0083448502 -0.3798808573
-0.0352836816 -0.0249832066 -0.4496474854
-0.0335165828 -0.0179358656 -0.4061034624
-0.0108362012 -0.0929322475 -0.4248466426
-0.0744894650 -0.0388344158 -0.5092449776
-0.0738795610 -0.0094508337 -0.4436946945
-0.0388595016 -0.1233072234 -0.4307942244
-0.0765117527 -0.0525240496 -0.3450288842
-0.0608438561 -0.0241360742 -0.4387601072
0.0038379458 -0.0703725606 -0.3958458917
-0.1190353536 -0.0854734295 -0.4809134407
-0.0239662139 -0.0222529341 -0.4630198686
-0.0637829602 -0.0192528137 -0.3794337710
-0.0824249852 -0.0932127542 -0.3531949043
-0.0276386222 -0.0161678318 -0.4391877669
-0.0521814050 -0.0313507742 -0.3738327571
-0.0476391445 -0.1208419771 -0.3770919960
-0.0316403871 -0.0164030151 -0.4010841217
-0.1093164592 -0.0598243870 -0.3972248111
-0.0938095957 -0.1113859070 -0.4465675081
-0.0903210028 -0.0224892773 -0.4296740574
0.0070705539 -0.0701968039 -0.3977161119
-0.0168550562 -0.0208638262 -0.3739148539
-0.0944669390 -0.0638182046 -0.5035189286
-0.0344946857 -0.0645233583 -0.3556708217
-0.0178384043 -0.0225199840 -0.4291383685
-0.0918788234 -0.0802628007 -0.5147571333
-0.0008795956 -0.0610582350 -0.3671462715
-0.1094624785 -0.0651607300 -0.4537326923
-0.0967101530 -0.0491931538 -0.3688468893
-0.0931577265 -0.0805389540 -0.5111797571
-0.0234611607 -0.0225954685 -0.4892465575
-0.0538812074 -0.0120598309 -0.3736850027
-0.1113395999 -0.0724062647 -0.4982940575
0.0047959990 -0.0566613613 -0.3890583819
-0.0526136962 -0.0769388253 -0.3706997006
-0.1165648383 -0.0866253071 -0.4656646300
-0.0359133089 -0.0451813746 -0.5018186537
0.0069635825 -0.0646045701 -0.4226578122
-0.0345554308 -0.1204065119 -0.4472300639
-0.1155440077 -0.1099383531 -0.4243689991
-0.1254256908 -0.0533761731 -0.3738103218
-0.0991729150 -0.0353805067 -0.3837187818
0.0026871955 -0.0225025648 -0.3914060382
-0.0841012662 -0.0445720035 -0.3570649344
-0.0286202067 -0.0284931513 -0.4769355682
-0.0341572687 -0.0185703849 -0.3840561509
-0.0212284650 -0.1108549420 -0.4851863215
-0.1177710233 -0.0534597197 -0.3776757357
-0.0924372565 -0.1185242046 -0.4106752928
-0.1075857867 -0.0936185871 -0.4154440690
-0.0782457755 -0.0887422326 -0.3580536659
-0.1037915144 -0.0544733828 -0.3921489123
-0.0467966713 -0.0648342286 -0.3684509747
-0.1211844740 -0.0692620760 -0.3631033042
-0.1041833164 -0.0976619382 -0.4635409241
-0.0703951699 -0.0840644548 -0.3681798962
-0.0048587664 -0.0769315085 -0.4013114361
-0.0998867979 -0.0946174530 -0.4490743823
-0.0051946703 -0.0794082181 -0.4003514627
-0.0832800663 -0.1129884483 -0.3794003501
-0.0377789634 -0.1189275239 -0.4033010443
-0.0825109261 -0.0593986545 -0.5155000707
-0.0252752770 -0.0535580218 -0.3553105593
-0.0262456979 -0.1072439515 -0.3812349016
-0.0122643803 -0.0242241348 -0.3668374768
-0.0737507504 -0.0829702365 -0.5107768785
-0.0450320535 -0.1201409977 -0.4287726234
-0.0028547162 -0.0586104749 -0.5104623205
-0.0645797106 -0.0077342610 -0.3813276616
-0.0615621898 -0.0233711815 -0.4413558990
-0.0172925961 -0.0218495541 -0.3713656174
0.0032228413 -0.0479838759 -0.4223247617
-0.0522299950 -0.0773975524 -0.3763076475
-0.1138786172 -0.0680128526 -0.4891863951
0.0017906930 -0.0818214971 -0.4433896506
-0.0329776291 -0.0450990620 -0.3557609285
-0.0969629692 -0.0405437069 -0.3541185863
-0.0739927463 -0.0554244079 -0.5156240268
0.0037858538 -0.0405383573 -0.4312330348
-0.0097474265 -0.0829756765 -0.3968170403
-0.0759520040 -0.0594921696 -0.3927521640
-0.0173567768 -0.0392086949 -0.5075917188
-0.0997252348 -0.0378768400 -0.4692831240
-0.0537622313 -0.0896759592 -0.3807064059
-0.1162455356 -0.0839279103 -0.4457843648
-0.0640835560 -0.0191640471 -0.3995186350
-0.1001003595 -0.0982641562 -0.4043483945
-0.0943994335 -0.0617745193 -0.4351861749
-0.0492069671 -0.0665472563 -0.3637372061
-0.0558551019 -0.0776326191 -0.3736679981
-0.0745176838 -0.0593065799 -0.3574302690
-0.1037185741 -0.1096760522 -0.4787348367
-0.0249797042 -0.0177062973 -0.3894365533
-0.0004569601 -0.0347437457 -0.3928062761
0.0023969432 -0.0398267384 -0.4353943921
0.0010941851 -0.0380284504 -0.4705769209
0.0038155193 -0.0317505647 -0.4938125851
-0.0951233175 -0.0734884122 -0.3866085202
-0.0524059330 -0.0350999473 -0.3700242156
-0.0182582242 -0.0932688552 -0.4205196397
-0.0549075539 -0.0634569935 -0.4481163268
0.0032945432 -0.0305641583 -0.4904369309
-0.0334938254 -0.0918224217 -0.5068723235
0.0016187333 -0.0808034113 -0.4612208251
-0.0936546549 -0.0371895734 -0.4642453863
-0.0343889557 -0.0306249383 -0.3679961125
0.0089052853 -0.0530534206 -0.4490081395
-0.0334474910 -0.0556385375 -0.3560117814
-0.1063557748 -0.0947516112 -0.4914547070
-0.1023686609 -0.0170414037 -0.4207488876
0.0023497990 -0.0397448914 -0.4641064922
-0.0674951492 -0.0836227707 -0.3703743599
-0.0213081238 -0.1204396097 -0.4522645044
-0.0458422393 -0.0484471279 -0.4974817686
-0.0820190770 -0.0739980650 -0.4472700419
-0.0800639357 -0.0386850348 -0.4627092919
-0.1154325868 -0.1012984769 -0.3659765387
-0.0360810330 -0.0958616364 -0.3523700135
-0.0446645351 -0.1143645469 -0.4890099637
-0.0502035364 -0.0212121631 -0.4293499580
-0.0513528841 -0.0208358554 -0.3794589842
-0.1024125294 -0.1125815047 -0.4521751271
0.0042041553 -0.0465837646 -0.4160288586
0.0108270367 -0.0598625871 -0.4016601100
-0.0190748107 -0.0466904826 -0.3530136943
-0.0524846619 -0.0837917091 -0.3729872477
-0.0876170905 -0.0510716495 -0.4634060932
-0.1197675781 -0.0750384370 -0.3693370004
-0.0468588381 -0.0392828183 -0.3717468746
0.0033791367 -0.0544249427 -0.4336110776
-0.0846571438 -0.0259191953 -0.3766707182
-0.1136648827 -0.0595683564 -0.4809585830
-0.0656079290 -0.0631791453 -0.3978471604
-0.0234750137 -0.0231081340 -0.4348273277
-0.0545303786 -0.1185202392 -0.3993986154
-0.0030663681 -0.0278993431 -0.3754284347
-0.1069854570 -0.0880462661 -0.3487120291
-0.1169704170 -0.0569804207 -0.3894261778
0.0032121215 -0.0371630994 -0.3811027985
-0.0203141414 -0.0514712230 -0.4304132277
0.0079971493 -0.0747959597 -0.4294884224
-0.0049676539 -0.0891096593 -0.3830625691
-0.0351311467 -0.0184014811 -0.3855743964
-0.0665752071 -0.0978447836 -0.3723512086
0.0155574546 -0.0386909467 -0.5366055884
-0.0745554131 -0.0515933699 -0.4969649384
-0.0621933643 -0.0497724890 -0.3545542874
-0.1001669173 -0.0591504617 -0.3766224258
-0.0857834578 -0.0643405494 -0.3613454300
-0.0422074038 -0.0493015385 -0.5044851758
0.0083977501 -0.0663680377 -0.4765883474
