0.0002970435 -0.0650117596 -0.5501097441
-0.0194852277 -0.0526222943 -0.5570131007
-0.0047125604 -0.0528665554 -0.5543635095
-0.0025809247 -0.0529531469 -0.5542868370
0.0052568167 -0.0526663886 -0.5505504290
0.0107299055 -0.0587154530 -0.5500839642
-0.0420386388 -0.1083557746 -0.5501771512
-0.0242392423 -0.0582823875 -0.5567089910
-0.0390338572 -0.0506388417 -0.5618261717
-0.0044022042 -0.0628692085 -0.5525310884
-0.0369347148 -0.0499580552 -0.5612455229
-0.0055653123 -0.0973166334 -0.5461101864
-0.0344354520 -0.0500998212 -0.5618059682
-0.0346876207 -0.0506714067 -0.5597218054
-0.0445071546 -0.0735172704 -0.5600402157
0.0354674255 -0.0680224912 -0.5396686373
0.0006713054 -0.0629104720 -0.5519405536
0.0048679293 -0.0619918219 -0.5515750445
0.0375191318 -0.0751025717 -0.5385969573
-0.0048143365 -0.0588652343 -0.5506047606
-0.0416893003 -0.1057015378 -0.5524762861
-0.0025708789 -0.1246004701 -0.5392648578
0.0481529066 -0.0954051307 -0.5323899571
0.0031890155 -0.0533654775 -0.5505957840
-0.0346511568 -0.0579292126 -0.5574185689
-0.0288464049 -0.0492532837 -0.5551305015
-0.0371848568 -0.0774752609 -0.5565902591
0.0335345598 -0.0734457722 -0.5382896106
-0.0268857865 -0.0503695575 -0.5570904998
-0.0142091820 -0.0900187194 -0.5512961745
0.0509870034 -0.0826218426 -0.5369020998
-0.0097385252 -0.0556702651 -0.5523447952
-0.0479895314 -0.0580482659 -0.5626845114
-0.0208502813 -0.1210886720 -0.5433714357
-0.0234423443 -0.0517739623 -0.5590867424
0.0285726748 -0.0527641103 -0.5440300405
-0.0169239646 -0.0530312673 -0.5567982058
-0.0122237978 -0.1259752659 -0.5408293794
0.0482506193 -0.0773853958 -0.5390991569
-0.0469055045 -0.0709706247 -0.5618218184
-0.0145544208 -0.0731402519 -0.5523025088
-0.0413045095 -0.0732532037 -0.5559058502
0.0006089632 -0.0535370247 -0.5519868760
0.0053534086 -0.0529488706 -0.5518103007
-0.0093996493 -0.0536573534 -0.5531287651
0.0080858725 -0.0553794176 -0.5515314724
0.0109700988 -0.0558294915 -0.5513838803
-0.0166508028 -0.0687108044 -0.5541825977
-0.0368156780 -0.1056152790 -0.5500560137
0.0346481755 -0.0705131020 -0.5383993712
-0.0418816361 -0.0511600209 -0.5623263508
-0.0366924555 -0.0513978600 -0.5607431250
0.0084392167 -0.0726777375 -0.5504297263
0.0633356768 -0.1033921682 -0.5340408179
-0.0445101672 -0.0706233076 -0.5576102923
0.0500958335 -0.0914582450 -0.5305714398
-0.0194968806 -0.0630685136 -0.5549714957
-0.0119678306 -0.0983349203 -0.5440660304
-0.0291852680 -0.0509402478 -0.5555490217
-0.0289688325 -0.0570340154 -0.5586758625
-0.0187952199 -0.1274713826 -0.5430791564
0.0125802131 -0.1077164970 -0.5394535363
0.0603323542 -0.1080375165 -0.5322448611
-0.0277364391 -0.0512354357 -0.5556101309
-0.0270200064 -0.0530632030 -0.5574499085
-0.0320841619 -0.0667775181 -0.5522692755
-0.0248113214 -0.0528791208 -0.5572629675
-0.0394335428 -0.0604109532 -0.5568916977
-0.0435313746 -0.0604103336 -0.5581586527
-0.0246200394 -0.0727215484 -0.5548967719
-0.0099241259 -0.0551135056 -0.5560881197
-0.0145022376 -0.0554666203 -0.5552265942
-0.0496896628 -0.0704312084 -0.5606572994
-0.0236722002 -0.0531367695 -0.5585650326
-0.0094385658 -0.0582989183 -0.5508120617
0.0456704706 -0.1004989687 -0.5319463487
0.0385399786 -0.0729259021 -0.5380131700
-0.0214774241 -0.0535663653 -0.5586232486
-0.0178167400 -0.0542703276 -0.5586957006
-0.0094318434 -0.0678762868 -0.5518022843
0.0014853032 -0.0523586608 -0.5509474277
0.0580335091 -0.0979797616 -0.5323877822
0.0103637513 -0.1138624041 -0.5377897850
-0.0418458097 -0.0807124674 -0.5584770441
-0.0389973857 -0.1153529435 -0.5464931130
-0.0096922254 -0.0629404784 -0.5525934302
-0.0316210000 -0.1076458975 -0.5471059238
-0.0139209644 -0.0552098488 -0.5565152517
-0.0115813298 -0.0656900593 -0.5531120550
0.0601121299 -0.0988202244 -0.5377153456
-0.0118044743 -0.0552792803 -0.5553754141
-0.0411334877 -0.0880564655 -0.5531359692
-0.0073160158 -0.0553940221 -0.5546806911
0.0141563760 -0.0807505623 -0.5437035561
-0.0043870030 -0.0549040634 -0.5540084370
-0.0023412936 -0.0652940392 -0.5529724894
-0.0267621223 -0.1285308450 -0.5426329374
-0.0451997352 -0.0606002044 -0.5594601770
-0.0368344337 -0.1273887157 -0.5474932790
-0.0029372084 -0.0551541934 -0.5539807842
-0.0016916252 -0.0557870776 -0.5531285786
-0.0021607327 -0.1280262664 -0.5374849807
-0.0325566458 -0.0688763404 -0.5535168476
-0.0523106192 -0.0831053935 -0.5677443329
-0.0499887291 -0.0774907253 -0.5639227494
0.0004993950 -0.0554168080 -0.5521916240
0.0029420656 -0.0550599910 -0.5510162379
0.0028277696 -0.0624549698 -0.5521799800
0.0409612461 -0.0953252843 -0.5317424007
-0.0447213971 -0.0530389052 -0.5623040037
-0.0256863744 -0.1295287179 -0.5436696981
0.0153924944 -0.0733265802 -0.5447145104
-0.0117603652 -0.1029586393 -0.5445166321
0.0055402287 -0.0558369585 -0.5507534900
-0.0063884568 -0.1254443895 -0.5377441783
0.0026062095 -0.0801381102 -0.5474987324
0.0082327174 -0.1235385537 -0.5364279747
0.0055320538 -0.0557177752 -0.5515187609
-0.0518407771 -0.0723988520 -0.5622011660
-0.0268126749 -0.1182156396 -0.5467621220
0.0172733795 -0.0522615574 -0.5464571118
0.0458920933 -0.0877195100 -0.5353779594
-0.0143889312 -0.0598254847 -0.5544403213
-0.0141363332 -0.0981626845 -0.5453631149
0.0130225767 -0.0566524349 -0.5505357194
-0.0392574583 -0.0579753527 -0.5571860153
-0.0270552049 -0.0679199777 -0.5545788883
-0.0318825251 -0.1106177866 -0.5502048930
-0.0474541195 -0.0535588685 -0.5670266331
-0.0269053017 -0.0932300009 -0.5501270076
0.0407184962 -0.0979540253 -0.5320706710
-0.0034493341 -0.0957902111 -0.5428161025
0.0027980331 -0.0705951025 -0.5517560723
-0.0456606049 -0.0532225941 -0.5652895583
-0.0318043454 -0.1087736592 -0.5444664256
-0.0120265426 -0.0904784586 -0.5497624701
-0.0224651269 -0.1007302682 -0.5496633260
-0.0345085193 -0.0706765893 -0.5546887873
-0.0169631166 -0.0779959112 -0.5522355954
-0.0421168294 -0.0525319992 -0.5617958384
-0.0091073565 -0.1304676756 -0.5377551610
-0.0398388576 -0.0528451150 -0.5614849203
-0.0520104054 -0.0610129947 -0.5650920268
-0.0372170696 -0.0534020860 -0.5593619389
-0.0342865475 -0.0672024935 -0.5583708882
-0.0358366345 -0.0527698778 -0.5582352196
-0.0146526867 -0.0708702551 -0.5526147608
-0.0053325710 -0.0906466208 -0.5469197929
0.0312617910 -0.0778773133 -0.5382816827
-0.0343652070 -0.0534317923 -0.5582739628
0.0128832422 -0.0657374691 -0.5449495614
-0.0141766594 -0.1154293849 -0.5441583970
-0.0322394313 -0.0533850928 -0.5576236084
0.0078116676 -0.0554111438 -0.5501751105
-0.0016547123 -0.0579322566 -0.5526827046
0.0480314307 -0.0752944425 -0.5393135150
-0.0293098616 -0.0532211249 -0.5573631756
-0.0244720654 -0.0553384651 -0.5573023007
0.0084500443 -0.1104481961 -0.5397316323
-0.0072344917 -0.0852088283 -0.5497235635
-0.0121072754 -0.0608242538 -0.5523308157
-0.0217977303 -0.0552760681 -0.5590286928
-0.0245125471 -0.0762405941 -0.5526636407
-0.0170730795 -0.0554630194 -0.5570537581
-0.0069205465 -0.0582283297 -0.5521489499
-0.0070687573 -0.0560391618 -0.5527216443
-0.0027296583 -0.0914242491 -0.5421751142
-0.0093487157 -0.1033322923 -0.5433288813
0.0470975507 -0.0727174841 -0.5379934013
-0.0110642923 -0.0853947072 -0.5516106503
-0.0042802079 -0.0559278383 -0.5529378407
-0.0032040589 -0.0568603680 -0.5543903489
-0.0171992872 -0.1250428351 -0.5425047295
0.0004292382 -0.0578372303 -0.5525910400
-0.0095716777 -0.1101026647 -0.5442414889
-0.0279128533 -0.1190941855 -0.5456251502
0.0150096650 -0.0620655302 -0.5473063141
0.0485740880 -0.1125333023 -0.5294749230
0.0177336354 -0.0537067633 -0.5459127128
0.0161102768 -0.0596323647 -0.5458975434
0.0031340208 -0.0573442770 -0.5517816767
0.0070246771 -0.0574605096 -0.5512526000
0.0055621223 -0.0575905966 -0.5522487487
-0.0245824475 -0.1257378012 -0.5432912707
0.0082009065 -0.0578692315 -0.5496607892
0.0305968123 -0.0729114204 -0.5400319757
0.0029807279 -0.0860302672 -0.5458717346
0.0127923819 -0.0684347112 -0.5500912741
-0.0470614647 -0.0731572781 -0.5599651864
-0.0341927598 -0.0727573690 -0.5554886688
-0.0171867971 -0.1145065906 -0.5463228877
0.0099132036 -0.0579148722 -0.5511093972
-0.0467336473 -0.1075673855 -0.5576248429
0.0057492213 -0.0706777301 -0.5507034501
-0.0252848398 -0.0683565885 -0.5566025972
-0.0391173938 -0.0861343351 -0.5548453419
0.0405328658 -0.0706686297 -0.5397352620
-0.0102628442 -0.0931063741 -0.5489159822
-0.0098942158 -0.1129823822 -0.5442879976
-0.0146367249 -0.0908488271 -0.5479964436
0.0128013880 -0.0579945842 -0.5500141996
-0.0265824627 -0.1312742010 -0.5410156548
-0.0166451804 -0.1074922641 -0.5479323467
-0.0429455993 -0.0651637291 -0.5590047898
-0.0420625701 -0.0610411854 -0.5586008388
0.0256974565 -0.0591189962 -0.5471666848
-0.0462463531 -0.0581263157 -0.5599608025
-0.0479164235 -0.0855554938 -0.5643481612
-0.0446278321 -0.0653753679 -0.5587825162
-0.0093795559 -0.0879679800 -0.5497222953
0.0275481874 -0.0599436500 -0.5471191588
-0.0449018235 -0.1130513456 -0.5516841032
0.0579356365 -0.1158843637 -0.5317445993
-0.0341906375 -0.0929991024 -0.5500718934
-0.0219631852 -0.1079392437 -0.5468175763
-0.0494477044 -0.0552329370 -0.5688485284
-0.0143667289 -0.1004311881 -0.5450946514
-0.0169088995 -0.0751693746 -0.5535891819
-0.0476592769 -0.0553012114 -0.5652810614
-0.0422271490 -0.0804240105 -0.5548212328
-0.0194597299 -0.0604302159 -0.5551609280
-0.0414747100 -0.0537217048 -0.5603827280
-0.0270993542 -0.0850689113 -0.5537646413
0.0020070302 -0.1331026107 -0.5365551114
-0.0421180415 -0.0563020997 -0.5579208449
-0.0392028120 -0.0981633695 -0.5503771640
0.0017022593 -0.0726831605 -0.5513745886
-0.0389566740 -0.0528946847 -0.5594072591
0.0456616945 -0.0927612105 -0.5315084209
-0.0470710214 -0.0677066223 -0.5593032836
-0.0434182966 -0.0760063915 -0.5554866112
-0.0317923735 -0.0554972311 -0.5582772004
-0.0296189349 -0.0555585153 -0.5576326456
-0.0166356383 -0.0952420776 -0.5473219395
-0.0220107006 -0.0560852619 -0.5568849744
0.0151876952 -0.0705540031 -0.5458839238
-0.0163128804 -0.1314174086 -0.5405168533
-0.0195796817 -0.0553186545 -0.5557554729
0.0024401920 -0.0895246714 -0.5464524627
-0.0068246231 -0.0678393655 -0.5516594067
-0.0215892249 -0.0981452545 -0.5485146034
-0.0173854694 -0.0564235548 -0.5557798405
-0.0145088744 -0.0927799045 -0.5475554439
-0.0144327332 -0.0575844419 -0.5550214833
-0.0090786636 -0.0783699505 -0.5519243449
0.0400008365 -0.0759086167 -0.5358251478
-0.0020797664 -0.0887827389 -0.5451005399
0.0399847097 -0.0859984778 -0.5332179530
-0.0344155904 -0.0779713129 -0.5547451659
-0.0118979778 -0.0579591916 -0.5543335823
-0.0134384306 -0.1167394221 -0.5422240496
-0.0093095877 -0.0607223264 -0.5522283963
-0.0270425938 -0.0502412664 -0.5588624775
-0.0364780824 -0.0724813604 -0.5558438307
-0.0217347573 -0.1324957311 -0.5422347585
0.0315243888 -0.0752947746 -0.5378039261
-0.0044995341 -0.0580991755 -0.5526672226
-0.0055318627 -0.1057116030 -0.5439687395
-0.0320505076 -0.0902184471 -0.5542673469
0.0032380823 -0.0584554360 -0.5508095074
-0.0065561851 -0.1007409087 -0.5450026775
0.0077691448 -0.0750911744 -0.5493663410
0.0479513142 -0.0912414039 -0.5309244577
0.0057603724 -0.0582946483 -0.5498384436
-0.0223330111 -0.0577880116 -0.5573030947
0.0582251381 -0.1026992202 -0.5343154967
0.0129115239 -0.0605453340 -0.5497221617
0.0230164929 -0.0605706491 -0.5466776647
0.0106422551 -0.0726210577 -0.5493838371
-0.0222451892 -0.0656095538 -0.5545424604
-0.0431748558 -0.0746619353 -0.5561086681
0.0298767039 -0.0781149060 -0.5393501834
-0.0508771576 -0.0638857260 -0.5629037619
-0.0344495922 -0.0530085017 -0.5596737464
0.0029790525 -0.1056956351 -0.5395177156
-0.0499032462 -0.0570196373 -0.5685858163
-0.0221325105 -0.0829464823 -0.5525521557
0.0430085029 -0.0733272701 -0.5376726125
0.0282720471 -0.0604343306 -0.5446408886
-0.0272951182 -0.0656723926 -0.5564076106
-0.0143581067 -0.0533320854 -0.5551110109
-0.0536531976 -0.0587503974 -0.5705276058
0.0297772133 -0.0610256872 -0.5462203487
-0.0536990980 -0.0580871747 -0.5741226318
0.0575241978 -0.0904216072 -0.5341243654
-0.0092147445 -0.0658247362 -0.5523187718
-0.0317941691 -0.0726361966 -0.5542096929
-0.0520571428 -0.0580367591 -0.5721563314
-0.0456844533 -0.0549566155 -0.5614207070
-0.0093318117 -0.0843253729 -0.5522223146
0.0082954196 -0.0631588626 -0.5490039013
-0.0038141141 -0.0605976971 -0.5539835655
-0.0468533371 -0.0631294566 -0.5604058607
0.0108435883 -0.0757157678 -0.5423664252
-0.0448382660 -0.0551389652 -0.5599330617
-0.0295165919 -0.1276094283 -0.5442344402
-0.0417100759 -0.0550858065 -0.5598424783
-0.0379007738 -0.0555383557 -0.5591580383
-0.0240162108 -0.1154736578 -0.5456646681
-0.0370045259 -0.0555594966 -0.5575107461
-0.0339778716 -0.0559890559 -0.5577486692
-0.0264906814 -0.0629616534 -0.5547772631
-0.0543951459 -0.0779419177 -0.5678574938
-0.0267646805 -0.0574798397 -0.5587569904
-0.0230880560 -0.0582107502 -0.5588675365
-0.0189992022 -0.0577932715 -0.5570964820
0.0378154646 -0.0683172952 -0.5399808626
-0.0316917030 -0.0960008446 -0.5518593043
-0.0145795280 -0.0679616034 -0.5542343855
-0.0336769937 -0.0651985652 -0.5570600734
-0.0393570312 -0.1131103237 -0.5473537867
-0.0114216887 -0.0582696514 -0.5523051539
-0.0323655055 -0.0623774406 -0.5575036495
0.0008460748 -0.0603848920 -0.5522072264
0.0131852379 -0.0622158383 -0.5472053546
-0.0372531625 -0.0884405038 -0.5524116143
0.0103167926 -0.1232546394 -0.5361694892
0.0027048960 -0.0601453019 -0.5520391918
-0.0282879192 -0.1282182932 -0.5426781178
-0.0094943306 -0.0930293425 -0.5471214242
0.0058277820 -0.0605794661 -0.5516186946
0.0081141505 -0.0609803815 -0.5490740587
-0.0146778767 -0.0853176922 -0.5515318904
-0.0003382267 -0.1022634599 -0.5437766099
0.0057676701 -0.0752048839 -0.5498302081
-0.0015973891 -0.1153227706 -0.5397298448
0.0409560613 -0.1019571438 -0.5315966626
0.0101914051 -0.0605248250 -0.5495441536
0.0209815154 -0.0615665218 -0.5474124912
-0.0429545231 -0.0933513269 -0.5548695624
0.0238561950 -0.0619674168 -0.5471667136
0.0398714319 -0.0640144199 -0.5413851142
0.0258330512 -0.0632701681 -0.5448298996
-0.0254400438 -0.0717160285 -0.5531630860
0.0301520325 -0.0630235685 -0.5451145037
-0.0019888043 -0.0829863159 -0.5481943074
0.0330011357 -0.0632933637 -0.5445727135
-0.0013151610 -0.1230286450 -0.5383726258
0.0507732942 -0.1004587155 -0.5295020928
-0.0516950815 -0.0579655120 -0.5702299835
-0.0141324671 -0.0732479319 -0.5510255694
0.0156896142 -0.0679313963 -0.5444206993
-0.0086075114 -0.1075660139 -0.5428438187
0.0411207563 -0.1001969302 -0.5313992631
0.0347882358 -0.0831764396 -0.5361080542
-0.0498269904 -0.0577245405 -0.5661772691
-0.0020103531 -0.0638958439 -0.5498043895
-0.0475204934 -0.0558775787 -0.5626781361
-0.0561489764 -0.0626756823 -0.5720394063
-0.0288170816 -0.0975366384 -0.5484895949
0.0385664512 -0.0656338239 -0.5383146700
-0.0457700624 -0.0559774420 -0.5599472418
-0.0394205005 -0.0555272691 -0.5575033253
-0.0381356612 -0.0568979682 -0.5586130866
-0.0367120234 -0.0575873355 -0.5571052195
-0.0344458405 -0.0904226687 -0.5501746471
0.0452856533 -0.0766535848 -0.5387052298
-0.0316911341 -0.0581539737 -0.5571748756
0.0404150840 -0.0676403767 -0.5397213936
0.0119898365 -0.0731124130 -0.5480843639
-0.0297228855 -0.0581333489 -0.5577370267
-0.0040695608 -0.0735376130 -0.5519868731
-0.0494217905 -0.0725378648 -0.5614727225
-0.0269391622 -0.0579024927 -0.5571347072
0.0567658283 -0.1014403328 -0.5340743661
-0.0023629910 -0.0733450848 -0.5504952414
-0.0014634466 -0.1133357678 -0.5399322719
0.0480393162 -0.1031288223 -0.5296820724
-0.0244988139 -0.0582072604 -0.5554957215
-0.0220297080 -0.0583522457 -0.5554939509
0.0352965882 -0.0750480581 -0.5379237903
-0.0198598270 -0.0584403823 -0.5555316323
-0.0139828221 -0.0906869149 -0.5493896345
-0.0188087929 -0.0706595722 -0.5527241393
-0.0485834060 -0.0753254437 -0.5623077078
-0.0172729456 -0.0599854099 -0.5565693494
-0.0080495033 -0.1202194100 -0.5437347279
0.0377469580 -0.0879310593 -0.5346738939
-0.0168214591 -0.0604959647 -0.5551899473
-0.0488185898 -0.0838019579 -0.5633111470
-0.0370819230 -0.0758383438 -0.5543096071
-0.0067013842 -0.0858416054 -0.5480092168
-0.0125101671 -0.0601972041 -0.5543099338
-0.0539682605 -0.0607708189 -0.5704187965
-0.0269650031 -0.0960737553 -0.5483200038
-0.0070195435 -0.0606391788 -0.5522210603
-0.0262993450 -0.0707668403 -0.5550552644
-0.0369365510 -0.0629765855 -0.5579612965
-0.0341555757 -0.0633031810 -0.5577410555
0.0032400182 -0.0901474083 -0.5450533827
-0.0048429925 -0.0606662146 -0.5519061951
-0.0273823821 -0.1101737406 -0.5453926465
0.0360747338 -0.0837780865 -0.5351695841
-0.0249052998 -0.0857349336 -0.5541989803
-0.0168043915 -0.0985091552 -0.5454076827
0.0004483717 -0.0620158884 -0.5535951897
-0.0418229755 -0.1064292453 -0.5508480072
-0.0497791585 -0.0581445424 -0.5654517484
0.0056913571 -0.0627155925 -0.5505088401
0.0108533261 -0.0610605465 -0.5476666869
0.0050711823 -0.0732889865 -0.5501088208
0.0533932206 -0.0907414481 -0.5323055631
0.0124649777 -0.0633466830 -0.5489522205
0.0377436422 -0.0901323035 -0.5346879692
0.0206158531 -0.0629945238 -0.5452178939
0.0109553366 -0.0655152193 -0.5496807249
-0.0287609974 -0.1051352277 -0.5479499709
0.0211946238 -0.0729541220 -0.5429866910
-0.0539751999 -0.0612009666 -0.5684651976
-0.0482691415 -0.1092653796 -0.5586935282
0.0230417848 -0.0634304249 -0.5450055067
-0.0346095241 -0.0605864614 -0.5571267152
0.0278632319 -0.0631218067 -0.5443747938
0.0048187693 -0.0807378545 -0.5478669623
0.0350076658 -0.0640344469 -0.5435976634
0.0534215396 -0.0880641073 -0.5307769558
0.0577167132 -0.1125752960 -0.5294710003
0.0360026681 -0.0636459881 -0.5422701971
0.0055890013 -0.0464156084 -0.5540614128
0.0103969956 -0.0680388659 -0.5459684730
-0.0559257543 -0.0608354084 -0.5725822995
-0.0518924306 -0.0594605800 -0.5673299155
0.0098232092 -0.0776948056 -0.5482288890
0.0184410419 -0.0716657490 -0.5431226492
-0.0446444049 -0.0581203190 -0.5591261489
-0.0425613713 -0.0579935126 -0.5575680090
-0.0216604535 -0.0934735167 -0.5494480922
-0.0444209948 -0.0707560256 -0.5600786805
0.0294371120 -0.0718190770 -0.5416734540
-0.0318166607 -0.0604962633 -0.5573873190
-0.0271501852 -0.0727572783 -0.5525262621
-0.0192598626 -0.0940270462 -0.5479556584
-0.0215301346 -0.0529987626 -0.5567434728
0.0452325477 -0.0878897543 -0.5326301491
-0.0297097836 -0.0607313716 -0.5574730163
-0.0098912966 -0.1078954415 -0.5444559522
0.0031825691 -0.0653933262 -0.5496144692
-0.0077410568 -0.0712917745 -0.5510146618
-0.0218574032 -0.0801227493 -0.5524387615
-0.0511655749 -0.0651195048 -0.5632915116
-0.0294686798 -0.0739050582 -0.5561606288
-0.0279775166 -0.0603651210 -0.5564309275
-0.0071944202 -0.0805533997 -0.5497708198
-0.0265748634 -0.0603456589 -0.5556697796
-0.0423905899 -0.0857433081 -0.5573087931
-0.0446399140 -0.0664954383 -0.5571071312
-0.0274414216 -0.0984977453 -0.5481616471
-0.0044836342 -0.1126805695 -0.5419005012
0.0082609940 -0.0680601094 -0.5470741540
-0.0243324520 -0.0605681891 -0.5551249180
-0.0158123859 -0.0605176695 -0.5532497565
0.0283589796 -0.0728410606 -0.5420016977
-0.0319487894 -0.1029668465 -0.5500955928
-0.0143569544 -0.0607895195 -0.5532573360
0.0438947814 -0.1011536216 -0.5306224317
-0.0019013782 -0.0629681181 -0.5524946793
-0.0074946871 -0.0737040193 -0.5537981099
0.0103791100 -0.0626593117 -0.5470439577
0.0417127609 -0.0913425237 -0.5367414951
-0.0241818708 -0.0703573370 -0.5546832202
0.0077616107 -0.0533106488 -0.5516454577
0.0279063263 -0.0633071478 -0.5425384979
-0.0144846474 -0.0757301064 -0.5518180402
0.0305357578 -0.0653288522 -0.5418222535
0.0428792496 -0.0829891006 -0.5348132668
0.0330716066 -0.0652902588 -0.5421958730
0.0354226489 -0.0649726874 -0.5418762163
0.0373649251 -0.0653947708 -0.5401417303
-0.0496390070 -0.0603428433 -0.5639513179
-0.0022049273 -0.1128177871 -0.5413567604
0.0205641054 -0.0655640776 -0.5449361240
0.0552117951 -0.1133417456 -0.5300158970
-0.0481863320 -0.0594231985 -0.5614864132
0.0215525683 -0.0707719252 -0.5433458090
0.0507200018 -0.0852460439 -0.5321407562
-0.0418147833 -0.0597109607 -0.5575975166
-0.0117941732 -0.0728069916 -0.5507752597
-0.0147314575 -0.1087194934 -0.5452511268
-0.0515817610 -0.0805395347 -0.5656656472
-0.0368727771 -0.0605236615 -0.5572210050
0.0052133286 -0.1203174345 -0.5375846226
-0.0468133725 -0.0606130346 -0.5602905819
-0.0171554944 -0.0630300986 -0.5545120223
-0.0096268588 -0.0752984932 -0.5522145899
-0.0222251758 -0.0954908595 -0.5495027916
-0.0143025919 -0.0633635429 -0.5529521126
-0.0245274433 -0.0953916309 -0.5493910572
0.0430984534 -0.0655941740 -0.5398391187
0.0506764033 -0.1126317408 -0.5299514000
-0.0348042957 -0.0884862319 -0.5536684990
-0.0067731255 -0.0633037613 -0.5524135951
0.0542867372 -0.1148800664 -0.5285756517
0.0024473949 -0.1303931102 -0.5364516079
0.0003791529 -0.0654913809 -0.5529070011
-0.0268770643 -0.0954124139 -0.5503617235
0.0407370068 -0.0804296136 -0.5364453793
0.0029110175 -0.0651938490 -0.5523883433
0.0004635838 -0.1107557131 -0.5414698064
-0.0396650856 -0.0954570447 -0.5513192217
0.0043927630 -0.0650527712 -0.5514028236
-0.0295081008 -0.0854756404 -0.5539129078
0.0055272982 -0.0650309872 -0.5498799241
-0.0366261490 -0.1080615446 -0.5517775416
0.0079384060 -0.0657324778 -0.5495635963
-0.0247543901 -0.1006661556 -0.5496100429
-0.0410117786 -0.0929864671 -0.5524933925
0.0226350199 -0.0655593662 -0.5440859086
0.0054239709 -0.1176467285 -0.5394130968
0.0030468179 -0.1176834291 -0.5387561695
-0.0558409843 -0.0702125700 -0.5675592860
0.0280861105 -0.0653695602 -0.5421952278
0.0330271301 -0.0657271836 -0.5408389306
-0.0266998094 -0.1059663072 -0.5504673123
-0.0169594903 -0.0885187760 -0.5529405475
0.0497108939 -0.0782861026 -0.5337634156
0.0357194900 -0.0656476937 -0.5403083950
-0.0559026242 -0.0625926811 -0.5686631441
-0.0469830281 -0.0860039617 -0.5623501392
-0.0498885407 -0.0756271201 -0.5644334712
-0.0540046479 -0.0625785458 -0.5657578319
-0.0491300451 -0.0610346139 -0.5622390372
-0.0291250003 -0.0627292012 -0.5548216699
-0.0064438232 -0.0726131797 -0.5515902042
-0.0279206212 -0.1009260267 -0.5479873842
-0.0170147003 -0.0884380625 -0.5480417408
-0.0359490308 -0.1253926105 -0.5475185722
-0.0244315819 -0.0627840256 -0.5547000428
0.0424073917 -0.1021170957 -0.5313793763
-0.0216388011 -0.0629950708 -0.5545747846
0.0080754447 -0.1027083285 -0.5399181247
0.0402741358 -0.0731946881 -0.5392409401
0.0011619459 -0.0670597757 -0.5537321996
0.0022853690 -0.0972422287 -0.5416058898
-0.0286601540 -0.1300226003 -0.5427419543
0.0134544792 -0.0710791238 -0.5440950096
-0.0067898873 -0.0782855665 -0.5500571795
0.0032661405 -0.0678087748 -0.5526699775
0.0078762115 -0.0805408386 -0.5480128685
-0.0239593231 -0.1181886778 -0.5466594869
-0.0565691887 -0.0657371893 -0.5684062122
-0.0525197554 -0.0628337618 -0.5673570931
-0.0018589731 -0.0853871413 -0.5478913571
0.0106068673 -0.0680049342 -0.5499950726
0.0230765549 -0.0680689372 -0.5445683697
-0.0539187209 -0.0680795502 -0.5646510634
-0.0322695931 -0.1147616775 -0.5456894247
0.0306503597 -0.0681194337 -0.5418569521
0.0243726460 -0.0670969621 -0.5439352688
-0.0021499373 -0.0710865318 -0.5504876352
0.0556357577 -0.0831821933 -0.5342751741
0.0502086355 -0.1033452138 -0.5293165451
0.0494583458 -0.1019108567 -0.5284758051
0.0256769207 -0.0677566062 -0.5430611397
-0.0516930667 -0.0676936137 -0.5626253108
-0.0169791002 -0.0727054631 -0.5542827262
-0.0170191175 -0.0975914914 -0.5466065001
0.0278933188 -0.0669893532 -0.5422069683
0.0381246105 -0.0849823981 -0.5343273631
-0.0477232465 -0.1099999342 -0.5568754228
0.0327797026 -0.0682923403 -0.5413891224
-0.0561487644 -0.0639862917 -0.5680790874
-0.0204986084 -0.0782101360 -0.5508251445
0.0383868743 -0.0755334553 -0.5370780019
-0.0220358498 -0.0752461453 -0.5530559927
-0.0072063636 -0.1025110210 -0.5467118272
-0.0524579663 -0.0632626550 -0.5646867921
-0.0498007429 -0.0626972661 -0.5628119036
-0.0264198237 -0.0652223837 -0.5549677659
-0.0473759063 -0.0833899751 -0.5631642342
-0.0293986657 -0.0806438810 -0.5524885900
-0.0296492268 -0.0656018533 -0.5541418991
0.0095186490 -0.0707803514 -0.5512576789
0.0054716286 -0.0779141513 -0.5474505273
-0.0417500135 -0.0627182498 -0.5581040513
-0.0398036228 -0.0630067595 -0.5576826474
0.0507489111 -0.0878022825 -0.5319048622
-0.0045728733 -0.0777207824 -0.5500032803
-0.0345461778 -0.0628891445 -0.5557006060
-0.0316101763 -0.0635036057 -0.5558359665
-0.0246986994 -0.0637294759 -0.5532944322
-0.0479756080 -0.0659495684 -0.5611398859
-0.0225078394 -0.0641625109 -0.5533468083
-0.0395491651 -0.0805992200 -0.5529374326
-0.0210464516 -0.0644477273 -0.5533747112
-0.0192524870 -0.0657172234 -0.5530234585
-0.0393828851 -0.0831236735 -0.5545841127
-0.0172243342 -0.0656421364 -0.5532329062
0.0031050241 -0.0678757429 -0.5471850932
0.0390987950 -0.0810895640 -0.5334570043
-0.0151954257 -0.0655621878 -0.5534338857
-0.0438071614 -0.0777473767 -0.5557645989
-0.0143960077 -0.0655807379 -0.5544908222
-0.0339611089 -0.1278159503 -0.5453551083
-0.0016450694 -0.0686361802 -0.5522501785
-0.0022317956 -0.1305311024 -0.5369075537
0.0007710951 -0.0852669004 -0.5473813401
0.0001970156 -0.0682856156 -0.5531901544
0.0606474653 -0.1004456133 -0.5373607874
0.0057059643 -0.1117978096 -0.5385050774
0.0068340865 -0.0685880973 -0.5510666015
-0.0021211291 -0.1178972364 -0.5398552453
-0.0341378313 -0.1253017694 -0.5469440301
-0.0018550718 -0.0777757019 -0.5505968332
-0.0071667562 -0.0751400271 -0.5519714028
0.0433206306 -0.0781237848 -0.5357703039
-0.0093659917 -0.0953827240 -0.5445176661
-0.0243487864 -0.1252896344 -0.5439067707
0.0082950795 -0.0688188317 -0.5509902206
0.0270567238 -0.0692006403 -0.5440189301
0.0284944226 -0.0693904854 -0.5438721897
0.0111190351 -0.0633060262 -0.5456935167
0.0382587292 -0.0702017032 -0.5394778307
-0.0563888073 -0.0723993539 -0.5679511112
0.0081862109 -0.0479374863 -0.5524631739
-0.0291279080 -0.1227425496 -0.5473111699
-0.0331779979 -0.0692508966 -0.5587606430
-0.0536779545 -0.0660231223 -0.5656974361
-0.0263400942 -0.1007990433 -0.5488003269
-0.0496041741 -0.0655169841 -0.5626051040
0.0510226663 -0.0780042697 -0.5326333760
-0.0437667967 -0.0905976848 -0.5579638026
-0.0269777905 -0.0768426210 -0.5540706515
-0.0466198818 -0.0654476906 -0.5600095826
-0.0393819797 -0.0658154751 -0.5580330564
-0.0372117645 -0.0656726049 -0.5577702234
-0.0345323538 -0.0654825419 -0.5553813533
-0.0188868528 -0.1009151456 -0.5467440541
0.0005986004 -0.0702319970 -0.5518428197
0.0003551506 -0.0462601818 -0.5519964099
-0.0319642911 -0.0655226777 -0.5549756381
-0.0144477547 -0.0949528303 -0.5470023935
-0.0289902028 -0.0700195858 -0.5545693986
-0.0147032253 -0.1356604348 -0.5368380547
-0.0219292461 -0.0692298491 -0.5534881461
-0.0421740017 -0.0776777998 -0.5549490293
-0.0242757055 -0.0657483492 -0.5547962954
0.0325476529 -0.0799962994 -0.5388750785
-0.0169293237 -0.1131946531 -0.5470772493
-0.0145735869 -0.1131329369 -0.5461596185
-0.0147295150 -0.0676730355 -0.5528277691
0.0483716060 -0.0980550558 -0.5325656204
0.0080534960 -0.0705513392 -0.5513396254
0.0338130982 -0.0804011433 -0.5374991968
0.0109879002 -0.0706137643 -0.5502508622
0.0424410725 -0.0703844655 -0.5390742667
0.0124494080 -0.0708367540 -0.5501587332
-0.0323727392 -0.0583004393 -0.5555010438
-0.0414938419 -0.0958168822 -0.5518820760
0.0253594708 -0.0699325925 -0.5426803760
-0.0394973779 -0.1104588410 -0.5493402649
0.0275512603 -0.0706189213 -0.5433817801
0.0330484686 -0.0707040325 -0.5395334391
0.0358176192 -0.0706184813 -0.5390849649
-0.0265028366 -0.1303248352 -0.5423436148
-0.0453503305 -0.0768590958 -0.5581113160
-0.0142364934 -0.0779243506 -0.5521407717
-0.0552071942 -0.0675819857 -0.5670804669
-0.0125724487 -0.0788977658 -0.5504693132
-0.0244233336 -0.0680897543 -0.5543671009
-0.0219536365 -0.0680586180 -0.5543921574
0.0264943388 -0.0725039275 -0.5425992636
-0.0194204838 -0.0684814962 -0.5543010808
-0.0144094340 -0.0696716428 -0.5550497855
-0.0121299597 -0.0696925336 -0.5541210681
0.0526870159 -0.1013911671 -0.5295260054
-0.0475616390 -0.1073835543 -0.5593082544
-0.0444240682 -0.0997703150 -0.5560747981
-0.0242588886 -0.0832560957 -0.5531453276
-0.0094102330 -0.0709728155 -0.5524785090
0.0027738009 -0.0736215541 -0.5500233809
-0.0522106819 -0.0780631790 -0.5652384716
-0.0066999114 -0.0706731513 -0.5523983190
0.0027114155 -0.0877752528 -0.5461663008
-0.0017349198 -0.0707275056 -0.5520881790
0.0312430819 -0.0707738084 -0.5399211438
0.0531458434 -0.0930776181 -0.5304967059
-0.0221221248 -0.1183196773 -0.5452114666
0.0335649395 -0.0711490294 -0.5384507650
-0.0300198204 -0.0794034694 -0.5536621280
-0.0244232100 -0.0755684264 -0.5537303090
0.0357518943 -0.0729661960 -0.5390145765
0.0375077609 -0.0732523783 -0.5392556385
-0.0169784214 -0.0827240613 -0.5505017448
0.0422508905 -0.0729741400 -0.5391713227
0.0450840374 -0.0757231002 -0.5369185823
-0.0341694647 -0.0850781209 -0.5544428444
0.0454428280 -0.0731409472 -0.5373775402
0.0336769397 -0.0778876145 -0.5379475894
0.0002137447 -0.1209062887 -0.5390909685
0.0522644725 -0.0781181455 -0.5371057391
-0.0373303897 -0.0732746216 -0.5569074122
0.0392732568 -0.0925076316 -0.5333543401
-0.0491905572 -0.0679288171 -0.5607644286
0.0052316715 -0.0608208645 -0.5504914224
-0.0049978238 -0.0830412974 -0.5489846633
-0.0439607754 -0.0679905497 -0.5576957640
-0.0371104431 -0.0677382001 -0.5566474257
-0.0347178150 -0.1028803736 -0.5512421131
-0.0298913430 -0.0672310410 -0.5523546868
-0.0203725989 -0.0691294661 -0.5525916955
0.0369722135 -0.0717757419 -0.5384727716
-0.0259139377 -0.0985920116 -0.5494165313
-0.0415604042 -0.1032457493 -0.5526804103
-0.0300823504 -0.0961241028 -0.5479218415
-0.0171716513 -0.0700436008 -0.5531179504
-0.0122780353 -0.0708478988 -0.5527526777
-0.0524466783 -0.0768128261 -0.5662700534
-0.0322502205 -0.0781101396 -0.5545464698
-0.0047537358 -0.0708162161 -0.5506146139
0.0325397157 -0.0730811361 -0.5388144435
-0.0317789023 -0.0829500085 -0.5530504113
-0.0389274508 -0.1222771779 -0.5489956439
-0.0198987955 -0.0874289259 -0.5488237817
-0.0541555376 -0.0707728006 -0.5651841473
-0.0314458897 -0.0645978712 -0.5585906208
0.0025857142 -0.0832870363 -0.5471625206
-0.0522224146 -0.0701691178 -0.5630564504
-0.0365474699 -0.0690537366 -0.5556355357
-0.0115349395 -0.0477299970 -0.5585876703
-0.0310872140 -0.0691816963 -0.5535754567
0.0288127474 -0.0611722358 -0.5435187221
0.0438175697 -0.0903719823 -0.5323562547
-0.0217932498 -0.0708185649 -0.5543287537
-0.0416682481 -0.0752681494 -0.5549799679
-0.0142131931 -0.0728939617 -0.5547880317
-0.0392679944 -0.1059257966 -0.5496875655
-0.0105108745 -0.0735708525 -0.5547609291
-0.0155582028 -0.0571937375 -0.5561431050
0.0317493096 -0.0739909951 -0.5383840944
-0.0089165647 -0.0730463985 -0.5529067884
0.0001594898 -0.1036932352 -0.5430345261
-0.0069374557 -0.0727029114 -0.5507349513
0.0283121684 -0.0747639952 -0.5415095730
0.0532314877 -0.0986165077 -0.5282972017
0.0302833650 -0.0750801862 -0.5396197811
-0.0183884878 -0.0748890832 -0.5535836576
0.0358218272 -0.0759289704 -0.5387711933
-0.0540845226 -0.0733025707 -0.5668853521
0.0409546613 -0.0756597835 -0.5369452654
-0.0415376984 -0.0502241217 -0.5605241656
0.0431895291 -0.0755908098 -0.5372704754
0.0478943145 -0.0760096655 -0.5347494710
-0.0470588590 -0.0699956681 -0.5585493142
0.0086012471 -0.0757280234 -0.5480020106
0.0563032776 -0.1054177806 -0.5337573588
0.0077845899 -0.1126846187 -0.5377105027
-0.0091833258 -0.0587635133 -0.5526488721
-0.0562959127 -0.0719026998 -0.5687151551
0.0456090000 -0.0851110776 -0.5348050198
-0.0417957694 -0.0705572936 -0.5579265304
0.0033924639 -0.1032828465 -0.5396529138
-0.0394818529 -0.0707715943 -0.5573404702
-0.0372377296 -0.0707744135 -0.5573939879
-0.0361107635 -0.0707488779 -0.5555337406
-0.0313248594 -0.0705191933 -0.5529821544
-0.0172195225 -0.0933971467 -0.5475769548
-0.0370874898 -0.1132075999 -0.5473915537
-0.0291192238 -0.0709726626 -0.5530591848
-0.0116076969 -0.0754563019 -0.5538682628
0.0020544904 -0.0656280667 -0.5480859280
-0.0268088461 -0.0710309677 -0.5522106693
-0.0244026725 -0.0732172666 -0.5530277352
-0.0414416231 -0.0580539852 -0.5556262732
-0.0220380826 -0.0732055733 -0.5531128841
-0.0432367176 -0.0505287200 -0.5623314381
-0.0195018362 -0.0733744814 -0.5521758839
-0.0437198575 -0.0981072020 -0.5554998556
0.0040457692 -0.1129931111 -0.5426203393
-0.0120218556 -0.0951965217 -0.5467536483
-0.0173353146 -0.0726422461 -0.5526309452
0.0405355497 -0.0808686292 -0.5349792679
-0.0359366593 -0.0937830438 -0.5505695157
-0.0046356546 -0.0755578239 -0.5500063095
0.0381215736 -0.0627643714 -0.5417060653
-0.0395662579 -0.0881701251 -0.5527611436
-0.0017815045 -0.0751298123 -0.5490870252
0.0556537903 -0.1105934543 -0.5297367752
-0.0467270733 -0.0782028300 -0.5602833221
0.0052578351 -0.0681504123 -0.5467979312
0.0004178999 -0.0756673521 -0.5494530903
0.0028345104 -0.0758381504 -0.5493013330
-0.0391012475 -0.0931092564 -0.5521330971
0.0104184806 -0.0731848752 -0.5441877445
-0.0370623264 -0.0956048935 -0.5495024563
-0.0001830608 -0.0705074891 -0.5493341088
0.0086338441 -0.0583160159 -0.5476621588
-0.0114969192 -0.1303366348 -0.5384933352
-0.0319432030 -0.0934676712 -0.5501362672
0.0330061098 -0.0758893135 -0.5385453130
-0.0023097030 -0.1225667070 -0.5392320627
0.0456797295 -0.0765405662 -0.5350113347
-0.0420437321 -0.0723107308 -0.5570862478
-0.0194688504 -0.0981821691 -0.5474865093
-0.0040517864 -0.1320743859 -0.5371044278
-0.0046121963 -0.1006604274 -0.5455606576
-0.0393484809 -0.0729993426 -0.5571142592
-0.0154288532 -0.0754469829 -0.5535895032
-0.0067474494 -0.0759049763 -0.5504525919
0.0132248132 -0.0727915503 -0.5444666147
0.0385118995 -0.0782789125 -0.5356149563
-0.0016991423 -0.1105485335 -0.5391548872
0.0036697328 -0.0762132262 -0.5484152710
0.0077907542 -0.0778331704 -0.5481433778
0.0285329552 -0.0770657106 -0.5393514516
0.0355618558 -0.0782057431 -0.5377157113
0.0375869062 -0.0781349361 -0.5372369865
-0.0021503569 -0.0926412418 -0.5427069068
0.0529065764 -0.0807840861 -0.5330166244
0.0403266547 -0.0782893701 -0.5352474888
-0.0140528837 -0.1198283061 -0.5416090488
0.0476797673 -0.0784898938 -0.5350004888
-0.0072097150 -0.0524642728 -0.5560600162
-0.0543479817 -0.0751394527 -0.5655421991
-0.0516574623 -0.0747100851 -0.5634621396
-0.0321809505 -0.0986878945 -0.5486121688
-0.0447130511 -0.0737599591 -0.5584492162
-0.0163331783 -0.0905015816 -0.5520606438
-0.0398195172 -0.0735776003 -0.5559910838
-0.0348608978 -0.0747993688 -0.5567905411
-0.0344761990 -0.0755454415 -0.5553909684
-0.0320916786 -0.0760672069 -0.5553715704
0.0207099784 -0.0608218759 -0.5425518155
0.0071811271 -0.0778575167 -0.5440401435
-0.0300845978 -0.0727720568 -0.5550937140
-0.0295691677 -0.0756959427 -0.5545635450
-0.0245175269 -0.0567918867 -0.5556944609
-0.0274952038 -0.0751889053 -0.5543554894
-0.0267037989 -0.0757096244 -0.5527535840
-0.0340233622 -0.0880480270 -0.5533407031
-0.0262611043 -0.1337527335 -0.5418918133
-0.0195795265 -0.0756849694 -0.5519488029
-0.0168621586 -0.0756261450 -0.5518798405
-0.0120074554 -0.0778039073 -0.5520777803
0.0431882702 -0.0959725901 -0.5353916585
0.0554614223 -0.1000629499 -0.5276022447
-0.0018020296 -0.0780877182 -0.5477634850
0.0055018817 -0.0885087997 -0.5447137356
-0.0193131233 -0.0911801925 -0.5470601491
0.0292100981 -0.0495894141 -0.5456562042
0.0002293460 -0.0779743102 -0.5478932054
0.0522392794 -0.0916694678 -0.5302084599
0.0624842830 -0.1060137451 -0.5341122746
0.0032519425 -0.0778887041 -0.5473810271
-0.0393674918 -0.1205108900 -0.5471623352
0.0375116244 -0.0804402493 -0.5372999374
-0.0403103048 -0.0840914470 -0.5534456418
0.0453412569 -0.0808573727 -0.5357862253
0.0349111375 -0.0897208564 -0.5361225614
0.0475499684 -0.0802183854 -0.5353077753
0.0495250944 -0.0808770452 -0.5342209985
0.0411681001 -0.0856865625 -0.5343888366
-0.0493723564 -0.0559140928 -0.5670968890
-0.0038433319 -0.0857761923 -0.5480222943
-0.0071320565 -0.1052577297 -0.5433470607
0.0509040814 -0.0797269996 -0.5329420453
0.0077022004 -0.0625960836 -0.5476411730
-0.0445542566 -0.0757236782 -0.5594708990
-0.0215824199 -0.0882457367 -0.5477124694
-0.0393739706 -0.0755563674 -0.5546502371
-0.0193196270 -0.0783050767 -0.5521022198
-0.0038762648 -0.0786081681 -0.5485354014
-0.0417963577 -0.1110778929 -0.5497515585
-0.0368124487 -0.0903797761 -0.5509869095
0.0034435748 -0.0802518666 -0.5491572469
-0.0096475731 -0.0857005757 -0.5495720798
0.0063903847 -0.0807253545 -0.5490054358
0.0302761883 -0.0803772146 -0.5388244645
0.0359324267 -0.0804484517 -0.5367791033
-0.0371014818 -0.0803791413 -0.5543829157
-0.0318101980 -0.0928147957 -0.5541941524
0.0379495872 -0.0810432039 -0.5349107353
0.0462444684 -0.0822008278 -0.5364064214
-0.0077881778 -0.0841689070 -0.5512841506
-0.0512792654 -0.0557810813 -0.5722076297
0.0479058828 -0.0829205547 -0.5349420114
0.0511733841 -0.0830273524 -0.5349062387
0.0507252142 -0.0977142975 -0.5323817730
-0.0498044858 -0.0777778148 -0.5619238001
-0.0314921310 -0.1228295432 -0.5459799837
-0.0365743732 -0.0783094865 -0.5550139035
-0.0301663309 -0.0786813948 -0.5540373358
-0.0268722606 -0.0780986095 -0.5524217869
0.0511539665 -0.0834680528 -0.5322184741
-0.0241866849 -0.0778149666 -0.5522621683
-0.0347353537 -0.0955702998 -0.5523034632
0.0057360833 -0.0728564312 -0.5469238361
-0.0167717566 -0.0787087856 -0.5503851254
0.0504745317 -0.0980691764 -0.5293091605
-0.0145231315 -0.0789176505 -0.5499247070
-0.0116391631 -0.0798710094 -0.5508065441
-0.0445404537 -0.0856371000 -0.5592767596
-0.0094243508 -0.0803462870 -0.5506180213
0.0030850547 -0.1229662762 -0.5374911889
-0.0044418205 -0.0803948201 -0.5494998970
-0.0048342054 -0.1157302223 -0.5402410030
-0.0042537139 -0.0808042783 -0.5480648350
-0.0019356676 -0.0802710291 -0.5473214572
-0.0197033989 -0.0830845770 -0.5517735832
0.0000501834 -0.1000662347 -0.5443787923
0.0061536578 -0.0820566362 -0.5483880260
0.0328204680 -0.0828030905 -0.5378022105
0.0356714785 -0.0815326038 -0.5357257777
0.0456523170 -0.0832041413 -0.5353549905
-0.0366245901 -0.0855405782 -0.5543351849
-0.0289698597 -0.0523089115 -0.5590408742
0.0527022054 -0.0833857793 -0.5326593656
0.0531181629 -0.0830208312 -0.5305197075
-0.0466029942 -0.1056179851 -0.5579472780
0.0103770988 -0.0831011906 -0.5445707838
0.0096615339 -0.0727941692 -0.5461786985
-0.0488953334 -0.0807695230 -0.5624295933
0.0324812569 -0.0640462562 -0.5410078764
-0.0457449407 -0.0786091036 -0.5583844901
0.0458896907 -0.1030250476 -0.5302534384
-0.0397907218 -0.0780312068 -0.5529461852
-0.0243775963 -0.1047362785 -0.5494109591
-0.0390617823 -0.0779271777 -0.5542067326
-0.0320014164 -0.0801103377 -0.5542959086
0.0082083867 -0.1083973096 -0.5402970946
-0.0193794690 -0.1107534376 -0.5466611597
0.0036091324 -0.0629142312 -0.5498693188
-0.0267031637 -0.0803285760 -0.5518437185
-0.0290842312 -0.0784897877 -0.5531547578
-0.0246115463 -0.0806480037 -0.5526241108
-0.0193935466 -0.0808753601 -0.5522214385
-0.0173083134 -0.0806772761 -0.5520847743
0.0411792882 -0.0638209656 -0.5402356982
-0.0164304607 -0.0810463365 -0.5499029697
-0.0148336125 -0.0806585954 -0.5502109203
-0.0067575519 -0.0983240552 -0.5462777744
-0.0090744434 -0.0825399037 -0.5497092221
-0.0416787844 -0.1134349370 -0.5496881476
0.0159323690 -0.0758174211 -0.5439895988
-0.0022822431 -0.0874347245 -0.5489170387
-0.0069553950 -0.0983229168 -0.5425863266
0.0568827152 -0.0956675782 -0.5332013638
-0.0065995463 -0.0825581711 -0.5497910845
-0.0042873426 -0.0655774847 -0.5498153567
0.0004740184 -0.0829286459 -0.5476888210
0.0381656000 -0.0831113639 -0.5346494966
0.0401094820 -0.0828500940 -0.5349607197
-0.0443788199 -0.0835725737 -0.5574919650
-0.0094870471 -0.0905678553 -0.5494846189
0.0561046228 -0.1080911383 -0.5340693593
0.0544768996 -0.0840196161 -0.5304170951
0.0452177149 -0.0980175434 -0.5321877029
-0.0072078640 -0.1065789788 -0.5445463161
-0.0494964561 -0.0822634953 -0.5647011714
0.0106463665 -0.0501132347 -0.5506083965
-0.0461412028 -0.0803632736 -0.5586489348
-0.0146316805 -0.0879777451 -0.5479049428
-0.0441976459 -0.0794925973 -0.5560338567
-0.0407911644 -0.0789406899 -0.5534960526
0.0584306698 -0.1076468863 -0.5339295268
-0.0344352509 -0.0807770015 -0.5531638368
-0.0088849301 -0.1006880328 -0.5430117846
-0.0341208901 -0.0803114042 -0.5548418575
-0.0142386579 -0.0830297107 -0.5502691466
0.0126058040 -0.0504704118 -0.5483152866
-0.0241819875 -0.1061473986 -0.5475766063
-0.0119083144 -0.0830305634 -0.5514575795
-0.0458910652 -0.0843240619 -0.5607692599
-0.0041565980 -0.0833956552 -0.5481989474
-0.0346514736 -0.0860779043 -0.5530823897
-0.0503310710 -0.0604230575 -0.5664194226
0.0349014900 -0.0855400873 -0.5353181756
-0.0439944171 -0.1055520159 -0.5548008979
-0.0367284380 -0.0901225954 -0.5543620288
0.0431542004 -0.0854678048 -0.5343194456
-0.0244133325 -0.0931880180 -0.5497170087
0.0480654344 -0.0855596932 -0.5326586761
0.0424946366 -0.0882502261 -0.5318696840
0.0528334082 -0.0851720367 -0.5300527896
-0.0415653400 -0.0509452373 -0.5581440330
0.0552078598 -0.0862577601 -0.5323067699
0.0135670612 -0.0631237725 -0.5453414122
-0.0466892961 -0.0825268554 -0.5598065804
-0.0438535226 -0.1132812745 -0.5497060558
-0.0445897900 -0.0812420721 -0.5562945627
-0.0390247814 -0.0748370290 -0.5591089725
-0.0383243255 -0.0817397264 -0.5548162759
-0.0425204366 -0.0937590273 -0.5563456437
-0.0365454776 -0.0831695353 -0.5549542525
-0.0344831963 -0.0825775112 -0.5539633619
-0.0397269266 -0.0883003672 -0.5542871952
-0.0194150621 -0.1260380042 -0.5434927264
-0.0295755141 -0.0825116598 -0.5520709795
-0.0270456187 -0.0825888100 -0.5520735017
-0.0222142567 -0.0874271048 -0.5497125726
-0.0122906612 -0.0857482856 -0.5506952911
-0.0049633883 -0.0851714461 -0.5487577771
-0.0416016400 -0.0999661639 -0.5515001860
0.0385559474 -0.0858343018 -0.5334156736
0.0477917821 -0.0878319937 -0.5323948849
0.0581359062 -0.1131953560 -0.5314922333
0.0527287033 -0.0876239323 -0.5324785043
0.0428489851 -0.1032362612 -0.5301482373
0.0554612215 -0.0879296939 -0.5325211718
0.0183447208 -0.0702091729 -0.5448194345
-0.0417508680 -0.0833038365 -0.5541424892
-0.0367730539 -0.0754422210 -0.5574869066
-0.0138554979 -0.0880104594 -0.5497544668
-0.0267212208 -0.0855934897 -0.5529055579
-0.0242697514 -0.0858450611 -0.5524681352
-0.0200603176 -0.0492173247 -0.5586829782
0.0482682306 -0.0805711858 -0.5371109098
0.0481206918 -0.1004706979 -0.5320161595
-0.0214962370 -0.0857472885 -0.5527965105
0.0559226646 -0.1059030701 -0.5288995102
-0.0195342351 -0.0854433795 -0.5497987783
-0.0045035467 -0.1254018516 -0.5371846302
-0.0418098817 -0.0830862746 -0.5574533145
-0.0167727460 -0.0857390517 -0.5499046285
-0.0141470947 -0.0853333463 -0.5492014337
-0.0440159546 -0.1009005931 -0.5553811494
-0.0113690143 -0.0871553778 -0.5518686889
0.0473500527 -0.0703444406 -0.5378800631
0.0435764957 -0.0712486431 -0.5379693508
-0.0059283008 -0.1346625984 -0.5389914513
-0.0069058084 -0.0877608172 -0.5496407425
-0.0052505559 -0.0869260479 -0.5490194942
0.0356536774 -0.0881215962 -0.5358528925
-0.0026455341 -0.1155038392 -0.5415377513
-0.0297605385 -0.1258630239 -0.5465649187
0.0407054254 -0.0882713869 -0.5331406844
0.0438345739 -0.0883412419 -0.5348293726
0.0506395325 -0.0762973130 -0.5392512679
0.0511696189 -0.0885014874 -0.5308316044
0.0555462855 -0.0903503675 -0.5326266931
-0.0092604676 -0.1181487358 -0.5437004319
-0.0059099627 -0.1168784076 -0.5434732895
-0.0295811724 -0.0896084607 -0.5536854863
-0.0324758402 -0.1234217127 -0.5464908638
-0.0421984021 -0.1156125843 -0.5479026498
-0.0440154780 -0.0855033879 -0.5577786994
-0.0170058204 -0.1211804231 -0.5420486316
-0.0292346821 -0.0861471265 -0.5521366720
0.0546451807 -0.1056932658 -0.5332993269
-0.0222627761 -0.0878293823 -0.5524553069
0.0100899103 -0.1153208426 -0.5373544188
-0.0168087006 -0.0873315268 -0.5491460486
-0.0316241337 -0.0905531516 -0.5504821326
-0.0119610826 -0.0880956485 -0.5501747178
-0.0082704509 -0.1135214567 -0.5407885909
0.0405956612 -0.0933151646 -0.5328252033
-0.0046862833 -0.0881837896 -0.5473364086
0.0484965269 -0.1056072646 -0.5293985085
-0.0143493906 -0.1202805270 -0.5444177022
0.0396691390 -0.0894730487 -0.5337462579
0.0385049658 -0.0935273113 -0.5340159496
0.0089754509 -0.0751190707 -0.5424798429
0.0466373389 -0.0904494075 -0.5314708044
-0.0194006119 -0.0888916967 -0.5481683190
-0.0388967844 -0.1232804568 -0.5468381768
0.0484911718 -0.0897525691 -0.5324606577
-0.0449452083 -0.1107509152 -0.5520401526
-0.0146957905 -0.0958609933 -0.5451408260
0.0450017794 -0.0904864980 -0.5304909224
-0.0042294571 -0.1113809512 -0.5426408990
0.0501986351 -0.0780873224 -0.5379670262
-0.0389268398 -0.0968542993 -0.5514826775
0.0509556877 -0.0904513746 -0.5320774700
-0.0241859769 -0.1280747612 -0.5427406218
0.0034358822 -0.0701841265 -0.5467814207
0.0573543729 -0.0930591629 -0.5344954785
-0.0354284383 -0.1246766150 -0.5486302376
-0.0448824762 -0.0879549410 -0.5601272043
-0.0419667951 -0.0864091409 -0.5557038843
-0.0405566200 -0.0854248993 -0.5527891569
-0.0426505432 -0.0917500257 -0.5567662120
-0.0430028107 -0.0885348941 -0.5565285685
-0.0368189753 -0.0862316943 -0.5529599177
-0.0269229868 -0.0878744045 -0.5524526363
-0.0246386763 -0.0879710549 -0.5500339812
-0.0070825930 -0.0903869551 -0.5476772239
-0.0246443879 -0.0535941646 -0.5557676554
0.0168189462 -0.0552766919 -0.5464397073
0.0365616763 -0.0904290818 -0.5335030210
-0.0171906222 -0.1352812350 -0.5381084085
0.0401152762 -0.0906173822 -0.5325637007
0.0421465915 -0.0901766339 -0.5309221148
-0.0072899018 -0.0685284585 -0.5499931872
0.0552131012 -0.0924162546 -0.5323615229
-0.0093108019 -0.0908514057 -0.5479312154
-0.0368974917 -0.0983434394 -0.5518370867
0.0363915979 -0.0921723764 -0.5337490743
0.0425016184 -0.0930071388 -0.5320621843
0.0055978005 -0.0707437471 -0.5470848083
0.0481067492 -0.0927921308 -0.5321021357
-0.0015787744 -0.1055887416 -0.5395385325
0.0009007864 -0.0929312445 -0.5437141657
0.0506803826 -0.0932751301 -0.5306930958
0.0549768442 -0.0936877255 -0.5299450819
-0.0343133713 -0.0983916246 -0.5497469523
-0.0291988757 -0.0952724442 -0.5510609746
-0.0343194962 -0.0895281938 -0.5517415776
-0.0295990607 -0.0908402960 -0.5526411905
-0.0290368194 -0.0906261910 -0.5502085140
-0.0270008869 -0.0908870617 -0.5493880962
-0.0247669119 -0.0901183334 -0.5481483861
0.0502488799 -0.0955863247 -0.5339104732
-0.0219924249 -0.0904359454 -0.5471656254
-0.0119369621 -0.0926405122 -0.5474758136
-0.0069897616 -0.0923047254 -0.5468698976
0.0169392508 -0.0726918615 -0.5443813205
0.0433219674 -0.0953845815 -0.5326311822
-0.0072027489 -0.1278065667 -0.5372571051
-0.0295856914 -0.0934897703 -0.5492990263
0.0454417635 -0.0953851940 -0.5318565755
-0.0221738814 -0.0981008011 -0.5493097158
0.0508696079 -0.0959295672 -0.5304077787
-0.0122440080 -0.1341999980 -0.5408512063
0.0034117962 -0.0499116406 -0.5518147349
0.0079492787 -0.0734948441 -0.5448238850
0.0528635312 -0.0956866671 -0.5302956620
-0.0071196337 -0.1243069842 -0.5404820442
0.0510090012 -0.1053172871 -0.5340442359
-0.0330657163 -0.0952932693 -0.5490844340
-0.0225235950 -0.1304364877 -0.5426483717
0.0554971444 -0.0979838701 -0.5294908948
-0.0413839689 -0.0911910849 -0.5546780356
-0.0069380988 -0.1230467187 -0.5416764855
0.0077142295 -0.1132513595 -0.5402475086
-0.0392561900 -0.0905423906 -0.5522318186
-0.0220237611 -0.1279749527 -0.5430019704
-0.0067894020 -0.0929447917 -0.5451115909
0.0388718038 -0.0955452590 -0.5329354520
-0.0405930091 -0.0927916284 -0.5537454299
-0.0370522875 -0.0929953821 -0.5523486194
0.0070858528 -0.1048167869 -0.5410894752
-0.0196990605 -0.0930452450 -0.5495080721
0.0113177123 -0.0709274262 -0.5447577238
-0.0089187123 -0.0961282932 -0.5472678863
-0.0097339197 -0.1208544473 -0.5438372830
0.0075273018 -0.0805660412 -0.5444772542
-0.0068106751 -0.0957408180 -0.5468424666
0.0576148156 -0.0996902000 -0.5309549001
0.0455212072 -0.0801473310 -0.5367403030
0.0107494378 -0.0654843301 -0.5453739464
-0.0287528473 -0.0957585313 -0.5495215920
-0.0191892197 -0.0954546636 -0.5472760933
-0.0399310794 -0.0756493844 -0.5575741529
-0.0118601855 -0.0961925008 -0.5444782246
0.0288289934 -0.0502562337 -0.5433192849
-0.0100983481 -0.0969812262 -0.5471357736
0.0041621183 -0.0464871190 -0.5550984144
0.0429708249 -0.1000166166 -0.5336103224
0.0145029919 -0.0781603046 -0.5431994498
-0.0408216319 -0.0945754001 -0.5505848887
-0.0393777187 -0.0953425377 -0.5498580838
-0.0347492643 -0.0958607910 -0.5491359009
-0.0315778298 -0.0958162329 -0.5478883676
