-0.2322239131 0.0126108769 -0.3052025735
-0.2325767130 0.0121396799 -0.3075680137
-0.2322357893 0.0118492469 -0.3092284501
-0.2305333465 0.0119202202 -0.3094617426
-0.2301798165 0.0116345482 -0.3111204207
-0.2298171818 0.0113510340 -0.3127807379
-0.2281098515 0.0114306184 -0.3129983544
-0.2264047265 0.0115134269 -0.3132073283
-0.2266881466 0.0110564074 -0.3155893981
-0.2256382555 0.0109635871 -0.3165185153
-0.2245849073 0.0108734621 -0.3174439967
-0.2241816521 0.0106043313 -0.3191006780
-0.2218173742 0.0108833360 -0.3185469210
-0.2781920731 0.0160796251 -0.2709374726
-0.2765222490 0.0160194263 -0.2714448571
-0.2740706503 0.0161285400 -0.2713429630
-0.2739642560 0.0157446396 -0.2730365694
-0.2738490105 0.0153621892 -0.2747331560
-0.2729496062 0.0151484916 -0.2758233547
-0.2720460296 0.0149373952 -0.2769105732
-0.2711384296 0.0147289829 -0.2779948413
-0.2702266276 0.0145232650 -0.2790760696
-0.2685453594 0.0144896256 -0.2795334458
-0.2683908045 0.0141198514 -0.2812294662
-0.2659457922 0.0142630590 -0.2810484469
-0.2650227249 0.0140691176 -0.2821117938
-0.2640956342 0.0138778053 -0.2831720710
-0.2624114752 0.0138611998 -0.2835941613
-0.2614789009 0.0136757353 -0.2846454084
-0.2605423331 0.0134929484 -0.2856935859
-0.2596018314 0.0133128716 -0.2867385745
-0.2579145133 0.0133094005 -0.2871341109
-0.2569687068 0.0131351072 -0.2881700695
-0.2552812397 0.0131384153 -0.2885508835
-0.2543302178 0.0129698804 -0.2895776927
-0.2533753812 0.0128040807 -0.2906013727
-0.2524166703 0.0126409363 -0.2916218042
-0.2529090047 0.0121271415 -0.2939651608
-0.2519374192 0.0119684739 -0.2949847281
-0.2509620190 0.0118125128 -0.2960009873
-0.2499828041 0.0116592301 -0.2970139682
-0.2482829392 0.0116869472 -0.2973496914
-0.2465845942 0.0117181754 -0.2976766527
-0.2448878735 0.0117528858 -0.2979948819
-0.2446104884 0.0114320377 -0.2996686399
-0.2429117262 0.0114728874 -0.2999749482
-0.2419180721 0.0113369087 -0.3009598851
-0.2402200401 0.0113842068 -0.3012514412
-0.2392218262 0.0112539092 -0.3022270799
-0.2368293107 0.0114889918 -0.3018084168
-0.2358293086 0.0113647571 -0.3027720153
-0.2341358811 0.0114251683 -0.3030314744
-0.2331315279 0.0113066277 -0.3039856553
-0.2328079343 0.0110080736 -0.3056424260
-0.2324752361 0.0107115936 -0.3073009849
-0.2321334183 0.0104171596 -0.3089612126
-0.2304306328 0.0104918657 -0.3091956973
-0.2294030786 0.0103860451 -0.3101378977
-0.2290423959 0.0100988345 -0.3117955029
-0.2273375690 0.0101824859 -0.3120117784
-0.2262996435 0.0100847324 -0.3129434586
-0.2265818268 0.0096198386 -0.3153245747
-0.2255313247 0.0095269820 -0.3162542284
-0.2244773805 0.0094367908 -0.3171802759
-0.2240732610 0.0091636749 -0.3188367486
-0.2217089832 0.0094504505 -0.3182850182
-0.2200002819 0.0095547196 -0.3184586465
-0.2789916694 0.0148558328 -0.2695317566
-0.2781101465 0.0146277947 -0.2706399858
-0.2764399350 0.0145711144 -0.2711485922
-0.2739880681 0.0146876583 -0.2710486650
-0.2731011212 0.0144693619 -0.2721393406
-0.2729873657 0.0140833547 -0.2738326490
-0.2720897198 0.0138698295 -0.2749203146
-0.2711879611 0.0136589697 -0.2760051489
-0.2710521817 0.0132786371 -0.2777011395
-0.2709074318 0.0128998924 -0.2793999612
-0.2692233026 0.0128692323 -0.2798615098
-0.2675399780 0.0128423655 -0.2803142369
-0.2658575475 0.0128192184 -0.2807581723
-0.2649337947 0.0126249595 -0.2818219364
-0.2632507384 0.0126087321 -0.2822511792
-0.2623215318 0.0124203172 -0.2833060026
-0.2613883317 0.0122346533 -0.2843577266
-0.2604510784 0.0120515749 -0.2854063213
-0.2587647736 0.0120485527 -0.2858090401
-0.2578223050 0.0118713630 -0.2868486047
-0.2568758428 0.0116968248 -0.2878850400
-0.2551879883 0.0117037268 -0.2882670760
-0.2542363703 0.0115349805 -0.2892943919
-0.2532808781 0.0113689043 -0.2903185189
-0.2523216009 0.0112055456 -0.2913394570
-0.2513584495 0.0110448468 -0.2923571765
-0.2511160374 0.0107058370 -0.2940367758
-0.2494207174 0.0107314913 -0.2943829596
-0.2484461516 0.0105788363 -0.2953909636
-0.2481844872 0.0102466410 -0.2970689833
-0.2464857846 0.0102815842 -0.2973971665
-0.2447887063 0.0103199808 -0.2977167070
-0.2445104718 0.0099950461 -0.2993901968
-0.2428113222 0.0100396276 -0.2996976674
-0.2418171018 0.0099034775 -0.3006832302
-0.2401186973 0.0099545075 -0.3009759784
-0.2384220809 0.0100089526 -0.3012600243
-0.2367272973 0.0100667849 -0.3015354574
-0.2350344062 0.0101279756 -0.3018021882
-0.2340329438 0.0100066299 -0.3027602434
-0.2330279797 0.0098879021 -0.3037149608
-0.2327035069 0.0095853209 -0.3053714931
-0.2316887081 0.0094716847 -0.3063219786
-0.2313487828 0.0091735115 -0.3079794347
-0.2303241342 0.0090648783 -0.3089255989
-0.2292959839 0.0089590084 -0.3098682761
-0.2289343923 0.0086677829 -0.3115256429
-0.2278964520 0.0085669700 -0.3124638796
-0.2261907160 0.0086574228 -0.3126753569
-0.2251487374 0.0085622510 -0.3136040270
-0.2241033167 0.0084698768 -0.3145291209
-0.2230544835 0.0083800936 -0.3154506683
-0.2220022827 0.0082930503 -0.3163685799
-0.2202966958 0.0083984584 -0.3165471554
-0.2813668847 0.0132953869 -0.2692923844
-0.2796952724 0.0132344635 -0.2698197663
-0.2780241370 0.0131774349 -0.2703384459
-0.2763534784 0.0131242713 -0.2708482444
-0.2739014626 0.0132481130 -0.2707503736
-0.2730138600 0.0130295288 -0.2718414664
-0.2728992403 0.0126392599 -0.2735343874
-0.2712262869 0.0126003465 -0.2740148902
-0.2710985541 0.0122142229 -0.2757077515
-0.2709619403 0.0118297040 -0.2774034441
-0.2708162963 0.0114467582 -0.2791018784
-0.2691317499 0.0114196325 -0.2795646489
-0.2674480379 0.0113963298 -0.2800185978
-0.2657652199 0.0113767786 -0.2804637849
-0.2648408711 0.0111821992 -0.2815280557
-0.2624024153 0.0113488426 -0.2813278437
-0.2614750564 0.0111606335 -0.2823802829
-0.2612937391 0.0107949106 -0.2840659916
-0.2603559196 0.0106115900 -0.2851150334
-0.2594141662 0.0104309497 -0.2861610055
-0.2584684789 0.0102529600 -0.2872038484
-0.2575188577 0.0100777270 -0.2882435322
-0.2558280826 0.0100877872 -0.2886296213
-0.2548732758 0.0099183749 -0.2896601856
-0.2531824708 0.0099352216 -0.2900315821
-0.2522225678 0.0097716050 -0.2910529971
-0.2512587905 0.0096106902 -0.2920711935
-0.2502912283 0.0094523923 -0.2930862010
-0.2493198067 0.0092968764 -0.2940979004
-0.2483446598 0.0091440221 -0.2951064110
-0.2473657429 0.0089938333 -0.2961116731
-0.2463830858 0.0088463565 -0.2971136272
-0.2446856499 0.0088884532 -0.2974344194
-0.2444065362 0.0085594626 -0.2991076410
-0.2427070737 0.0086077750 -0.2994163930
-0.2410092950 0.0086594690 -0.2997164130
-0.2400134802 0.0085261865 -0.3006964028
-0.2383165807 0.0085843643 -0.3009817302
-0.2359267026 0.0088350922 -0.3005644679
-0.2349282503 0.0087108966 -0.3015263975
-0.2346155047 0.0083996095 -0.3031842113
-0.2329206765 0.0084705446 -0.3034401834
-0.2332789600 0.0079735704 -0.3058008850
-0.2329417318 0.0076686866 -0.3074615300
-0.2319172025 0.0075570294 -0.3084143102
-0.2302138060 0.0076393336 -0.3086513281
-0.2291850597 0.0075333235 -0.3095945120
-0.2281528264 0.0074300142 -0.3105342686
-0.2271171361 0.0073294104 -0.3114704192
-0.2267420739 0.0070390175 -0.3131256700
-0.2256966531 0.0069435807 -0.3140573800
-0.2246477455 0.0068507763 -0.3149855137
-0.2235955000 0.0067607574 -0.3159101009
-0.2225398421 0.0066734194 -0.3168310821
-0.2208310664 0.0067824814 -0.3170133829
-0.2197715640 0.0067008142 -0.3179246485
-0.2804864645 0.0120141124 -0.2683980167
-0.2780280709 0.0121324668 -0.2683345377
-0.2779339850 0.0117284665 -0.2700327933
-0.2762629688 0.0116788251 -0.2705438435
-0.2745924592 0.0116330525 -0.2710460722
-0.2737018168 0.0114134755 -0.2721405327
-0.2735838890 0.0110184085 -0.2738359869
-0.2719081342 0.0109824166 -0.2743206918
-0.2710051239 0.0107709644 -0.2754063308
-0.2700979710 0.0105621191 -0.2764889300
-0.2699539065 0.0101754954 -0.2781841755
-0.2682714462 0.0101525048 -0.2786453068
-0.2665898204 0.0101332609 -0.2790976465
-0.2656688690 0.0099357357 -0.2801654041
-0.2647438943 0.0097408677 -0.2812300920
-0.2630601227 0.0097318040 -0.2816618085
-0.2621296346 0.0095428256 -0.2827175260
-0.2611951530 0.0093565695 -0.2837701440
-0.2595095038 0.0093576359 -0.2841812670
-0.2585696578 0.0091771865 -0.2852248847
-0.2568838000 0.0091850283 -0.2856213152
-0.2566782832 0.0088243941 -0.2873027325
-0.2557267249 0.0086520370 -0.2883369625
-0.2547712624 0.0084823798 -0.2893679440
-0.2530801594 0.0085028391 -0.2897405922
-0.2521195710 0.0083390065 -0.2907624841
-0.2511551976 0.0081778793 -0.2917811275
-0.2494630516 0.0082081836 -0.2921331227
-0.2492150068 0.0078636659 -0.2938088179
-0.2475205660 0.0079001710 -0.2941488326
-0.2472597361 0.0075602247 -0.2958235145
-0.2462764233 0.0074125468 -0.2968259454
-0.2445787191 0.0074583325 -0.2971479595
-0.2435906529 0.0073164436 -0.2981411219
-0.2425988913 0.0071773143 -0.2991309464
-0.2409008294 0.0072326972 -0.2994322181
-0.2392044961 0.0072915987 -0.2997248471
-0.2382071912 0.0071612136 -0.3006992936
-0.2365117669 0.0072264955 -0.3009772003
-0.2362017184 0.0069085029 -0.3026381433
-0.2351935953 0.0067862398 -0.3036024868
-0.2341818660 0.0066666105 -0.3045634329
-0.2338500768 0.0063553806 -0.3062246740
-0.2335090935 0.0060462542 -0.3078876734
-0.2318033427 0.0061290446 -0.3081345856
-0.2300996482 0.0062151724 -0.3083728850
-0.2290703058 0.0061090654 -0.3093166053
-0.2280374914 0.0060056476 -0.3102568686
-0.2270012051 0.0059049334 -0.3111935556
-0.2266252339 0.0056105875 -0.3128485382
-0.2255792171 0.0055150697 -0.3137807548
-0.2238717228 0.0056191185 -0.3139825761
-0.2234769315 0.0053321016 -0.3156345487
-0.2230729312 0.0050473958 -0.3172878921
-0.2213610411 0.0051600961 -0.3174739778
-0.2202980369 0.0050781034 -0.3183882535
-0.2796024084 0.0107419938 -0.2675013542
-0.2779347301 0.0106891999 -0.2680253088
-0.2778397501 0.0102809826 -0.2697231472
-0.2753845155 0.0104150875 -0.2696411610
-0.2744974792 0.0101925200 -0.2707389295
-0.2736062109 0.0099726412 -0.2718338072
-0.2719342113 0.0099374605 -0.2723226845
-0.2702628672 0.0099061569 -0.2728027403
-0.2693640590 0.0096954964 -0.2738829553
-0.2692304850 0.0093036368 -0.2755721211
-0.2683211267 0.0090977401 -0.2766493261
-0.2681720853 0.0087096579 -0.2783411443
-0.2664901316 0.0086939679 -0.2787947059
-0.2655685544 0.0084961699 -0.2798629403
-0.2646428943 0.0083009684 -0.2809280455
-0.2622042596 0.0084824516 -0.2807319462
-0.2612756789 0.0082937414 -0.2817852497
-0.2603431046 0.0081076771 -0.2828355134
-0.2586596906 0.0081128217 -0.2832450569
-0.2577217817 0.0079326266 -0.2842862904
-0.2567799389 0.0077551114 -0.2853244245
-0.2558342218 0.0075802649 -0.2863593996
-0.2548846304 0.0074081607 -0.2873912454
-0.2539311647 0.0072386819 -0.2884199917
-0.2522422969 0.0072632344 -0.2887910604
-0.2520127296 0.0069078743 -0.2904678583
-0.2510477006 0.0067465021 -0.2914870083
-0.2493552119 0.0067804931 -0.2918402255
-0.2483852655 0.0066248961 -0.2928502262
-0.2474115193 0.0064720525 -0.2938568890
-0.2471497953 0.0061280224 -0.2955312729
-0.2454527915 0.0061744200 -0.2958605289
-0.2444678694 0.0060296333 -0.2968574464
-0.2434791923 0.0058875908 -0.2978510857
-0.2424868345 0.0057482328 -0.2988413870
-0.2414907813 0.0056115752 -0.2998283505
-0.2397914827 0.0056738094 -0.3001249135
-0.2387908250 0.0055428920 -0.3011025190
-0.2363982946 0.0058084745 -0.3006919920
-0.2360873073 0.0054864702 -0.3023526073
-0.2350785583 0.0053640301 -0.3033173978
-0.2340663075 0.0052442849 -0.3042788506
-0.2337335646 0.0049290876 -0.3059398234
-0.2327113748 0.0048144152 -0.3068969846
-0.2310081273 0.0049012802 -0.3071426451
-0.2293069810 0.0049915048 -0.3073796034
-0.2276079655 0.0050849747 -0.3076079488
-0.2265802026 0.0049820635 -0.3085435629
-0.2262152582 0.0046818526 -0.3101941049
-0.2251777947 0.0045840237 -0.3111252785
-0.2241368890 0.0044889459 -0.3120529354
-0.2230926007 0.0043965471 -0.3129770756
-0.2226996720 0.0041059111 -0.3146261871
-0.2216457427 0.0040186956 -0.3155457079
-0.2199393958 0.0041356580 -0.3157280982
-0.2802959085 0.0091143278 -0.2677714229
-0.2778372467 0.0092473524 -0.2677120864
-0.2769555151 0.0090184631 -0.2688189745
-0.2760696411 0.0087922337 -0.2699230313
-0.2743984163 0.0087534720 -0.2704277635
-0.2735064924 0.0085332161 -0.2715230584
-0.2726104856 0.0083156526 -0.2726154029
-0.2709363997 0.0082872640 -0.2730996609
-0.2692630589 0.0082627367 -0.2735751569
-0.2683595717 0.0080543878 -0.2746528387
-0.2674519718 0.0078487117 -0.2757275999
-0.2673044801 0.0074569616 -0.2774161398
-0.2656246722 0.0074453843 -0.2778681219
-0.2654641569 0.0070579699 -0.2795563936
-0.2645379603 0.0068624667 -0.2806219757
-0.2628534734 0.0068606082 -0.2810562253
-0.2619217336 0.0066710622 -0.2821128368
-0.2609860897 0.0064842519 -0.2831663787
-0.2592997849 0.0064924303 -0.2835800052
-0.2583586574 0.0063115326 -0.2846244872
-0.2574137151 0.0061332649 -0.2856658697
-0.2557258010 0.0061515141 -0.2860589027
-0.2555120289 0.0057848482 -0.2877392769
-0.2545554042 0.0056146821 -0.2887712121
-0.2528636456 0.0056424630 -0.2891463637
-0.2519018650 0.0054781442 -0.2901691496
-0.2502102852 0.0055126282 -0.2905296385
-0.2492434829 0.0053541712 -0.2915433049
-0.2482729405 0.0051984363 -0.2925536931
-0.2465804964 0.0052426695 -0.2928935289
-0.2470359355 0.0046972497 -0.2952348888
-0.2460514903 0.0045491746 -0.2962383032
-0.2450632453 0.0044038338 -0.2972384095
-0.2440712750 0.0042612278 -0.2982351780
-0.2430756092 0.0041213306 -0.2992286384
-0.2413742542 0.0041837995 -0.2995351851
-0.2396746874 0.0042496985 -0.2998330295
-0.2386734635 0.0041186735 -0.3008111417
-0.2369747907 0.0041911113 -0.3010942340
-0.2359690368 0.0040658610 -0.3020629585
-0.2342714369 0.0041447012 -0.3023313880
-0.2346324325 0.0036216525 -0.3046897054
-0.2336131781 0.0035041508 -0.3056508303
-0.2325904518 0.0033894069 -0.3066085875
-0.2315641344 0.0032773626 -0.3075627983
-0.2305343300 0.0031680388 -0.3085135818
-0.2281578630 0.0034680292 -0.3080358505
-0.2271267027 0.0033647113 -0.3089745343
-0.2260921001 0.0032641210 -0.3099097311
-0.2250540555 0.0031662136 -0.3108413815
-0.2240125686 0.0030710648 -0.3117695153
-0.2229676843 0.0029786162 -0.3126941621
-0.2219193876 0.0028888991 -0.3136152625
-0.2794041634 0.0078528216 -0.2668683529
-0.2777357399 0.0078070518 -0.2673948109
-0.2768533826 0.0075777634 -0.2685021460
-0.2759668827 0.0073511777 -0.2696066201
-0.2742952704 0.0073158555 -0.2701126039
-0.2734027803 0.0070952768 -0.2712082863
-0.2725061476 0.0068773599 -0.2723010778
-0.2708317637 0.0068524843 -0.2727866173
-0.2699292898 0.0066405605 -0.2738705873
-0.2682538629 0.0066228043 -0.2743414342
-0.2673456967 0.0064167907 -0.2754166126
-0.2671973705 0.0060208780 -0.2771047354
-0.2662785947 0.0058197374 -0.2781768143
-0.2653557360 0.0056212433 -0.2792458236
-0.2644289434 0.0054255212 -0.2803118527
-0.2627441287 0.0054271775 -0.2807473540
-0.2618118227 0.0052373591 -0.2818044126
-0.2608755231 0.0050502387 -0.2828584015
-0.2591889203 0.0050620590 -0.2832733095
-0.2575034499 0.0050775823 -0.2836794257
-0.2565603852 0.0048995749 -0.2847184241
-0.2556134760 0.0047242115 -0.2857543528
-0.2546626627 0.0045515918 -0.2867871225
-0.2537079751 0.0043816650 -0.2878167033
-0.2527494729 0.0042144093 -0.2888431847
-0.2517871261 0.0040498939 -0.2898664176
-0.2508209050 0.0038880880 -0.2908864617
-0.2491278201 0.0039293501 -0.2912422717
-0.2481566966 0.0037733656 -0.2922531366
-0.2464639992 0.0038213399 -0.2925942838
-0.2462030500 0.0034695414 -0.2942651808
-0.2459331304 0.0031196822 -0.2959383428
-0.2442345321 0.0031765839 -0.2962641716
-0.2432446480 0.0030341353 -0.2972587347
-0.2429554760 0.0026912445 -0.2989300787
-0.2419555336 0.0025539391 -0.2999206781
-0.2402529716 0.0026231848 -0.3002225161
-0.2392484248 0.0024916499 -0.3012037575
-0.2375467420 0.0025674638 -0.3014908135
-0.2365377396 0.0024416891 -0.3024626970
-0.2348370850 0.0025239370 -0.3027350307
-0.2345088124 0.0021983180 -0.3043961227
-0.2334890515 0.0020807160 -0.3053577840
-0.2331453264 0.0017595767 -0.3070198596
-0.2321156561 0.0016471258 -0.3079772294
-0.2304084301 0.0017442637 -0.3082219958
-0.2280320674 0.0020519202 -0.3077463806
-0.2270003259 0.0019484945 -0.3086854815
-0.2266306877 0.0016401188 -0.3103380203
-0.2255892307 0.0015418720 -0.3112727702
-0.2776300907 0.0063681952 -0.2670735717
-0.2767471373 0.0061385324 -0.2681812644
-0.2758600116 0.0059115468 -0.2692861557
-0.2741881013 0.0058797696 -0.2697933912
-0.2732949853 0.0056588002 -0.2708894908
-0.2723977268 0.0054405443 -0.2719826698
-0.2707230151 0.0054192054 -0.2724694908
-0.2690490186 0.0054017310 -0.2729474604
-0.2681442797 0.0051926649 -0.2740260065
-0.2672354281 0.0049863644 -0.2751015425
-0.2663225830 0.0047827554 -0.2761741877
-0.2654057145 0.0045818384 -0.2772437632
-0.2652433813 0.0041860142 -0.2789312303
-0.2643159628 0.0039899899 -0.2799977064
-0.2626308203 0.0039952737 -0.2804344594
-0.2616979182 0.0038051079 -0.2814919353
-0.2607610226 0.0036177619 -0.2825463116
-0.2583280504 0.0038332439 -0.2823274136
-0.2573883235 0.0036522385 -0.2833699882
-0.2564446926 0.0034739978 -0.2844093740
-0.2554971576 0.0032983699 -0.2854457796
-0.2545457780 0.0031254934 -0.2864789665
-0.2535904944 0.0029552875 -0.2875089943
-0.2526313961 0.0027878722 -0.2885358930
-0.2523964345 0.0024197346 -0.2902143300
-0.2507016361 0.0024610888 -0.2905801535
-0.2490082681 0.0025059942 -0.2909371853
-0.2480365634 0.0023498340 -0.2919485271
-0.2456261069 0.0026065372 -0.2916252017
-0.2453669906 0.0022510877 -0.2932930589
-0.2443866283 0.0021034477 -0.2942919433
-0.2434025705 0.0019585285 -0.2952875197
-0.2417080551 0.0020230038 -0.2956032455
-0.2421274334 0.0014697688 -0.2979481816
-0.2418309599 0.0011251522 -0.2996185124
-0.2401281148 0.0011981695 -0.2999216020
-0.2391230315 0.0010664513 -0.3009033501
-0.2381142527 0.0009374605 -0.3018817008
-0.2364114970 0.0010200945 -0.3021640480
-0.2347105891 0.0011061211 -0.3024376631
-0.2343814224 0.0007764465 -0.3040985167
-0.2333610207 0.0006587519 -0.3050605655
-0.2323371023 0.0005437459 -0.3060192466
-0.2313096523 0.0004315208 -0.3069744706
-0.2302786708 0.0003219809 -0.3079262376
-0.2285733521 0.0004262470 -0.3081636131
-0.2275382280 0.0003224832 -0.3091058731
-0.2775204480 0.0049308147 -0.2667483687
-0.2766368687 0.0047008218 -0.2678564489
-0.2757490873 0.0044734841 -0.2689616978
-0.2740768492 0.0044451975 -0.2694702148
-0.2731831372 0.0042238375 -0.2705667317
-0.2722852528 0.0040052286 -0.2716602981
-0.2706102431 0.0039874208 -0.2721483409
-0.2697065473 0.0037748043 -0.2732331753
-0.2680305541 0.0037640794 -0.2737065554
-0.2671211958 0.0035574257 -0.2747825682
-0.2662077248 0.0033534854 -0.2758555710
-0.2645294368 0.0033531056 -0.2763084769
-0.2628520131 0.0033564984 -0.2767525911
-0.2619314790 0.0031617573 -0.2778108120
-0.2610069215 0.0029696675 -0.2788660526
-0.2600784302 0.0027802831 -0.2799182236
-0.2598943114 0.0023901600 -0.2815988660
-0.2589553595 0.0022057230 -0.2826477289
-0.2572692931 0.0022284400 -0.2830564678
-0.2570657134 0.0018449324 -0.2847363055
-0.2561150193 0.0016686484 -0.2857758701
-0.2544249594 0.0017008967 -0.2861667275
-0.2542019784 0.0013241709 -0.2878455818
-0.2532396615 0.0011559626 -0.2888756990
-0.2522735000 0.0009905699 -0.2899026275
-0.2505784333 0.0010355375 -0.2902697027
-0.2488848567 0.0010841246 -0.2906281054
-0.2471927702 0.0011362488 -0.2909777462
-0.2455021888 0.0011919573 -0.2913186550
-0.2445276380 0.0010418323 -0.2923184931
-0.2435493916 0.0008944126 -0.2933150828
-0.2425674200 0.0007496818 -0.2943084240
-0.2408754081 0.0008182187 -0.2946227789
-0.2412962168 0.0002574750 -0.2969637811
-0.2403005213 0.0001204936 -0.2979499996
-0.2393011898 -0.0000137243 -0.2989328504
-0.2382982075 -0.0001452235 -0.2999123633
-0.2372915894 -0.0002740029 -0.3008885086
-0.2355913520 -0.0001873060 -0.3011694849
-0.2345802933 -0.0003102845 -0.3021362722
-0.2342501730 -0.0006439095 -0.3037967086
-0.2332292348 -0.0007617417 -0.3047592938
-0.2322047502 -0.0008768776 -0.3057184517
-0.2311767042 -0.0009892561 -0.3066741824
-0.2774066329 0.0034950071 -0.2664191127
-0.2765224874 0.0032646006 -0.2675276399
-0.2764164209 0.0028373448 -0.2692232728
-0.2747415304 0.0028119392 -0.2697360218
-0.2738448083 0.0025897028 -0.2708358169
-0.2729439437 0.0023701109 -0.2719327807
-0.2712661922 0.0023552196 -0.2724249959
-0.2695891261 0.0023441894 -0.2729084492
-0.2679128647 0.0023370022 -0.2733831108
-0.2677683234 0.0019264150 -0.2750700712
-0.2660888135 0.0019257619 -0.2755329311
-0.2644102573 0.0019289210 -0.2759871185
-0.2627325952 0.0019358523 -0.2764325440
-0.2618114650 0.0017408259 -0.2774911821
-0.2601333559 0.0017547359 -0.2779219747
-0.2592068017 0.0015656058 -0.2789717615
-0.2590242028 0.0011718535 -0.2806490362
-0.2588326335 0.0007797783 -0.2823289633
-0.2578891516 0.0005977715 -0.2833752036
-0.2562014759 0.0006272887 -0.2837792337
-0.2552527785 0.0004511862 -0.2848164141
-0.2543001771 0.0002778042 -0.2858505249
-0.2533437312 0.0001071366 -0.2868814766
-0.2523834407 -0.0000607690 -0.2879092395
-0.2521466613 -0.0004370786 -0.2895868719
-0.2504513264 -0.0003884675 -0.2899552584
-0.2487574816 -0.0003362666 -0.2903149426
-0.2477845848 -0.0004928499 -0.2913271785
-0.2460911274 -0.0004339195 -0.2916720808
-0.2443992645 -0.0003714119 -0.2920084298
-0.2434204370 -0.0005190068 -0.2930054665
-0.2417291701 -0.0004499320 -0.2933270633
-0.2407456338 -0.0005916703 -0.2943148613
-0.2411651760 -0.0011604066 -0.2966546416
-0.2401689142 -0.0012974790 -0.2976413071
-0.2391689569 -0.0014318649 -0.2986246049
-0.2381654382 -0.0015635161 -0.2996046245
-0.2371582538 -0.0016924393 -0.3005812168
-0.2354577631 -0.0016019784 -0.3008635044
-0.2344461679 -0.0017251455 -0.3018307388
-0.2334309816 -0.0018455359 -0.3027945757
-0.2330936044 -0.0021807572 -0.3044538796
-0.2313899696 -0.0020780880 -0.3047120571
-0.2764040530 0.0018299619 -0.2671948075
-0.2762970626 0.0013984932 -0.2688898742
-0.2746219039 0.0013765289 -0.2694039643
-0.2737245858 0.0011538939 -0.2705041766
-0.2728230953 0.0009340700 -0.2716015279
-0.2711450160 0.0009226483 -0.2720950246
-0.2694677413 0.0009150822 -0.2725797892
-0.2685587406 0.0007045318 -0.2736623883
-0.2676456869 0.0004966776 -0.2747421563
-0.2659659386 0.0004995338 -0.2752063572
-0.2642871141 0.0005062463 -0.2756618261
-0.2626091838 0.0005167323 -0.2761085033
-0.2616874576 0.0003213915 -0.2771675587
-0.2600091100 0.0003388543 -0.2775996625
-0.2590819597 0.0001494251 -0.2786498368
-0.2588984370 -0.0002484303 -0.2803266644
-0.2579608858 -0.0004329426 -0.2813735902
-0.2570193708 -0.0006147221 -0.2824174166
-0.2553340495 -0.0005811984 -0.2828199863
-0.2543873489 -0.0007570142 -0.2838547826
-0.2534367144 -0.0009301701 -0.2848864794
-0.2524822950 -0.0011005948 -0.2859150767
-0.2515240014 -0.0012683499 -0.2869404852
-0.2512888610 -0.0016482513 -0.2886148989
-0.2503203154 -0.0018109857 -0.2896367311
-0.2486262769 -0.0017551176 -0.2899977267
-0.2476527840 -0.0019118892 -0.2910104096
-0.2459590882 -0.0018493448 -0.2913566828
-0.2442670166 -0.0017831837 -0.2916942239
-0.2425765395 -0.0017135408 -0.2920230925
-0.2415961325 -0.0018581874 -0.2930146456
-0.2399063557 -0.0017818909 -0.2933288217
-0.2403272837 -0.0023580773 -0.2956646979
-0.2393331379 -0.0024949734 -0.2966490686
-0.2383353859 -0.0026291315 -0.2976301610
-0.2366391867 -0.0025408450 -0.2979231477
-0.2363290042 -0.0028892739 -0.2995824218
-0.2346311212 -0.0027948527 -0.2998633087
-0.2336217016 -0.0029177254 -0.3008283973
-0.2332924902 -0.0032590120 -0.3024854362
-0.2762815058 0.0003968515 -0.2668579817
-0.2761736214 -0.0000388306 -0.2685526013
-0.2752774954 -0.0002651131 -0.2696590722
-0.2743771672 -0.0004887065 -0.2707626820
-0.2726981640 -0.0005005091 -0.2712662816
-0.2710198462 -0.0005084058 -0.2717610300
-0.2685726583 -0.0003022990 -0.2716442049
-0.2684327364 -0.0007233362 -0.2733301520
-0.2667543292 -0.0007202302 -0.2738015354
-0.2658390701 -0.0009251324 -0.2748757601
-0.2641599774 -0.0009148948 -0.2753324807
-0.2632391751 -0.0011138100 -0.2763978541
-0.2615595460 -0.0010965100 -0.2768400013
-0.2606332302 -0.0012894856 -0.2778964341
-0.2597029209 -0.0014796747 -0.2789498568
-0.2595160007 -0.0018821728 -0.2806290984
-0.2585752904 -0.0020674595 -0.2816792727
-0.2576306760 -0.0022500074 -0.2827263772
-0.2559425235 -0.0022133288 -0.2831330299
-0.2549926639 -0.0023899495 -0.2841711044
-0.2525700927 -0.0021289627 -0.2839201987
-0.2516176403 -0.0022991763 -0.2849463820
-0.2513906062 -0.0026850079 -0.2866179347
-0.2511545420 -0.0030690196 -0.2882919312
-0.2501854002 -0.0032319578 -0.2893142104
-0.2492124587 -0.0033921460 -0.2903332710
-0.2475170791 -0.0033294510 -0.2906895876
-0.2465392500 -0.0034837488 -0.2916994989
-0.2448443025 -0.0034143580 -0.2920411229
-0.2431509346 -0.0033414254 -0.2923740149
-0.2414592803 -0.0032649469 -0.2926982343
-0.2404746264 -0.0034070758 -0.2936869562
-0.2394863218 -0.0035464976 -0.2946723700
-0.2384943515 -0.0036832120 -0.2956545651
-0.2374987304 -0.0038171629 -0.2966334224
-0.2358051091 -0.0037248062 -0.2969250381
-0.2354967296 -0.0040769163 -0.2985812426
-0.2344903350 -0.0042026686 -0.2995500863
-0.2334803343 -0.0043257368 -0.3005155623
-0.2760461271 -0.0014745501 -0.2682113349
-0.2751493454 -0.0017012373 -0.2693181336
-0.2742484212 -0.0019251524 -0.2704221308
-0.2725691795 -0.0019334691 -0.2709270120
-0.2708906531 -0.0019378943 -0.2714231014
-0.2692128420 -0.0019384782 -0.2719104588
-0.2690694928 -0.0023642469 -0.2735987604
-0.2681528330 -0.0025732701 -0.2746821642
-0.2664701343 -0.0025639352 -0.2751519084
-0.2647883296 -0.0025506914 -0.2756128013
-0.2638644278 -0.0027504705 -0.2766814828
-0.2614276409 -0.0025128638 -0.2765084207
-0.2605007291 -0.0027061016 -0.2775652707
-0.2603193223 -0.0031149269 -0.2792442143
-0.2593820095 -0.0033031902 -0.2802978456
-0.2584407032 -0.0034887695 -0.2813484669
-0.2574954927 -0.0036716084 -0.2823958993
-0.2558071613 -0.0036313520 -0.2828039229
-0.2548567057 -0.0038082127 -0.2838423550
-0.2531683743 -0.0037610312 -0.2842357159
-0.2522127628 -0.0039319610 -0.2852651775
-0.2512533367 -0.0041001285 -0.2862914205
-0.2510162890 -0.0044881995 -0.2879648805
-0.2500466108 -0.0046513705 -0.2889876664
-0.2490731180 -0.0048117898 -0.2900071442
-0.2473775297 -0.0047454559 -0.2903648019
-0.2463990897 -0.0048999353 -0.2913751006
-0.2447039932 -0.0048269355 -0.2917180359
-0.2437207550 -0.0049754670 -0.2927191556
-0.2420261949 -0.0048957369 -0.2930473983
-0.2410382777 -0.0050384700 -0.2940392494
-0.2393445075 -0.0049520545 -0.2943528593
-0.2376524806 -0.0048622093 -0.2946577370
-0.2366590500 -0.0049959379 -0.2956343591
-0.2356620133 -0.0051269862 -0.2966076732
-0.2346613854 -0.0052552619 -0.2975776792
-0.2336572111 -0.0053808456 -0.2985443771
-0.2759145498 -0.0029086687 -0.2678660452
-0.2757957876 -0.0033511857 -0.2695626020
-0.2748918831 -0.0035760428 -0.2706698775
-0.2732099891 -0.0035815018 -0.2711789906
-0.2715288103 -0.0035830403 -0.2716793716
-0.2690794170 -0.0033628580 -0.2715698183
-0.2681686580 -0.0035743734 -0.2726536393
-0.2672538161 -0.0037832090 -0.2737345695
-0.2655734122 -0.0037697698 -0.2742026448
-0.2646529078 -0.0039725327 -0.2752746642
-0.2644850314 -0.0043931627 -0.2769592702
-0.2620458901 -0.0041487929 -0.2767913043
-0.2611158788 -0.0043428261 -0.2778514326
-0.2601819336 -0.0045341258 -0.2789085507
-0.2592440248 -0.0047226879 -0.2799625993
-0.2575581968 -0.0046853423 -0.2803837359
-0.2566149831 -0.0048678783 -0.2814287841
-0.2549290359 -0.0048236060 -0.2818352878
-0.2539805770 -0.0050002388 -0.2828713953
-0.2522946298 -0.0049490198 -0.2832632363
-0.2513410747 -0.0051196734 -0.2842902839
-0.2503836453 -0.0052875984 -0.2853141725
-0.2501482964 -0.0056793564 -0.2869844139
-0.2491806746 -0.0058422829 -0.2880047858
-0.2482092381 -0.0060024611 -0.2890219688
-0.2472340465 -0.0061599240 -0.2900359333
-0.2462550551 -0.0063145971 -0.2910466492
-0.2452723831 -0.0064664953 -0.2920542359
-0.2442859113 -0.0066156755 -0.2930584848
-0.2425885201 -0.0065326844 -0.2933908105
-0.2415973842 -0.0066759624 -0.2943858206
-0.2399006784 -0.0065862797 -0.2947033942
-0.2382057756 -0.0064931130 -0.2950122952
-0.2372090816 -0.0066273645 -0.2959920764
-0.2362087518 -0.0067589213 -0.2969685495
-0.2352048606 -0.0068877121 -0.2979416847
-0.2749982178 -0.0041225245 -0.2669312954
-0.2748809755 -0.0045685787 -0.2686243653
-0.2739788890 -0.0047932621 -0.2697290778
-0.2722991705 -0.0047946419 -0.2702366114
-0.2706201971 -0.0047920528 -0.2707352638
-0.2689419389 -0.0047856560 -0.2712252140
-0.2687966824 -0.0052197594 -0.2729124725
-0.2678788304 -0.0054294406 -0.2739966512
-0.2661957741 -0.0054130456 -0.2744689882
-0.2645134926 -0.0053927829 -0.2749325037
-0.2643446624 -0.0058175884 -0.2766166329
-0.2626594007 -0.0057907496 -0.2770683765
-0.2609751523 -0.0057601244 -0.2775113881
-0.2607892454 -0.0061777332 -0.2791921496
-0.2598482370 -0.0063670841 -0.2802494466
-0.2574161291 -0.0060996288 -0.2800458074
-0.2564723492 -0.0062824795 -0.2810913026
-0.2555246651 -0.0064625670 -0.2821336985
-0.2538371980 -0.0064115003 -0.2825355828
-0.2521510422 -0.0063566486 -0.2829287648
-0.2519276142 -0.0067570130 -0.2845992446
-0.2509670556 -0.0069256355 -0.2856263220
-0.2492771894 -0.0068612192 -0.2860016525
-0.2483116686 -0.0070239310 -0.2870196998
-0.2480624914 -0.0074150958 -0.2886886597
-0.2463691980 -0.0073410985 -0.2890461981
-0.2453923523 -0.0074955500 -0.2900546193
-0.2444117218 -0.0076472783 -0.2910598516
-0.2434274107 -0.0077962731 -0.2920618355
-0.2417325675 -0.0077091660 -0.2923927009
-0.2407435477 -0.0078522526 -0.2933854759
-0.2397508025 -0.0079925423 -0.2943749130
-0.2373571098 -0.0076612807 -0.2940092087
-0.2356666625 -0.0075605279 -0.2943081558
-0.2346712500 -0.0076914895 -0.2952796817
-0.2748589218 -0.0055495962 -0.2665790021
-0.2747406960 -0.0059998478 -0.2682715058
-0.2738379836 -0.0062248753 -0.2693765461
-0.2721581161 -0.0062227878 -0.2698854208
-0.2712495327 -0.0064416155 -0.2709816992
-0.2695686519 -0.0064322613 -0.2714758515
-0.2686542869 -0.0066450643 -0.2725633681
-0.2677358389 -0.0068550897 -0.2736479342
-0.2652917504 -0.0066080499 -0.2735136151
-0.2651284635 -0.0070391609 -0.2751972675
-0.2642003000 -0.0072403392 -0.2762699723
-0.2625148594 -0.0072100032 -0.2767230570
-0.2615812421 -0.0074051600 -0.2777868807
-0.2613919079 -0.0078273797 -0.2794699371
-0.2604477704 -0.0080174971 -0.2805304825
-0.2580133080 -0.0077432026 -0.2803319097
-0.2563257813 -0.0076954481 -0.2807497978
-0.2553775311 -0.0078758420 -0.2817925811
-0.2544253469 -0.0080534285 -0.2828322649
-0.2520035803 -0.0077627334 -0.2825902998
-0.2525094748 -0.0084003992 -0.2849023342
-0.2515457273 -0.0085697314 -0.2859326601
-0.2498531193 -0.0085021714 -0.2863121629
-0.2481619567 -0.0084309122 -0.2866829038
-0.2479118258 -0.0088261133 -0.2883513570
-0.2462184280 -0.0087485118 -0.2887102067
-0.2452410161 -0.0089031793 -0.2897190750
-0.2442598492 -0.0090550873 -0.2907247543
-0.2439840138 -0.0094409576 -0.2923912704
-0.2415799946 -0.0091135288 -0.2920593619
-0.2412941009 -0.0094942646 -0.2937221229
-0.2395971715 -0.0093972553 -0.2940424383
-0.2379019856 -0.0092966966 -0.2943539917
-0.2362086475 -0.0091926986 -0.2946569324
-0.2754954398 -0.0072013438 -0.2668063343
-0.2745963633 -0.0074294615 -0.2679146528
-0.2729180157 -0.0074272952 -0.2684306502
-0.2720130086 -0.0076492629 -0.2695302665
-0.2711038589 -0.0078684865 -0.2706269324
-0.2694227993 -0.0078556500 -0.2711223960
-0.2685078382 -0.0080687515 -0.2722102702
-0.2675888538 -0.0082791038 -0.2732951939
-0.2659053504 -0.0082557332 -0.2737701833
-0.2642227709 -0.0082284305 -0.2742363513
-0.2632965744 -0.0084294258 -0.2753066123
-0.2623663843 -0.0086275963 -0.2763737738
-0.2614321411 -0.0088230679 -0.2774379253
-0.2604939640 -0.0090156989 -0.2784990668
-0.2595517933 -0.0092056384 -0.2795571387
-0.2571201921 -0.0089234198 -0.2793580592
-0.2554350793 -0.0088716606 -0.2797744274
-0.2544888258 -0.0090517811 -0.2808147967
-0.2535386980 -0.0092291674 -0.2818520367
-0.2518522441 -0.0091671562 -0.2822479010
-0.2516268790 -0.0095756790 -0.2839173079
-0.2506652176 -0.0097447494 -0.2849452198
-0.2496996969 -0.0099111265 -0.2859700024
-0.2480084002 -0.0098362872 -0.2863420844
-0.2470379919 -0.0099966964 -0.2873577774
-0.2460637540 -0.0101543041 -0.2883702517
-0.2443717718 -0.0100694774 -0.2887217104
-0.2433927357 -0.0102211758 -0.2897250354
-0.2424099743 -0.0103700981 -0.2907251418
-0.2414235324 -0.0105162254 -0.2917219698
-0.2404334396 -0.0106596919 -0.2927156091
-0.2394396216 -0.0108002927 -0.2937058806
-0.2377443910 -0.0106961159 -0.2940188348
-0.2753476501 -0.0086289821 -0.2664451897
-0.2744480371 -0.0088574262 -0.2675539255
-0.2735441327 -0.0090831323 -0.2686597109
-0.2718638778 -0.0090741040 -0.2691711485
-0.2701843381 -0.0090611847 -0.2696737945
-0.2692728937 -0.0092773763 -0.2707650065
-0.2683574259 -0.0094908178 -0.2718532383
-0.2666753829 -0.0094672479 -0.2723354399
-0.2649941742 -0.0094397776 -0.2728087902
-0.2640714645 -0.0096438145 -0.2738823295
-0.2631447017 -0.0098450910 -0.2749528885
-0.2614614666 -0.0098071601 -0.2754058242
-0.2605291903 -0.0100023625 -0.2764674723
-0.2603404224 -0.0104322722 -0.2781465948
-0.2593977153 -0.0106224716 -0.2792050540
-0.2577086985 -0.0105713820 -0.2796343267
-0.2567606866 -0.0107555557 -0.2806838453
-0.2550714910 -0.0106974188 -0.2810984850
-0.2541182339 -0.0108755333 -0.2821389735
-0.2524290979 -0.0108104609 -0.2825389504
-0.2514707148 -0.0109825460 -0.2835704386
-0.2497816235 -0.0109105418 -0.2839556932
-0.2488182187 -0.0110766888 -0.2849781513
-0.2478509843 -0.0112400344 -0.2859973311
-0.2468800098 -0.0114006447 -0.2870134413
-0.2459052652 -0.0115584889 -0.2880263329
-0.2449267358 -0.0117135448 -0.2890359759
-0.2439445257 -0.0118658384 -0.2900424600
-0.2436667681 -0.0122597562 -0.2917079926
-0.2419688404 -0.0121621229 -0.2920456529
-0.2409755290 -0.0123061249 -0.2930424213
-0.2392783463 -0.0122017590 -0.2933653891
-0.2382803708 -0.0123398248 -0.2943528593
-0.2759748995 -0.0102887778 -0.2666617632
-0.2742955387 -0.0102837468 -0.2671891749
-0.2733911574 -0.0105097471 -0.2682953179
-0.2717107534 -0.0104973270 -0.2688081264
-0.2700310349 -0.0104808873 -0.2693120837
-0.2691190541 -0.0106974272 -0.2704036534
-0.2689674795 -0.0111486930 -0.2720915079
-0.2665207982 -0.0108841434 -0.2719757557
-0.2655990422 -0.0110917920 -0.2730555236
-0.2639161646 -0.0110575538 -0.2735243738
-0.2629888356 -0.0112591060 -0.2745953202
-0.2620575130 -0.0114578726 -0.2756632864
-0.2611221969 -0.0116539076 -0.2767281830
-0.2601829171 -0.0118471617 -0.2777900994
-0.2592396736 -0.0120375929 -0.2788489759
-0.2575505078 -0.0119830323 -0.2792796195
-0.2566019297 -0.0121674165 -0.2803295255
-0.2556494176 -0.0123490440 -0.2813763022
-0.2546930313 -0.0125279017 -0.2824200094
-0.2530011535 -0.0124596730 -0.2828241289
-0.2520395815 -0.0126325237 -0.2838587761
-0.2510742247 -0.0128025766 -0.2848902941
-0.2501049936 -0.0129698077 -0.2859186530
-0.2476897091 -0.0126421535 -0.2856485546
-0.2474366724 -0.0130494796 -0.2873154581
-0.2464586943 -0.0132079264 -0.2883314788
-0.2454770058 -0.0133636519 -0.2893443406
-0.2437810749 -0.0132687809 -0.2896953523
-0.2435023338 -0.0136666605 -0.2913603485
-0.2425094098 -0.0138140088 -0.2923634648
-0.2415128350 -0.0139586059 -0.2933633626
-0.2398128957 -0.0138509572 -0.2936904132
-0.2758185565 -0.0117168268 -0.2662917674
-0.2741391063 -0.0117082903 -0.2668204606
-0.2732341588 -0.0119347060 -0.2679269910
-0.2715535462 -0.0119187804 -0.2684410810
-0.2698737085 -0.0118989106 -0.2689464390
-0.2689611912 -0.0121157756 -0.2700383067
-0.2680445611 -0.0123298792 -0.2711272836
-0.2656005621 -0.0120575121 -0.2710109055
-0.2646807432 -0.0122649074 -0.2720881402
-0.2637569010 -0.0124695906 -0.2731624544
-0.2628290355 -0.0126714613 -0.2742337883
-0.2618971765 -0.0128705390 -0.2753020823
-0.2602122128 -0.0128222546 -0.2757517695
-0.2592748702 -0.0130152795 -0.2768111825
-0.2575895488 -0.0129598984 -0.2772462368
-0.2566469014 -0.0131468484 -0.2782967091
-0.2557003200 -0.0133310081 -0.2793441415
-0.2547498643 -0.0135124186 -0.2803884745
-0.2537955046 -0.0136910295 -0.2814297676
-0.2528372705 -0.0138668539 -0.2824679017
-0.2518751919 -0.0140399346 -0.2835029662
-0.2501833737 -0.0139611773 -0.2838937938
-0.2499395013 -0.0143776927 -0.2855636477
-0.2475245893 -0.0140425703 -0.2852958739
-0.2472705692 -0.0144539541 -0.2869622111
-0.2462920696 -0.0146125993 -0.2879786491
-0.2453098148 -0.0147685474 -0.2889919281
-0.2436138093 -0.0146700284 -0.2893442512
-0.2447487414 -0.0155759854 -0.2923296094
-0.2430452555 -0.0154718803 -0.2926754057
-0.2420454174 -0.0156169841 -0.2936784029
-0.2748799920 -0.0129015958 -0.2653381526
-0.2739785910 -0.0131311398 -0.2664478719
-0.2730730772 -0.0133579206 -0.2675547004
-0.2706213295 -0.0130952289 -0.2674816549
-0.2697123885 -0.0133152027 -0.2685768008
-0.2687993050 -0.0135324327 -0.2696690857
-0.2671184838 -0.0135017904 -0.2701610923
-0.2646772861 -0.0132215731 -0.2700441778
-0.2637594044 -0.0134287542 -0.2711188495
-0.2628374994 -0.0136331068 -0.2721906304
-0.2611578405 -0.0135874664 -0.2726504803
-0.2602304220 -0.0137857785 -0.2737134397
-0.2592990994 -0.0139813442 -0.2747733593
-0.2591099143 -0.0144229559 -0.2764477730
-0.2574245036 -0.0143640675 -0.2768841386
-0.2564812601 -0.0145512698 -0.2779349983
-0.2562726736 -0.0149861425 -0.2796088755
-0.2545832098 -0.0149173737 -0.2800275683
-0.2536282837 -0.0150962444 -0.2810692191
-0.2526695132 -0.0152723277 -0.2821077704
-0.2509788275 -0.0151932603 -0.2825058401
-0.2500149906 -0.0153633347 -0.2835353613
-0.2490472943 -0.0155305704 -0.2845616937
-0.2466353774 -0.0151876537 -0.2842935324
-0.2463830113 -0.0156025849 -0.2859565020
-0.2454066426 -0.0157610532 -0.2869705558
-0.2444265634 -0.0159167144 -0.2879814804
-0.2434426844 -0.0160696171 -0.2889891565
-0.2431619912 -0.0164755397 -0.2906530499
-0.2421679795 -0.0166232437 -0.2916570008
-0.2404688895 -0.0165115166 -0.2919928133
-0.2745894790 -0.0147982342 -0.2666529417
-0.2736809850 -0.0150259631 -0.2677630484
-0.2719977498 -0.0150037687 -0.2682828009
-0.2703152299 -0.0149775604 -0.2687937617
-0.2678678036 -0.0146990912 -0.2687025368
-0.2669525146 -0.0149132749 -0.2697892785
-0.2645116746 -0.0146258017 -0.2696746588
-0.2635932565 -0.0148332482 -0.2707497478
-0.2619150281 -0.0147874216 -0.2712168396
-0.2609910369 -0.0149888014 -0.2722830772
-0.2600631118 -0.0151873706 -0.2733463645
-0.2598794401 -0.0156354159 -0.2750203013
-0.2589410543 -0.0158289745 -0.2760804296
-0.2579986751 -0.0160197206 -0.2771375477
-0.2563118041 -0.0159540009 -0.2775693834
-0.2553641796 -0.0161387529 -0.2786175907
-0.2551480532 -0.0165753718 -0.2802905738
-0.2541900277 -0.0167549532 -0.2813354433
-0.2524979115 -0.0166760925 -0.2817436457
-0.2515347004 -0.0168496240 -0.2827794254
-0.2498427182 -0.0167637691 -0.2831729949
-0.2488745302 -0.0169312414 -0.2841997147
-0.2471828014 -0.0168384109 -0.2845785916
-0.2462096959 -0.0169998556 -0.2855962813
-0.2452328056 -0.0171585437 -0.2866107523
-0.2442521304 -0.0173143987 -0.2876220345
-0.2432677895 -0.0174674690 -0.2886300981
-0.2429860830 -0.0178773906 -0.2902934551
-0.2412879169 -0.0177652333 -0.2906365991
-0.2744204998 -0.0162214041 -0.2662714422
-0.2735114396 -0.0164494906 -0.2673819363
-0.2718280554 -0.0164238401 -0.2679029703
-0.2701454461 -0.0163941942 -0.2684152722
-0.2684635818 -0.0163606014 -0.2689187825
-0.2667825818 -0.0163230076 -0.2694135606
-0.2651023865 -0.0162815079 -0.2698995173
-0.2634231448 -0.0162360389 -0.2703767121
-0.2625001669 -0.0164410882 -0.2714491785
-0.2623259425 -0.0168981533 -0.2731254995
-0.2613924444 -0.0170981940 -0.2741949260
-0.2604549229 -0.0172953606 -0.2752612829
-0.2595134377 -0.0174897183 -0.2763246596
-0.2578253746 -0.0174242966 -0.2767666578
-0.2561384141 -0.0173550788 -0.2771998644
-0.2551902235 -0.0175400134 -0.2782484293
-0.2542381585 -0.0177221615 -0.2792938650
-0.2532821894 -0.0179015491 -0.2803362906
-0.2523223758 -0.0180781428 -0.2813755572
-0.2520858347 -0.0185118765 -0.2830471098
-0.2496666014 -0.0181624424 -0.2828066647
-0.2486979216 -0.0183301736 -0.2838338017
-0.2470061332 -0.0182337500 -0.2842140496
-0.2460324764 -0.0183954556 -0.2852320671
-0.2443411052 -0.0182921179 -0.2855976820
-0.2440739125 -0.0187103655 -0.2872586548
-0.2423804253 -0.0186005887 -0.2876122892
-0.2421004325 -0.0190141257 -0.2892723083
-0.2411080897 -0.0191617794 -0.2902743220
-0.2725657523 -0.0176171605 -0.2664142847
-0.2724240124 -0.0180969164 -0.2681047022
-0.2699716985 -0.0178091023 -0.2680329084
-0.2682897747 -0.0177720245 -0.2685377896
-0.2666086555 -0.0177309904 -0.2690338790
-0.2656882405 -0.0179430377 -0.2701183856
-0.2632490993 -0.0176371038 -0.2699997723
-0.2623255551 -0.0178424474 -0.2710725665
-0.2613980472 -0.0180449579 -0.2721423805
-0.2604664862 -0.0182447284 -0.2732092440
-0.2602782547 -0.0187014081 -0.2748847604
-0.2593362629 -0.0188960545 -0.2759484947
-0.2583903074 -0.0190879032 -0.2770091593
-0.2567007542 -0.0190156586 -0.2774466276
-0.2557494938 -0.0192013942 -0.2784983814
-0.2540597916 -0.0191220120 -0.2789211273
-0.2538352013 -0.0195643995 -0.2805925906
-0.2521429360 -0.0194784403 -0.2810035348
-0.2511787713 -0.0196524486 -0.2820401192
-0.2494866401 -0.0195594281 -0.2824364007
-0.2477959991 -0.0194627307 -0.2828239799
-0.2461068183 -0.0193622708 -0.2832027972
-0.2458514571 -0.0197892766 -0.2848639488
-0.2441600561 -0.0196823552 -0.2852309048
-0.2431810498 -0.0198381972 -0.2862402201
-0.2421983331 -0.0199912321 -0.2872463167
-0.2419173270 -0.0204087626 -0.2889057398
-0.2402217686 -0.0202889461 -0.2892489135
-0.2714767456 -0.0192587394 -0.2671316266
-0.2697939575 -0.0192222428 -0.2676466405
-0.2681119442 -0.0191817321 -0.2681528628
-0.2671926022 -0.0193974469 -0.2692435384
-0.2655098438 -0.0193495695 -0.2697351873
-0.2638279796 -0.0192977767 -0.2702179849
-0.2629013956 -0.0195039492 -0.2712939978
-0.2627226710 -0.0199697968 -0.2729719281
-0.2617855966 -0.0201709177 -0.2740449011
-0.2615912855 -0.0206327718 -0.2757254541
-0.2606436610 -0.0208287612 -0.2767952681
-0.2589503825 -0.0207573511 -0.2772457302
-0.2572582066 -0.0206820648 -0.2776873708
-0.2563038170 -0.0208685417 -0.2787423134
-0.2546115518 -0.0207861867 -0.2791693211
-0.2529205382 -0.0206999350 -0.2795875371
-0.2519596815 -0.0208769608 -0.2806276083
-0.2502687871 -0.0207836684 -0.2810312212
-0.2493028492 -0.0209546611 -0.2820622027
-0.2483330667 -0.0211228263 -0.2830900550
-0.2466412932 -0.0210192446 -0.2834731042
-0.2456666231 -0.0211813506 -0.2844918966
-0.2446881533 -0.0213406347 -0.2855075300
-0.2437059283 -0.0214970987 -0.2865199149
-0.2427200377 -0.0216507781 -0.2875291705
-0.2410255224 -0.0215305854 -0.2878796756
-0.2400348932 -0.0216781963 -0.2888797522
-0.2696122229 -0.0206335708 -0.2672564089
-0.2679301500 -0.0205896106 -0.2677640617
-0.2670103014 -0.0208056644 -0.2688550651
-0.2660863400 -0.0210189242 -0.2699431479
-0.2651582658 -0.0212293547 -0.2710282505
-0.2642262280 -0.0214369819 -0.2721104622
-0.2640414536 -0.0219080020 -0.2737934589
-0.2623499334 -0.0218436867 -0.2742657959
-0.2606594861 -0.0217754859 -0.2747294307
-0.2597138882 -0.0219712555 -0.2757967412
-0.2580231130 -0.0218958016 -0.2762456834
-0.2563335001 -0.0218165014 -0.2766858637
-0.2553811967 -0.0220027585 -0.2777383626
-0.2536914647 -0.0219163205 -0.2781638801
-0.2534648180 -0.0223668143 -0.2798340023
-0.2510442734 -0.0220029037 -0.2796182632
-0.2500816584 -0.0221769214 -0.2806527317
-0.2491151989 -0.0223481264 -0.2816841006
-0.2481448799 -0.0225165170 -0.2827123106
-0.2464530915 -0.0224093813 -0.2830967307
-0.2461929917 -0.0228448156 -0.2847593129
-0.2444989383 -0.0227311589 -0.2851318419
-0.2435162663 -0.0228878707 -0.2861446738
-0.2425298393 -0.0230416823 -0.2871543169
-0.2415396869 -0.0231927224 -0.2881606817
-0.2701922059 -0.0223096553 -0.2674476206
-0.2685076594 -0.0222628918 -0.2679595053
-0.2675848305 -0.0224798694 -0.2690537870
-0.2666578293 -0.0226939898 -0.2701451182
-0.2649709284 -0.0226364210 -0.2706364989
-0.2640383244 -0.0228443183 -0.2717190087
-0.2631016970 -0.0230493750 -0.2727985680
-0.2614126801 -0.0229810607 -0.2732694149
-0.2612163126 -0.0234510787 -0.2749485970
-0.2595244050 -0.0233759731 -0.2754077017
-0.2585743368 -0.0235692114 -0.2764723301
-0.2568821311 -0.0234868936 -0.2769167125
-0.2559266984 -0.0236739200 -0.2779723704
-0.2542344332 -0.0235844497 -0.2784021497
-0.2532738149 -0.0237653404 -0.2794488370
-0.2515815198 -0.0236687269 -0.2798638940
-0.2498906106 -0.0235683676 -0.2802703083
-0.2482011616 -0.0234642234 -0.2806680202
-0.2472330183 -0.0236323923 -0.2816937864
-0.2462610751 -0.0237977188 -0.2827164531
-0.2452853769 -0.0239602290 -0.2837359309
-0.2443059087 -0.0241199117 -0.2847522795
-0.2440319359 -0.0245545264 -0.2864134014
-0.2430423200 -0.0247090347 -0.2874261439
-0.2690801919 -0.0239418615 -0.2681489885
-0.2681543529 -0.0241597258 -0.2692464888
-0.2664665282 -0.0241026971 -0.2697480619
-0.2647795975 -0.0240416210 -0.2702409029
-0.2638464868 -0.0242498331 -0.2713236809
-0.2629093230 -0.0244552214 -0.2724035680
-0.2612203658 -0.0243834779 -0.2728758752
-0.2602776587 -0.0245826133 -0.2739467919
-0.2593310475 -0.0247789025 -0.2750147879
-0.2583804429 -0.0249724202 -0.2760796845
-0.2574259043 -0.0251630824 -0.2771416008
-0.2564673722 -0.0253508426 -0.2782004476
-0.2540400624 -0.0249809306 -0.2780126929
-0.2530788779 -0.0251620188 -0.2790596783
-0.2506593764 -0.0247835126 -0.2788488269
-0.2489711642 -0.0246791523 -0.2792538404
-0.2480063140 -0.0248503033 -0.2802830637
-0.2463183105 -0.0247388780 -0.2806734145
-0.2453485429 -0.0249040052 -0.2816936672
-0.2450890541 -0.0253469646 -0.2833521068
-0.2671993077 -0.0252946913 -0.2682551742
-0.2655139565 -0.0252336282 -0.2687552273
-0.2645843625 -0.0254449807 -0.2698413432
-0.2628984153 -0.0253764894 -0.2703267336
-0.2619632483 -0.0255816504 -0.2714040279
-0.2610240281 -0.0257839691 -0.2724783123
-0.2608256042 -0.0262620449 -0.2741560340
-0.2591337264 -0.0261800475 -0.2746179402
-0.2581825852 -0.0263737589 -0.2756831944
-0.2572275102 -0.0265646707 -0.2767454386
-0.2562685013 -0.0267527457 -0.2778045833
-0.2545736730 -0.0266567376 -0.2782400250
-0.2528801560 -0.0265569165 -0.2786666453
-0.2504611909 -0.0261710715 -0.2784582675
-0.2487729937 -0.0260631777 -0.2788646221
-0.2478076369 -0.0262345765 -0.2798942626
-0.2660720348 -0.0269144196 -0.2689422965
-0.2643851340 -0.0268464852 -0.2694378793
-0.2626992166 -0.0267746020 -0.2699247003
-0.2610142529 -0.0266987272 -0.2704027295
-0.2600770891 -0.0269007571 -0.2714744508
-0.2598801553 -0.0273823626 -0.2731485665
-0.2581908107 -0.0272963326 -0.2736089528
-0.2572417557 -0.0274898410 -0.2746717036
-0.2570252717 -0.0279644784 -0.2763453126
-0.2560657561 -0.0281527787 -0.2774048150
-0.2543709874 -0.0280532818 -0.2778416276
-0.2526774704 -0.0279499646 -0.2782697380
-0.2509852946 -0.0278427508 -0.2786890566
-0.2651126087 -0.0280341376 -0.2679438591
-0.2641819715 -0.0282461513 -0.2690305412
-0.2624960840 -0.0281707868 -0.2695187628
-0.2608111799 -0.0280914307 -0.2699982226
-0.2598735094 -0.0282937884 -0.2710702419
-0.2589318454 -0.0284932815 -0.2721393108
-0.2579862475 -0.0286899041 -0.2732053995
-0.2570366561 -0.0288837198 -0.2742684484
-0.2575550973 -0.0296500940 -0.2765541375
-0.2565925121 -0.0298391785 -0.2776168287
-0.2548951805 -0.0297366697 -0.2780578732
-0.2531991601 -0.0296302941 -0.2784901857
-0.2515044212 -0.0295201354 -0.2789137959
-0.2649060190 -0.0294315573 -0.2675323486
-0.2639748454 -0.0296438765 -0.2686193585
-0.2622890472 -0.0295650903 -0.2691089809
-0.2606042325 -0.0294822957 -0.2695898712
-0.2589204013 -0.0293955728 -0.2700619400
-0.2587238848 -0.0298846625 -0.2717315853
-0.2577777505 -0.0300816391 -0.2727979124
-0.2560897171 -0.0299847554 -0.2732524574
-0.2558737099 -0.0304669291 -0.2749216855
-0.2556485832 -0.0309472419 -0.2765935361
-0.2532236874 -0.0305482578 -0.2764157951
-0.2529881597 -0.0310233161 -0.2780843675
-0.2512935698 -0.0309096146 -0.2785093784
-0.2637638450 -0.0310397055 -0.2682043016
-0.2628281713 -0.0312494766 -0.2692886591
-0.2611408532 -0.0311638396 -0.2697738409
-0.2601996958 -0.0313672945 -0.2708493769
-0.2585119903 -0.0312742591 -0.2713199258
-0.2575654089 -0.0314714611 -0.2723866403
-0.2558774352 -0.0313711241 -0.2728425562
-0.2556603253 -0.0318572819 -0.2745109797
-0.2547018826 -0.0320458822 -0.2755685747
-0.2530099452 -0.0319354199 -0.2760068476
-0.2527733445 -0.0324144512 -0.2776746154
-0.2518032491 -0.0325944610 -0.2787230313
