0.0336905504 -0.1553348725 -0.2492790824
0.0299109803 -0.1748211673 -0.2399367995
0.0482367159 -0.1611724822 -0.2479429830
0.0521232214 -0.1044439665 -0.2691090873
0.0009673556 -0.1901186813 -0.2360636308
0.0494319862 -0.0984421747 -0.2767245847
-0.0211742310 -0.1418817032 -0.2288310462
0.0165334376 -0.1571541627 -0.2399274330
0.0138661496 -0.1896240442 -0.2480290919
0.0231196097 -0.1437876647 -0.2487195434
0.0267440556 -0.1046406944 -0.2545953932
-0.0490454634 -0.1033743827 -0.2303652628
0.0535397730 -0.1150465843 -0.2645718980
-0.0532468706 -0.1111484297 -0.2302195317
0.0106258359 -0.1449894203 -0.2404422332
0.0267319974 -0.1664495127 -0.2419069432
0.0039189447 -0.1655765484 -0.2337216876
0.0063962028 -0.0951428802 -0.2621230955
-0.0144114359 -0.1443788991 -0.2318834844
0.0327983756 -0.1217961990 -0.2589234609
0.0284961034 -0.1420634389 -0.2453604862
0.0138306191 -0.1853935915 -0.2407197163
0.0012855261 -0.1884323387 -0.2340477053
0.0470865865 -0.1422853508 -0.2539910048
0.0365436972 -0.1644169478 -0.2444658597
0.0112641852 -0.1406351212 -0.2441056958
0.0385292286 -0.1000475898 -0.2622092937
-0.0165340852 -0.1557701836 -0.2293645468
0.0490071205 -0.1588694196 -0.2488246545
0.0267587753 -0.1516559736 -0.2465296058
-0.0186056863 -0.1176148968 -0.2376641483
-0.0124052910 -0.1289636562 -0.2383524241
0.0169714965 -0.1145497178 -0.2505896056
0.0411924965 -0.1548066705 -0.2478541176
-0.0301413192 -0.1463513362 -0.2261081153
0.0013781676 -0.1851277238 -0.2314056006
0.0380180046 -0.1815639690 -0.2445265208
-0.0035611133 -0.1175803989 -0.2445214242
-0.0170065283 -0.1244129795 -0.2368889022
0.0496816076 -0.1009470373 -0.2658101022
0.0086548617 -0.1829065140 -0.2344190239
0.0244227229 -0.1599019021 -0.2402698547
0.0018237410 -0.1024339009 -0.2477721271
0.0068740722 -0.1470383707 -0.2422104664
0.0436825442 -0.1450800586 -0.2498990504
0.0090451865 -0.1424365449 -0.2397984448
0.0237625981 -0.1580026428 -0.2404501580
-0.0410284554 -0.1220483093 -0.2313845222
0.0490953107 -0.1525122604 -0.2522599658
0.0009602158 -0.0994271657 -0.2448756720
0.0243164762 -0.0932507701 -0.2656098220
-0.0191008640 -0.1055007482 -0.2389525534
-0.0569488826 -0.1228741586 -0.2296232844
-0.0054792029 -0.1886424635 -0.2325022310
0.0486426093 -0.1485902864 -0.2567824666
0.0337711435 -0.0950218983 -0.2753951808
-0.0016685412 -0.1812399097 -0.2260803557
-0.0076916549 -0.1499306107 -0.2312456397
-0.0381613268 -0.1426268188 -0.2273836805
-0.0010297969 -0.1097402130 -0.2477692485
0.0132021503 -0.1517143397 -0.2433238857
0.0539489046 -0.1189144435 -0.2653602338
0.0426746190 -0.1033225090 -0.2583770060
0.0135717033 -0.0967973512 -0.2623947695
0.0039199106 -0.1799921060 -0.2293593527
0.0396858741 -0.1715473301 -0.2392744717
0.0268926899 -0.1017725065 -0.2573508783
0.0009155431 -0.1803864893 -0.2269668614
-0.0393028023 -0.1398395039 -0.2257926196
0.0074899491 -0.1472597312 -0.2398534741
0.0234371649 -0.1127199820 -0.2574314827
0.0116862572 -0.1371048298 -0.2433934086
0.0018736043 -0.1068328898 -0.2478760230
0.0271660050 -0.1676211716 -0.2440757243
0.0388630186 -0.1449403633 -0.2517780426
-0.0057529398 -0.1368496022 -0.2401167102
0.0418240477 -0.1610275845 -0.2462273931
0.0416752194 -0.0933208556 -0.2646068876
0.0190324702 -0.1597486031 -0.2422580530
0.0188801284 -0.1671644058 -0.2397995850
0.0508129692 -0.1248079385 -0.2681995816
0.0267444214 -0.1015988079 -0.2595966132
-0.0479881375 -0.1060534859 -0.2311103768
-0.0055669769 -0.1226187582 -0.2435209712
-0.0412879079 -0.1123742027 -0.2321048867
0.0139893246 -0.1297332475 -0.2473244447
-0.0304664883 -0.1360786799 -0.2291897414
-0.0346002631 -0.0976241835 -0.2383727099
0.0097196986 -0.1323056274 -0.2443241169
0.0415372367 -0.1303070101 -0.2553579116
0.0500255739 -0.1660282501 -0.2516167551
0.0046602456 -0.1181694398 -0.2471109072
0.0163489112 -0.1023327739 -0.2531721908
-0.0030510104 -0.1355733947 -0.2383995090
0.0483884259 -0.1377138277 -0.2559879687
-0.0295176170 -0.1249144842 -0.2302889639
0.0193816448 -0.1890449014 -0.2452337832
0.0238763902 -0.1503853273 -0.2427294557
0.0107377370 -0.1903693391 -0.2483198859
-0.0349754313 -0.1040445663 -0.2349149552
0.0334550329 -0.1453007460 -0.2460045666
0.0492415744 -0.1130003663 -0.2631810964
0.0366060553 -0.1122910517 -0.2578081006
0.0459763360 -0.1277911593 -0.2606425252
0.0464348609 -0.1050199390 -0.2629743795
0.0393623017 -0.1191895043 -0.2593057539
0.0109388268 -0.0981922432 -0.2511815427
-0.0028792740 -0.1557277891 -0.2343175610
0.0319331990 -0.1839062777 -0.2436953903
0.0560948251 -0.1066422240 -0.2672414552
-0.0019268562 -0.1451344438 -0.2351039595
0.0119309725 -0.1891368854 -0.2449104124
0.0362446383 -0.1002737433 -0.2584255040
0.0166485006 -0.1920316206 -0.2531631187
0.0266725019 -0.1442343980 -0.2449761391
-0.0153105202 -0.1488111457 -0.2291011030
0.0539133566 -0.1269468742 -0.2740376103
0.0041471166 -0.1136599928 -0.2461326420
0.0243221783 -0.1140739122 -0.2544568201
-0.0388623955 -0.1155305332 -0.2321985870
0.0042814215 -0.1123356066 -0.2477714664
0.0264204891 -0.0978325004 -0.2582888710
-0.0340242551 -0.1219487455 -0.2313015122
0.0043160761 -0.1897233127 -0.2423520983
0.0334424531 -0.1271765291 -0.2541982914
0.0239075803 -0.1419060008 -0.2448393692
0.0169470638 -0.1247591537 -0.2481549911
0.0338587128 -0.1049527294 -0.2598655468
0.0340286354 -0.1323650456 -0.2522365065
0.0167081617 -0.1194458224 -0.2502812229
0.0217999890 -0.1495434849 -0.2419497162
0.0593649892 -0.1123745647 -0.2750866535
0.0217809486 -0.1371042866 -0.2471477180
0.0083364865 -0.1851676087 -0.2365450771
0.0007078723 -0.1689967419 -0.2293408055
0.0479174145 -0.1354423497 -0.2680058540
0.0334665403 -0.1419727044 -0.2480591316
0.0362278166 -0.1350295469 -0.2502897073
0.0367119786 -0.1744901212 -0.2400621475
-0.0038724653 -0.1411234930 -0.2378029488
-0.0006020643 -0.1049760559 -0.2469368060
0.0445262276 -0.0976532203 -0.2742765689
0.0169709738 -0.1545079149 -0.2396142905
0.0165545826 -0.1497792939 -0.2423131852
-0.0115392687 -0.1059072484 -0.2422069450
0.0336293272 -0.1783455290 -0.2407565543
0.0033588077 -0.1273647189 -0.2432207737
0.0141361194 -0.1316493557 -0.2467608071
0.0419526586 -0.1094681275 -0.2619812261
0.0408515844 -0.1555704947 -0.2452471677
-0.0080161152 -0.1298056360 -0.2402568303
0.0521582440 -0.1074316699 -0.2672340128
0.0474058369 -0.1660251517 -0.2474792703
0.0184785048 -0.1760075025 -0.2373546494
0.0463555939 -0.1221332712 -0.2622789890
0.0237589700 -0.1739408891 -0.2380479579
0.0484981512 -0.1149846372 -0.2576970824
0.0442528516 -0.1444559105 -0.2519214012
0.0534618571 -0.1050211042 -0.2653695047
0.0261181015 -0.1368473185 -0.2469213552
0.0065875810 -0.1625181378 -0.2352417598
0.0266324643 -0.1049134161 -0.2576819186
0.0380715508 -0.1836129267 -0.2490496566
0.0191149740 -0.1020730377 -0.2526761096
0.0257520915 -0.1790997771 -0.2384955181
0.0406677364 -0.1107514448 -0.2577258603
0.0513102439 -0.1219819478 -0.2670729721
0.0240696464 -0.1121879965 -0.2540365458
0.0438535712 -0.1662722934 -0.2470770832
0.0194320939 -0.1275511980 -0.2481435984
0.0020513613 -0.1016061292 -0.2515254698
-0.0335648652 -0.1209512311 -0.2349268965
0.0220449145 -0.1322779790 -0.2496167563
0.0263990317 -0.1642183600 -0.2390970107
0.0448753054 -0.1249108295 -0.2594400949
0.0089348620 -0.1198260139 -0.2499442215
-0.0276022672 -0.1279117876 -0.2304182778
-0.0374552514 -0.1030147410 -0.2330704344
-0.0043918071 -0.1532773417 -0.2335858016
0.0444206546 -0.1350808889 -0.2559445997
-0.0173509002 -0.1295905834 -0.2327349326
-0.0102612117 -0.1425026835 -0.2344175823
-0.0108711406 -0.1020235584 -0.2454561712
-0.0010112333 -0.1353227540 -0.2424749732
0.0286742861 -0.1372255838 -0.2474782117
0.0114758314 -0.0997594617 -0.2516965873
0.0285722097 -0.1649410042 -0.2406382216
-0.0479171511 -0.1149275271 -0.2270273275
-0.0453314364 -0.1087945047 -0.2343901178
0.0515992016 -0.1007911778 -0.2734462061
-0.0011549022 -0.1575455410 -0.2338005716
0.0163739482 -0.1426424906 -0.2457333952
0.0470566568 -0.1327406611 -0.2642125195
-0.0237231303 -0.1399048625 -0.2296153930
-0.0302448240 -0.1486021849 -0.2226937145
0.0195985348 -0.1835216865 -0.2403774384
0.0302489046 -0.1574687362 -0.2473401278
0.0448070280 -0.1123150066 -0.2639110982
0.0024194165 -0.1823331692 -0.2288984615
0.0362819566 -0.1691677104 -0.2443977727
-0.0112088670 -0.1215768712 -0.2389159440
-0.0253073397 -0.1320700385 -0.2309742842
0.0465192504 -0.1169909136 -0.2599255289
0.0136337494 -0.1421567086 -0.2407870548
0.0053422422 -0.1364314001 -0.2378121725
0.0146735089 -0.1428082941 -0.2434311815
-0.0198022515 -0.1438424056 -0.2300593371
-0.0339986879 -0.1117788667 -0.2336486105
0.0242724549 -0.1073174179 -0.2529132366
0.0014089335 -0.1725376412 -0.2291869084
0.0042212287 -0.0982164931 -0.2577198373
0.0223645142 -0.1225020375 -0.2475989859
-0.0007973996 -0.1827898856 -0.2274284661
0.0177092612 -0.1605448741 -0.2365979820
0.0529256448 -0.1634953155 -0.2514121240
0.0340984464 -0.1269310191 -0.2527479082
0.0094864352 -0.1171693040 -0.2500018198
0.0536302868 -0.1611438284 -0.2527259766
-0.0111227523 -0.1397290045 -0.2370910741
0.0286898561 -0.1470226909 -0.2470786278
0.0160493233 -0.1450979842 -0.2429777702
0.0318830163 -0.1347374349 -0.2513673127
0.0472078850 -0.1327806368 -0.2619227960
0.0534883238 -0.1574325014 -0.2523237924
-0.0092127584 -0.1604058709 -0.2303299218
-0.0158926122 -0.1027867845 -0.2400925135
0.0243001001 -0.1521047442 -0.2445149789
0.0391502963 -0.0953217054 -0.2673925386
-0.0432321445 -0.1226237263 -0.2260580179
-0.0135008887 -0.1253536294 -0.2376307216
0.0213092487 -0.1219375437 -0.2499695241
-0.0009874299 -0.1751016289 -0.2276992699
0.0149641330 -0.1543982534 -0.2424557866
-0.0006183393 -0.1243447575 -0.2424273316
-0.0003629890 -0.1528710887 -0.2357406280
0.0218081800 -0.1523178818 -0.2452720397
0.0315797598 -0.1273018137 -0.2525199542
0.0160527084 -0.1018190654 -0.2552716981
0.0011493382 -0.1769650873 -0.2258198077
0.0308433237 -0.1765533441 -0.2407739773
-0.0511666648 -0.1138652752 -0.2295586254
0.0239902565 -0.1172609403 -0.2526697893
0.0494317681 -0.1196764638 -0.2645653375
-0.0040454165 -0.1815278600 -0.2251095702
0.0462681891 -0.1493327588 -0.2518613939
0.0313340243 -0.0969223310 -0.2595083208
0.0036178228 -0.1001858551 -0.2506816427
-0.0074633977 -0.1201620740 -0.2425328871
0.0241359934 -0.1720664613 -0.2391627037
-0.0161969796 -0.1394584149 -0.2320322301
0.0459088939 -0.1295097977 -0.2593058989
0.0121468759 -0.1299460809 -0.2471793779
-0.0210190693 -0.1351607392 -0.2331548263
0.0138655895 -0.1175702362 -0.2495324663
0.0184575167 -0.1899953461 -0.2528358612
-0.0057922872 -0.1613205465 -0.2318761959
-0.0224454737 -0.1534836645 -0.2258732957
-0.0201818837 -0.1493865722 -0.2284160231
0.0366770233 -0.1705391316 -0.2403555455
-0.0387128269 -0.1127341099 -0.2319979153
0.0129638436 -0.1819345338 -0.2337035217
0.0416113013 -0.1320857802 -0.2527242316
-0.0033989595 -0.1019894425 -0.2475387109
-0.0071735543 -0.1553489692 -0.2292829817
-0.0057993650 -0.1356596473 -0.2356848122
-0.0200970556 -0.1311709805 -0.2336839399
0.0220402287 -0.1675279939 -0.2413342981
-0.0084719248 -0.1473052175 -0.2319811323
0.0477779989 -0.0982455403 -0.2846218004
0.0045089952 -0.1501442089 -0.2379277992
0.0041883718 -0.1757714054 -0.2282524242
-0.0214077788 -0.1343905062 -0.2295650863
0.0012386789 -0.1100517351 -0.2484074846
-0.0051934174 -0.1430049751 -0.2368376474
0.0488344598 -0.1002456045 -0.2726267112
-0.0015155758 -0.0959149686 -0.2644923452
0.0166399580 -0.1153163286 -0.2522781162
0.0060165549 -0.1747343349 -0.2298604300
-0.0146119817 -0.1271285374 -0.2342233028
0.0264183575 -0.1621834089 -0.2401574559
0.0037615706 -0.1299757685 -0.2439794753
0.0416140759 -0.1351459140 -0.2530549552
0.0351558652 -0.0974100867 -0.2552930112
0.0446425373 -0.1156851224 -0.2622730696
0.0435921867 -0.1069987721 -0.2631992615
0.0190844658 -0.1666857655 -0.2368158728
0.0469751653 -0.1564178346 -0.2470431006
0.0140262589 -0.1120707805 -0.2504011164
0.0395665735 -0.1401749947 -0.2541755469
-0.0230331728 -0.1145767458 -0.2373140128
-0.0007107516 -0.1149485119 -0.2470179439
0.0056737149 -0.1278855457 -0.2404410194
-0.0011519344 -0.1149235796 -0.2447246201
0.0073101189 -0.1173584713 -0.2491261561
0.0378998105 -0.1845045847 -0.2460219796
-0.0177630161 -0.1325450959 -0.2347082232
-0.0116815858 -0.1599559614 -0.2277116187
0.0156801970 -0.1418260011 -0.2404744835
0.0311703446 -0.1801724826 -0.2412318142
0.0049575799 -0.1510344523 -0.2413884981
-0.0155728521 -0.1338138478 -0.2353434890
0.0142605419 -0.1245751571 -0.2494790647
0.0171140843 -0.1320862758 -0.2474165874
0.0116182631 -0.1662931085 -0.2333778591
-0.0195799247 -0.1465301055 -0.2291121127
0.0050488041 -0.0974835336 -0.2628317741
0.0315853211 -0.1200604245 -0.2555550123
-0.0590828036 -0.1235210568 -0.2290858559
-0.0150600097 -0.1157946102 -0.2404066521
-0.0161768040 -0.1086857757 -0.2420947154
0.0314233498 -0.1593056356 -0.2451236315
-0.0072037608 -0.1636132267 -0.2293208674
0.0463676923 -0.1396243783 -0.2542428678
0.0213589894 -0.1521914018 -0.2422285036
0.0262788672 -0.1465875390 -0.2454476901
0.0264643485 -0.1198762527 -0.2551730123
0.0290140295 -0.1549643729 -0.2456442999
-0.0456801587 -0.1145932900 -0.2303095503
0.0292432502 -0.1599289800 -0.2447671855
0.0405249755 -0.1647274076 -0.2473548251
-0.0324321700 -0.1291745478 -0.2286922598
0.0397762067 -0.1468805517 -0.2496276790
0.0262771354 -0.1695192665 -0.2410313970
-0.0420225189 -0.1396069092 -0.2250079608
0.0198644431 -0.1819923171 -0.2374970417
0.0342161522 -0.1247397013 -0.2539705301
0.0077412759 -0.1558318226 -0.2379071608
-0.0068802677 -0.1610365454 -0.2292835367
-0.0227398069 -0.1314001339 -0.2317993865
-0.0595626052 -0.1215762290 -0.2313540207
0.0073404533 -0.1882770816 -0.2417522680
-0.0586652044 -0.1109310638 -0.2311511511
0.0354126589 -0.1259719839 -0.2533405736
0.0464423911 -0.1319346254 -0.2596438072
-0.0106661796 -0.1490188675 -0.2339431216
0.0563602441 -0.1032302722 -0.2772758440
0.0445978452 -0.1718327214 -0.2441677748
-0.0051555634 -0.1347396713 -0.2385539923
0.0484255870 -0.1377953737 -0.2669744889
-0.0025688741 -0.1683025947 -0.2289078369
0.0395684104 -0.1705374358 -0.2417691876
0.0040837802 -0.0996672510 -0.2530632521
0.0488168118 -0.1021833747 -0.2657612232
0.0454801870 -0.1658202294 -0.2426058677
0.0342230398 -0.1600349671 -0.2477983798
0.0394761384 -0.1271131603 -0.2536859089
-0.0047721956 -0.0960546080 -0.2495033621
-0.0033737107 -0.1123558203 -0.2450966296
0.0404778089 -0.1672351512 -0.2432015977
0.0138355455 -0.1028142754 -0.2505197114
-0.0209297999 -0.1003241476 -0.2399775094
0.0215858874 -0.0970508063 -0.2578443124
-0.0000519546 -0.1497612396 -0.2364618559
-0.0110070271 -0.1671196209 -0.2263019081
0.0218696401 -0.1546960141 -0.2441136340
0.0267692974 -0.1550833927 -0.2450881316
0.0214888901 -0.1146780635 -0.2526960209
0.0076877655 -0.1529953484 -0.2392893351
0.0166220216 -0.1524495204 -0.2399417033
-0.0400135648 -0.1030294511 -0.2345265837
0.0115785631 -0.1725104053 -0.2349610330
0.0261913322 -0.1216345079 -0.2523980681
0.0037031962 -0.1423098983 -0.2397681071
0.0491008423 -0.1101756238 -0.2631276944
0.0068799491 -0.1450774286 -0.2419504537
-0.0072620363 -0.1431187890 -0.2351236118
0.0319463439 -0.1096112064 -0.2573335369
0.0516057311 -0.1007703782 -0.2704026453
0.0335565110 -0.1636594970 -0.2454067511
0.0064377867 -0.1247470683 -0.2449440604
0.0253741438 -0.1553362752 -0.2427589260
0.0093080606 -0.1723594768 -0.2348993028
-0.0013181359 -0.1723303103 -0.2260349414
0.0319404863 -0.1096462384 -0.2547573447
0.0217579880 -0.1551197919 -0.2416197464
0.0141623371 -0.1730084704 -0.2351166959
0.0176383201 -0.0953470153 -0.2609672772
0.0163594839 -0.1720843059 -0.2354623840
0.0000009012 -0.1282198681 -0.2437892824
0.0483317492 -0.1494894998 -0.2524851234
0.0189202565 -0.1149563833 -0.2526597153
0.0236101711 -0.1693854688 -0.2397943369
0.0267571732 -0.1143374681 -0.2533627013
-0.0066868258 -0.1066980362 -0.2428645641
-0.0334872126 -0.1361123644 -0.2279968419
0.0204860241 -0.1885556909 -0.2510851415
-0.0009194325 -0.1424470760 -0.2397582101
-0.0476130187 -0.1417652683 -0.2270927402
0.0245259396 -0.1290550571 -0.2506613509
0.0486614047 -0.1230370358 -0.2666889804
0.0111638174 -0.1394491893 -0.2427210520
0.0436472915 -0.1127081637 -0.2600804334
0.0190740678 -0.1322211885 -0.2468733787
0.0335702953 -0.1645813664 -0.2418699411
0.0320159407 -0.1225828849 -0.2553382413
0.0362792875 -0.1194977681 -0.2558072418
0.0383990649 -0.1578926297 -0.2450517128
0.0245485521 -0.1466366651 -0.2466678412
0.0487614254 -0.1356917801 -0.2750545427
0.0285740873 -0.1773701793 -0.2394475932
-0.0086859261 -0.1268868319 -0.2404763951
0.0260678832 -0.1452004374 -0.2466910218
0.0370525309 -0.1195198459 -0.2573262365
0.0500896224 -0.1325499624 -0.2744117006
0.0483548023 -0.1383402170 -0.2706303894
0.0422255611 -0.1026392561 -0.2618742001
-0.0190812544 -0.1200572010 -0.2353753207
0.0395638114 -0.1683078395 -0.2453887254
0.0465595685 -0.1122016505 -0.2645539494
0.0410058473 -0.1639898965 -0.2444894315
0.0217950061 -0.1669095699 -0.2378837420
0.0409784085 -0.1585208350 -0.2469742090
-0.0085697048 -0.1732408378 -0.2268412734
0.0215373420 -0.1198923744 -0.2520115283
0.0140554871 -0.1702132187 -0.2354987079
0.0021753669 -0.0949397599 -0.2579676764
0.0089641353 -0.1299507180 -0.2448659180
-0.0058593883 -0.1863749421 -0.2291697781
0.0517714597 -0.1154173580 -0.2609127210
0.0338453462 -0.0944180008 -0.2617983223
0.0110496421 -0.1092836411 -0.2482945349
0.0040977055 -0.1481733916 -0.2396069386
0.0115809229 -0.1194904366 -0.2492757285
0.0361269195 -0.1451395271 -0.2494344730
-0.0288222135 -0.1202319854 -0.2330211402
0.0395461166 -0.1568933723 -0.2490913929
0.0417840056 -0.0960699484 -0.2729047331
0.0292269481 -0.1217066618 -0.2528526584
0.0382004323 -0.1445576137 -0.2479337898
-0.0394914025 -0.1372769714 -0.2265499584
-0.0487332366 -0.1026781104 -0.2329735042
0.0342742242 -0.1613528132 -0.2465782017
0.0068976603 -0.1250926970 -0.2477398460
0.0359308138 -0.1613001159 -0.2470830927
-0.0005837341 -0.1325119642 -0.2419509728
-0.0027117825 -0.1588829820 -0.2316031089
-0.0148154862 -0.1542708562 -0.2273863333
0.0343691748 -0.0933558923 -0.2727750920
-0.0324261893 -0.1465691978 -0.2254415521
0.0538751075 -0.1120141131 -0.2673305927
-0.0084402369 -0.1330767041 -0.2414115255
0.0313240225 -0.1543973252 -0.2451649062
0.0104898345 -0.1833127385 -0.2370130313
0.0543507364 -0.1174283657 -0.2658317240
0.0313997067 -0.1425002948 -0.2479304276
0.0227841992 -0.1308952257 -0.2436354661
-0.0033324385 -0.1398635003 -0.2402896105
0.0290062185 -0.1724323540 -0.2388203305
-0.0081393814 -0.1355943303 -0.2375869951
0.0091003975 -0.1025609387 -0.2504157476
0.0243583954 -0.1551420731 -0.2444941914
-0.0285260327 -0.1424616722 -0.2274655324
0.0125919791 -0.1477916823 -0.2441820395
-0.0293751091 -0.1079575544 -0.2366875218
0.0240529650 -0.1067599413 -0.2545784622
0.0536099580 -0.1575576741 -0.2545264035
-0.0223859506 -0.1131517610 -0.2388732150
0.0597029933 -0.1070829269 -0.2803135308
0.0292644713 -0.1064971686 -0.2573776139
-0.0206733412 -0.1533649297 -0.2268351639
-0.0367080704 -0.1005487992 -0.2362232426
-0.0451777114 -0.1456785124 -0.2256276997
0.0365973420 -0.1607418392 -0.2492535213
0.0342579114 -0.1041389591 -0.2623042761
0.0368602279 -0.0938338271 -0.2754594270
0.0114236187 -0.1774472704 -0.2332818245
0.0190840156 -0.1124762280 -0.2522581653
0.0048994113 -0.1145584969 -0.2475399394
0.0315458173 -0.0935995911 -0.2709150175
0.0079015122 -0.1364978842 -0.2375170022
0.0119898869 -0.1298876405 -0.2461298704
0.0563549644 -0.1101608602 -0.2676718427
-0.0481175784 -0.1385712578 -0.2258735191
-0.0006687810 -0.1171056893 -0.2446755003
0.0174351809 -0.1884587883 -0.2486462867
0.0122368987 -0.1220406376 -0.2499986898
0.0367803642 -0.0936628196 -0.2777672247
-0.0563574654 -0.1138540774 -0.2294465903
0.0114441680 -0.1805701494 -0.2348759225
0.0522383564 -0.1192319306 -0.2631765819
0.0367192293 -0.1394349595 -0.2494565242
0.0246471713 -0.1175245471 -0.2546128184
0.0475617826 -0.1285385279 -0.2712027617
0.0008960237 -0.1266187802 -0.2452650145
0.0289604967 -0.0933155766 -0.2596394809
0.0015559208 -0.1272559957 -0.2425302413
0.0117750147 -0.1248127654 -0.2480202357
0.0315755379 -0.1419455492 -0.2512669484
0.0189967835 -0.1497756372 -0.2446743814
0.0343198477 -0.1516123565 -0.2456082141
0.0491784299 -0.1050343362 -0.2648899664
-0.0130238730 -0.1392867723 -0.2365278693
-0.0062308928 -0.1738287666 -0.2285932547
0.0023868328 -0.1255325396 -0.2445085355
0.0074707809 -0.1274353355 -0.2492704998
0.0570559983 -0.1075427909 -0.2720694084
0.0132947146 -0.1677745346 -0.2361478094
-0.0248857187 -0.1117877278 -0.2346932418
0.0351164043 -0.1304693222 -0.2504356847
0.0290020078 -0.0946005521 -0.2654494842
0.0196679775 -0.1651513427 -0.2383175045
0.0298913257 -0.1841592855 -0.2440854575
0.0062172381 -0.1055054853 -0.2497689698
0.0067895074 -0.0993807882 -0.2549489153
0.0301843357 -0.1887793988 -0.2524803820
0.0518346840 -0.1607917343 -0.2510567621
-0.0236989992 -0.1165143005 -0.2353249024
0.0509628433 -0.1575414415 -0.2498364621
0.0066982113 -0.1426368165 -0.2398148228
0.0089349758 -0.1593448512 -0.2333337747
0.0412966299 -0.1442576349 -0.2519536515
0.0267138432 -0.1298595993 -0.2476939537
0.0439817183 -0.1235005732 -0.2548932237
0.0366341071 -0.0943869938 -0.2684784943
0.0382712464 -0.1359817171 -0.2502865893
0.0019294108 -0.1145435653 -0.2448796810
0.0271843150 -0.1847756082 -0.2442880223
-0.0178635372 -0.1511071299 -0.2294859238
0.0084698572 -0.1798994273 -0.2318902690
0.0006317091 -0.1006450487 -0.2479521004
-0.0194354264 -0.1572007045 -0.2301157077
0.0042861880 -0.1219599860 -0.2451140025
0.0511076278 -0.1304822590 -0.2761472293
0.0185507876 -0.1572903162 -0.2407449096
0.0382608465 -0.1614415037 -0.2454668787
0.0062791217 -0.1774361580 -0.2292542407
0.0168224118 -0.0952209839 -0.2636334706
0.0314725042 -0.1019892663 -0.2584678370
-0.0335617812 -0.1248161325 -0.2306335704
-0.0052009529 -0.1508173636 -0.2351798487
0.0075065637 -0.1303085696 -0.2441983039
0.0398643027 -0.0956765537 -0.2642434678
-0.0188982779 -0.1215644219 -0.2382859619
0.0090651820 -0.1220819237 -0.2479764851
-0.0320064577 -0.1423542748 -0.2272308963
0.0067157531 -0.1100976290 -0.2496192851
-0.0537497733 -0.1175231166 -0.2287538675
-0.0082246936 -0.1530882512 -0.2333689991
0.0339013711 -0.0960362107 -0.2592732012
0.0477956223 -0.1307533747 -0.2663307071
0.0566377759 -0.1048967696 -0.2768934537
0.0271908026 -0.1146421483 -0.2545867020
0.0570147554 -0.1068464039 -0.2763981195
0.0114852967 -0.1320142448 -0.2452763341
0.0218186798 -0.1800393966 -0.2371047728
0.0159235537 -0.1829711077 -0.2374513650
0.0212001283 -0.1793238158 -0.2348115852
-0.0307375735 -0.1515025885 -0.2265611082
0.0321870000 -0.1551465883 -0.2512902305
0.0323489966 -0.1122219198 -0.2573891006
-0.0585307765 -0.1200777823 -0.2288909189
0.0410022736 -0.1521172300 -0.2470107898
0.0415341250 -0.1399444121 -0.2528516792
0.0039143148 -0.1778756267 -0.2284985103
-0.0061972743 -0.1212787720 -0.2410091528
0.0413475055 -0.1501759414 -0.2476217566
0.0436064769 -0.0978855445 -0.2715457302
0.0266002677 -0.1580220163 -0.2408272475
0.0187649308 -0.1643219768 -0.2418473092
0.0432795834 -0.0978526582 -0.2944559049
0.0558512051 -0.1055279685 -0.2804824132
-0.0296527063 -0.0978875402 -0.2379548619
0.0349335346 -0.1237425786 -0.2522571623
-0.0367887653 -0.1494677465 -0.2278349396
0.0506896181 -0.1506843323 -0.2532718086
0.0488990539 -0.0978116884 -0.2748301229
-0.0316526533 -0.1225120500 -0.2302288476
-0.0011181899 -0.1648568871 -0.2319500599
0.0112692028 -0.1473031475 -0.2418787704
-0.0284004259 -0.1160532545 -0.2354503480
0.0567478253 -0.1176204216 -0.2722444974
-0.0063319577 -0.1723556150 -0.2257249238
0.0076867996 -0.1325054056 -0.2445495135
0.0496701622 -0.1001553457 -0.2744358268
0.0339037069 -0.1070963937 -0.2595137891
0.0244012844 -0.1399487123 -0.2448997799
-0.0106702711 -0.0966048030 -0.2472543064
0.0191191644 -0.1348063108 -0.2450798056
-0.0385002957 -0.0993858666 -0.2330426302
0.0592349233 -0.1070039107 -0.2749432229
0.0284864930 -0.1021050264 -0.2558529971
0.0543915023 -0.1042696025 -0.2726522259
-0.0272629047 -0.1034097012 -0.2383331037
0.0461709980 -0.1472361966 -0.2541737242
-0.0089201838 -0.1085171242 -0.2418879262
0.0019121708 -0.1001936991 -0.2489818357
0.0117420573 -0.1448574253 -0.2420232596
-0.0451287770 -0.1400286195 -0.2240972694
0.0116220628 -0.1351470094 -0.2446033818
0.0065535651 -0.1226359568 -0.2480948775
0.0046336413 -0.1225473620 -0.2477294356
-0.0146618728 -0.1387740639 -0.2344542551
0.0266405592 -0.0995976339 -0.2576867804
0.0139560610 -0.1100228861 -0.2523160160
0.0145007751 -0.0954098032 -0.2622875476
0.0071381115 -0.1126926336 -0.2494808592
0.0013449267 -0.1293858181 -0.2420734462
0.0385769891 -0.1161980443 -0.2560065168
0.0162137053 -0.1101329476 -0.2541509867
-0.0231103829 -0.1360039675 -0.2305917282
-0.0032730897 -0.1759616152 -0.2263421013
0.0268310004 -0.1592548412 -0.2441013446
0.0266402754 -0.1268344557 -0.2523172958
0.0395156759 -0.1517900623 -0.2494030461
0.0046579333 -0.1352335082 -0.2429284952
0.0149108146 -0.0952101215 -0.2558195865
0.0442245932 -0.1298177120 -0.2577982496
0.0410012340 -0.1494435567 -0.2493928228
0.0513041794 -0.1099827217 -0.2656796458
0.0065483086 -0.1674748587 -0.2348487095
0.0269683959 -0.1719787090 -0.2413902637
0.0117728908 -0.1495764575 -0.2424220402
-0.0449708168 -0.1278167913 -0.2255281514
-0.0287816311 -0.1043872420 -0.2358204022
0.0065367463 -0.1704702296 -0.2338188871
0.0014001844 -0.1422711546 -0.2371898961
0.0051578316 -0.1318387804 -0.2457276762
0.0071173410 -0.1301528839 -0.2422870288
-0.0483933133 -0.1169587126 -0.2282326857
-0.0367301922 -0.1073922112 -0.2352288370
0.0441291807 -0.1562954726 -0.2472414683
0.0446492475 -0.1318836278 -0.2543072206
0.0418892203 -0.1169128305 -0.2573186270
0.0069666704 -0.1075771199 -0.2494879958
0.0225762771 -0.1138322764 -0.2539840583
-0.0092554379 -0.1108038824 -0.2439345008
0.0276460799 -0.1516210015 -0.2496068411
0.0368396515 -0.1044202133 -0.2619487475
0.0516842282 -0.1170426803 -0.2657902209
-0.0108963178 -0.1527866226 -0.2323135875
-0.0074618912 -0.1146133805 -0.2432043831
0.0415988385 -0.1249650751 -0.2571071567
0.0480014377 -0.1447739012 -0.2551243440
0.0352409851 -0.1865422079 -0.2536883688
0.0226671758 -0.1697093000 -0.2390420728
-0.0401642090 -0.0983116656 -0.2367990202
-0.0230371631 -0.1538305217 -0.2289631533
0.0496417916 -0.1060039756 -0.2692302467
0.0062167556 -0.1269268245 -0.2468489707
0.0238598641 -0.1629393911 -0.2384164502
-0.0059228996 -0.1027623028 -0.2475363274
0.0091996053 -0.1893195879 -0.2431641995
0.0260445049 -0.1820172962 -0.2403111067
0.0172604526 -0.1239042193 -0.2523821182
0.0404507287 -0.1587949849 -0.2491078032
0.0141917597 -0.1397623734 -0.2420317021
0.0048785557 -0.1851896987 -0.2336655948
0.0376686752 -0.1640882913 -0.2474711065
0.0123926660 -0.1392241786 -0.2469557144
-0.0008117534 -0.1191236977 -0.2448347881
-0.0162390583 -0.1216210807 -0.2377835701
0.0236034250 -0.0994772743 -0.2572270754
0.0144531859 -0.1641037425 -0.2393330099
0.0118285336 -0.1027904853 -0.2501353851
0.0187166949 -0.0945791864 -0.2658696002
0.0515701529 -0.1029880121 -0.2655981630
0.0125839374 -0.0928881835 -0.2603491136
0.0363679235 -0.1593288610 -0.2475923611
0.0292356974 -0.1421985769 -0.2469747948
-0.0371144003 -0.0976433959 -0.2381043789
0.0259393627 -0.1671584014 -0.2402841224
-0.0350590478 -0.1159690096 -0.2304504212
-0.0484085973 -0.1137623601 -0.2295709752
0.0148793968 -0.1826994946 -0.2340409640
-0.0422071354 -0.1098666336 -0.2315234588
-0.0335529307 -0.1274737733 -0.2302373538
-0.0433565048 -0.1150366870 -0.2316948931
0.0065173472 -0.1201718033 -0.2458141488
-0.0063764539 -0.1582050983 -0.2321466796
0.0315933006 -0.0963327858 -0.2679493743
0.0245272108 -0.1889354332 -0.2512837815
-0.0184847461 -0.1540789779 -0.2301621260
0.0413181766 -0.1045968367 -0.2605851277
0.0465368106 -0.1348099055 -0.2545801956
0.0409757555 -0.0932448395 -0.2622056068
-0.0039854886 -0.1570471832 -0.2321655723
-0.0288536105 -0.1184061906 -0.2351346265
0.0448009699 -0.1677612645 -0.2448689617
0.0494791095 -0.1096989425 -0.2644799251
0.0442681793 -0.1198674413 -0.2603316837
0.0390128483 -0.1499730922 -0.2475752609
0.0084516981 -0.1623044308 -0.2366158479
-0.0034198331 -0.1099554290 -0.2456404916
0.0490320546 -0.1351316761 -0.2596876571
0.0310660177 -0.1009996470 -0.2626462940
0.0071033975 -0.1422857952 -0.2421672245
0.0241153764 -0.1110671004 -0.2575522720
0.0136915210 -0.0967643293 -0.2559783173
0.0179480328 -0.1881464842 -0.2426059662
0.0266257567 -0.1696972773 -0.2382842184
0.0332257194 -0.1727773308 -0.2396989515
0.0161009176 -0.1800008574 -0.2350412957
-0.0031142011 -0.0995596251 -0.2471588367
-0.0009058156 -0.1207072884 -0.2463873029
0.0448603256 -0.0988466103 -0.2693841148
0.0442944999 -0.1128871385 -0.2617186562
0.0039525395 -0.0955561478 -0.2647422324
-0.0244827616 -0.1385358210 -0.2313134912
0.0033317866 -0.1603902970 -0.2352529465
0.0556884447 -0.1018436762 -0.2819426457
0.0142104425 -0.1392390302 -0.2466160159
-0.0005610610 -0.1624103468 -0.2345206485
0.0384259864 -0.1398366616 -0.2500191106
0.0163455442 -0.0969632397 -0.2547814203
0.0242036609 -0.1644055614 -0.2425745520
0.0435192100 -0.1323949086 -0.2571778193
0.0533502427 -0.1019743845 -0.2744039534
0.0091133877 -0.1746201644 -0.2327626639
0.0261865304 -0.1646259611 -0.2418243087
0.0191091016 -0.1523310156 -0.2418296398
0.0005392389 -0.1457994494 -0.2370714256
0.0135424479 -0.1755625188 -0.2354559498
0.0287229217 -0.1621949721 -0.2426426734
0.0375589103 -0.1871591984 -0.2550556463
0.0109802530 -0.1602218239 -0.2374805443
0.0338707836 -0.1444310480 -0.2472337449
0.0421917157 -0.0946569308 -0.2692989901
0.0242619920 -0.1045772650 -0.2545672235
0.0466985792 -0.1256316702 -0.2599806979
0.0516346380 -0.1275390460 -0.2728950369
0.0255746123 -0.1708985147 -0.2349679606
-0.0158776161 -0.1540397275 -0.2244469235
0.0460343557 -0.1025556826 -0.2627609550
0.0350706617 -0.1847957322 -0.2450406616
-0.0367426796 -0.1231074317 -0.2296916068
-0.0400545078 -0.1472637886 -0.2237138362
-0.0573364913 -0.1060457535 -0.2342031173
-0.0153828812 -0.1301251146 -0.2331920266
-0.0591134961 -0.1160552034 -0.2301111611
0.0530259199 -0.1094427705 -0.2632567585
-0.0313427873 -0.1214268628 -0.2334575461
0.0125107396 -0.1197497964 -0.2518814375
-0.0420988471 -0.1146292747 -0.2294032781
0.0315337964 -0.0940082062 -0.2602296721
0.0319837305 -0.0943796045 -0.2672493868
-0.0043791263 -0.1035328891 -0.2426651426
0.0292562807 -0.1222304245 -0.2544313911
0.0242405161 -0.0960673858 -0.2580798142
0.0322154346 -0.1431285413 -0.2500253570
0.0017412821 -0.1044760008 -0.2474487254
0.0512056965 -0.1547896322 -0.2528627591
0.0115078928 -0.1501878657 -0.2403811567
0.0214984785 -0.0948793805 -0.2620148992
0.0395661748 -0.0995397790 -0.2608522964
-0.0134363591 -0.1022640734 -0.2434399454
-0.0292244538 -0.1226974829 -0.2320610482
-0.0402478950 -0.1294290308 -0.2288659717
0.0040709498 -0.1100545448 -0.2483243862
0.0020441298 -0.0987958381 -0.2567302523
0.0443060725 -0.1247003969 -0.2575665624
0.0259995658 -0.1573328292 -0.2427102210
0.0231859665 -0.0963839367 -0.2644674182
0.0060739666 -0.1804350261 -0.2311347534
0.0044359130 -0.1047344748 -0.2500858367
0.0241165695 -0.1050508412 -0.2533180580
0.0187163642 -0.1861765555 -0.2454694974
0.0393877216 -0.0998940393 -0.2587004006
0.0438809260 -0.1048126630 -0.2627904520
0.0070612354 -0.1919321877 -0.2475657956
-0.0064606553 -0.1837027343 -0.2263672074
0.0483116148 -0.1333034883 -0.2727133808
0.0193647220 -0.1171047791 -0.2519876776
0.0564844289 -0.1032440376 -0.2744686073
0.0523696285 -0.1029289740 -0.2823703297
0.0187241518 -0.1176339796 -0.2501559540
0.0519262993 -0.0984869819 -0.2716610281
-0.0568583992 -0.1190788707 -0.2292588447
0.0415768919 -0.1455467809 -0.2501411228
-0.0455011252 -0.1012333684 -0.2325360105
0.0547781735 -0.1219407761 -0.2715810035
0.0443387037 -0.1472291728 -0.2495786628
0.0335283201 -0.1600195550 -0.2454980181
0.0168877107 -0.1272344286 -0.2490716344
0.0437075613 -0.0998769285 -0.2622550402
0.0511390975 -0.1047352365 -0.2647975306
0.0342983802 -0.1467884886 -0.2490077830
0.0089788053 -0.0995791823 -0.2519707583
0.0325326733 -0.0934655070 -0.2777297199
0.0508299215 -0.1474418967 -0.2603326287
0.0385152217 -0.1200345088 -0.2576047627
0.0146581966 -0.1348346586 -0.2442330156
0.0164702362 -0.0996670630 -0.2523717107
-0.0503980909 -0.1305944222 -0.2273511899
0.0386975435 -0.1256388481 -0.2554500360
0.0069821331 -0.1076538148 -0.2518600912
0.0389211169 -0.0957922348 -0.2628355581
0.0128220971 -0.1937532988 -0.2523732049
0.0135885882 -0.1120917682 -0.2538507892
0.0433215657 -0.1177146608 -0.2603474485
0.0551684351 -0.1197250078 -0.2717965246
0.0589991363 -0.1046569849 -0.2747221428
0.0260563244 -0.1245474423 -0.2504200720
0.0348535350 -0.1147558072 -0.2555647764
0.0452498570 -0.1334588230 -0.2589480579
0.0088610950 -0.1324310361 -0.2474938864
0.0279263805 -0.1655307946 -0.2458370006
-0.0325553834 -0.1020885609 -0.2392166870
-0.0081653413 -0.1373083217 -0.2350204892
-0.0366966902 -0.1247174021 -0.2281003278
-0.0469588087 -0.1285914512 -0.2281335597
0.0409214179 -0.1610736057 -0.2479686583
0.0174997872 -0.1350279981 -0.2454369863
-0.0077498516 -0.1331730739 -0.2387528474
0.0437329040 -0.1399735982 -0.2544639738
0.0559613642 -0.1123576173 -0.2692658619
0.0236419630 -0.1368635279 -0.2476358722
0.0420304517 -0.1702373234 -0.2421774252
-0.0035470206 -0.1349659746 -0.2419009992
-0.0437118078 -0.1060732413 -0.2324908093
0.0392029638 -0.1028139713 -0.2621085508
-0.0297066167 -0.1283727941 -0.2325580493
0.0217767414 -0.1246924193 -0.2521815792
0.0579339581 -0.1200227116 -0.2730237750
0.0363782250 -0.1718268330 -0.2420775189
0.0313901834 -0.1710643698 -0.2428238160
0.0244401121 -0.1022379535 -0.2578553672
0.0537942213 -0.1225578203 -0.2702621713
0.0609962160 -0.1141220871 -0.2774195210
0.0136420452 -0.1776586298 -0.2333728744
-0.0018900478 -0.1427705742 -0.2346252187
0.0064299869 -0.1768417577 -0.2325435884
0.0050033469 -0.1531507550 -0.2377339346
0.0543965355 -0.1200075436 -0.2693190072
-0.0446419992 -0.1256584801 -0.2285276556
0.0369307427 -0.1791610199 -0.2419625472
-0.0421918424 -0.1265379619 -0.2286526606
0.0368976194 -0.1318614780 -0.2519682673
0.0417606998 -0.1475245357 -0.2482862771
-0.0300444413 -0.1278841532 -0.2298642814
0.0208790838 -0.1871008716 -0.2480955801
-0.0009283031 -0.1883138872 -0.2338524911
0.0227264308 -0.1111568836 -0.2569125607
0.0238396187 -0.1369231738 -0.2503925537
0.0259178169 -0.1323641549 -0.2475435810
0.0245337839 -0.0972575445 -0.2599785232
0.0040558432 -0.1013826548 -0.2528470964
0.0364421382 -0.1499474841 -0.2473127385
0.0071436170 -0.1757240568 -0.2331399263
-0.0262653034 -0.1396725569 -0.2277487300
0.0338585647 -0.1349609141 -0.2517193161
0.0478823878 -0.1371380783 -0.2732701623
-0.0008121729 -0.1298364362 -0.2422699899
0.0145845631 -0.1850353890 -0.2344558017
0.0295249375 -0.1294664962 -0.2518071500
0.0166673707 -0.1120825661 -0.2528711247
0.0338257446 -0.1022805690 -0.2595206954
0.0301448681 -0.1192221642 -0.2567116463
0.0078930273 -0.1397479988 -0.2384627981
0.0344182469 -0.1815836257 -0.2424949762
0.0494730615 -0.1438944801 -0.2603620859
0.0093614963 -0.0952797335 -0.2616457191
0.0481858665 -0.1305405090 -0.2699430964
0.0212610373 -0.0970480661 -0.2555871039
0.0567995001 -0.1203331711 -0.2749814955
-0.0008881757 -0.0954399294 -0.2615016599
0.0038411387 -0.1047264347 -0.2481673684
0.0440782740 -0.1460621453 -0.2548165618
-0.0301073154 -0.1389437692 -0.2285769504
0.0491367006 -0.1078387506 -0.2649195064
-0.0108469700 -0.1073556548 -0.2451188469
-0.0010814689 -0.1067451693 -0.2445998550
0.0264949075 -0.0954555864 -0.2626418081
0.0224141892 -0.1270453649 -0.2501610591
0.0443251595 -0.1494572870 -0.2499512057
0.0474935206 -0.1147110303 -0.2645461704
0.0387195099 -0.1023700199 -0.2598762370
0.0050625852 -0.1903455835 -0.2454929269
-0.0405243331 -0.1325395681 -0.2281339351
-0.0122546783 -0.1112074983 -0.2406104053
0.0444080510 -0.1649864976 -0.2444422012
0.0064679429 -0.1729923894 -0.2338264747
-0.0212632437 -0.1204986490 -0.2352887059
0.0116220964 -0.1020672481 -0.2522057412
0.0315981198 -0.1345413730 -0.2499737471
0.0225791164 -0.1173498556 -0.2550050213
0.0243280089 -0.1868668615 -0.2481319320
-0.0448789884 -0.1422617334 -0.2255165057
0.0179209416 -0.1825516459 -0.2351113233
0.0266690816 -0.1871886092 -0.2491117758
0.0141074184 -0.1147237254 -0.2521642690
0.0062432298 -0.1394977023 -0.2397148904
0.0116057659 -0.1373399682 -0.2450310284
0.0269933202 -0.1494644628 -0.2451191450
-0.0369685902 -0.1414689647 -0.2245456875
0.0295854165 -0.1013882655 -0.2600241593
0.0084560079 -0.1445574978 -0.2438625188
0.0517543572 -0.1121408654 -0.2649517988
0.0487088716 -0.1482112896 -0.2547333915
0.0061877262 -0.1179310262 -0.2462230516
-0.0147713964 -0.1538703837 -0.2322764928
-0.0077377459 -0.1848915409 -0.2259812314
-0.0187936136 -0.1152980413 -0.2399236403
-0.0491891214 -0.1211571981 -0.2275995145
0.0042645704 -0.1069031734 -0.2494281695
0.0337968197 -0.1152776792 -0.2573560966
-0.0003021902 -0.1893212516 -0.2399941377
0.0164086428 -0.1046990193 -0.2547844201
-0.0054632077 -0.1046841638 -0.2489338090
0.0336999546 -0.1176369590 -0.2577316904
-0.0008397964 -0.1699157067 -0.2260569537
-0.0385281775 -0.0988974458 -0.2400896252
-0.0132013412 -0.1188118249 -0.2379075447
-0.0001447773 -0.1908577949 -0.2414786412
0.0267769580 -0.0947604549 -0.2647386232
0.0169158468 -0.1571830870 -0.2373089016
0.0260195597 -0.1345214642 -0.2501686991
0.0517569393 -0.1002024088 -0.2752014816
-0.0011545437 -0.1078135770 -0.2476302303
0.0397183709 -0.1368497367 -0.2520823396
0.0234157994 -0.1570161117 -0.2445030076
0.0366930045 -0.0993506442 -0.2595180889
-0.0259382771 -0.1471298874 -0.2296618137
0.0394940855 -0.1120463952 -0.2592930641
0.0339427668 -0.1094823021 -0.2578003994
0.0371802768 -0.1399444828 -0.2520611340
0.0599151724 -0.1193896023 -0.2749374864
0.0415809697 -0.1227411616 -0.2574251403
0.0115908895 -0.0951145907 -0.2598191695
-0.0244406332 -0.0982818084 -0.2405787521
0.0533015256 -0.1298274026 -0.2727920205
-0.0038583760 -0.1227535335 -0.2426768839
0.0425090942 -0.1210532517 -0.2585095137
0.0241287811 -0.1091804664 -0.2553233665
-0.0288628412 -0.1446800042 -0.2259166679
0.0487535860 -0.1383336271 -0.2619114462
0.0213659029 -0.1489924475 -0.2481966748
-0.0494798072 -0.1270093145 -0.2271971823
-0.0015116970 -0.0952299095 -0.2566934352
0.0025543410 -0.1484107481 -0.2375569237
-0.0352739925 -0.0987263245 -0.2418913648
0.0315617330 -0.0949414064 -0.2623793930
-0.0005283569 -0.1673591530 -0.2310929130
0.0444595260 -0.1622281036 -0.2476581347
0.0101793345 -0.1258227656 -0.2424416084
0.0275724699 -0.1521331238 -0.2455447338
0.0490162261 -0.1055278460 -0.2634005895
-0.0006291201 -0.1346020432 -0.2394807669
-0.0428210390 -0.1000643552 -0.2319936152
0.0463928902 -0.0981461856 -0.2802371370
0.0043488783 -0.1295801481 -0.2424148426
0.0098260496 -0.1425221172 -0.2424691217
0.0048983839 -0.1333186675 -0.2398178204
0.0489666162 -0.1120933733 -0.2642229493
0.0050262201 -0.1415135103 -0.2452614293
0.0082153099 -0.1600614174 -0.2370836342
0.0065615108 -0.1400470237 -0.2423492540
0.0031591160 -0.1394883263 -0.2407660049
0.0584454640 -0.1058718347 -0.2826807639
-0.0008082186 -0.1861868980 -0.2321357413
-0.0010892527 -0.1225999853 -0.2430232177
-0.0010526075 -0.1272844367 -0.2426372986
-0.0022023908 -0.1658149678 -0.2311203924
0.0186837936 -0.1451123822 -0.2448432081
0.0361458223 -0.1269971209 -0.2531541734
-0.0226300280 -0.1443785596 -0.2275011112
0.0369849503 -0.1274684221 -0.2538434565
0.0314959814 -0.1471330735 -0.2469822874
0.0186258640 -0.1613686536 -0.2423299708
0.0066431157 -0.1143118157 -0.2481015105
0.0018610630 -0.1417086027 -0.2422783318
0.0302186308 -0.0956523384 -0.2670149781
-0.0131692595 -0.1526070010 -0.2289252881
-0.0209079272 -0.1172818876 -0.2379126172
0.0477883451 -0.1346773071 -0.2622749580
0.0170094390 -0.0951605131 -0.2585352910
-0.0344437115 -0.1524251074 -0.2253752620
-0.0252295985 -0.1485574984 -0.2250914140
-0.0288803020 -0.1126444478 -0.2360438828
0.0198898865 -0.1227463889 -0.2521986988
0.0445382394 -0.1275705946 -0.2551823554
-0.0210274877 -0.1473274428 -0.2276145997
-0.0225102548 -0.1110128721 -0.2376149066
-0.0119409158 -0.1455189049 -0.2320195446
0.0412100888 -0.1737128705 -0.2417707862
-0.0329698735 -0.0994757399 -0.2383755794
-0.0420326267 -0.1281433836 -0.2257322409
-0.0266122191 -0.1586548628 -0.2264118191
0.0508183522 -0.1627408608 -0.2487868315
0.0539093636 -0.1102033863 -0.2656869828
0.0066042463 -0.0950666615 -0.2570766925
-0.0295288270 -0.1491365275 -0.2268738604
-0.0249069237 -0.1236809430 -0.2321105109
-0.0075269803 -0.0984858017 -0.2467921067
-0.0344531440 -0.1568418574 -0.2229584741
0.0371904772 -0.1169759600 -0.2556291537
0.0311706473 -0.1315949259 -0.2531536004
-0.0234591264 -0.1601226709 -0.2271290294
0.0226643433 -0.1818827250 -0.2382645958
0.0095485051 -0.1270088189 -0.2475462497
0.0140955133 -0.1470723575 -0.2423722806
-0.0027915371 -0.1454161420 -0.2382887700
0.0122219781 -0.1304944030 -0.2429566802
0.0356552474 -0.1600747299 -0.2443929991
0.0239435631 -0.0977485486 -0.2555357916
0.0242064120 -0.1198058607 -0.2534327894
0.0215859258 -0.1494011373 -0.2449065399
0.0334360749 -0.1522985669 -0.2507838411
-0.0413581903 -0.1039603944 -0.2330304947
0.0337469452 -0.1689156863 -0.2441231682
0.0214893433 -0.1695554105 -0.2381064684
0.0418250376 -0.1273504451 -0.2548903432
0.0334921453 -0.1751662196 -0.2392028865
0.0387419994 -0.1576649867 -0.2480795666
0.0107430324 -0.1704637800 -0.2353638128
0.0030491161 -0.1452814031 -0.2388190323
-0.0098610961 -0.1638290196 -0.2284186974
0.0259462311 -0.1769040658 -0.2389481683
0.0121251967 -0.1548071808 -0.2420696581
0.0213941906 -0.0996330326 -0.2552172260
-0.0609252097 -0.1177562779 -0.2298118421
0.0291083552 -0.1204517776 -0.2525764595
0.0099143685 -0.1294109261 -0.2465461468
-0.0035636299 -0.1471334121 -0.2347379728
-0.0401892849 -0.1479588140 -0.2264525321
0.0268117496 -0.1067824982 -0.2545073198
0.0171430681 -0.1691874647 -0.2350909971
-0.0116841766 -0.1583868119 -0.2305064549
0.0467661779 -0.1375816098 -0.2547207976
0.0145110063 -0.0945578672 -0.2588656871
0.0226353448 -0.1191173889 -0.2543255969
0.0042244249 -0.1378809611 -0.2428878595
0.0191680705 -0.1042475914 -0.2519593857
0.0343259422 -0.1226068288 -0.2553252160
0.0392212828 -0.1448041079 -0.2498386830
0.0515517143 -0.1076802535 -0.2691347310
0.0469964724 -0.1323697672 -0.2694293215
-0.0274755935 -0.1473814045 -0.2265887267
0.0290392967 -0.0970700206 -0.2598970776
-0.0108488849 -0.1517463302 -0.2301406206
0.0062782971 -0.1371148494 -0.2396405705
0.0217164026 -0.1216940231 -0.2527039389
-0.0632880516 -0.1183598764 -0.2300444925
0.0422441811 -0.0958621747 -0.2676061732
0.0315062426 -0.1519461376 -0.2463958960
0.0316378718 -0.1394347338 -0.2477476767
0.0348060886 -0.1414454061 -0.2497962780
0.0193355536 -0.1101866877 -0.2526549277
0.0216661035 -0.1596654291 -0.2401060307
0.0169834290 -0.1474411391 -0.2429444924
0.0237195902 -0.1525941938 -0.2425485700
0.0090127704 -0.1072081138 -0.2496060450
0.0088489465 -0.1143271945 -0.2501815536
-0.0051635690 -0.1354177898 -0.2425237514
0.0316712293 -0.1495796618 -0.2466702177
0.0189188790 -0.1395150637 -0.2454244199
0.0188677753 -0.1399565877 -0.2427010323
0.0290027055 -0.1503798331 -0.2470170188
-0.0128411928 -0.1522115975 -0.2333478054
0.0089707611 -0.0944729590 -0.2646060408
0.0439479643 -0.0968885404 -0.2825516077
0.0384976668 -0.0949225589 -0.2696439177
0.0102466687 -0.1556770845 -0.2395656147
-0.0028415470 -0.1219415569 -0.2439023521
-0.0101700942 -0.1553832332 -0.2283855783
-0.0172465351 -0.1486041432 -0.2313920288
0.0250638053 -0.0953711460 -0.2620400765
-0.0371548097 -0.1270824452 -0.2309023829
-0.0030386868 -0.1252709062 -0.2440140416
-0.0614302247 -0.1221207448 -0.2302528779
0.0144850357 -0.0946983260 -0.2699415875
0.0214811852 -0.1373095438 -0.2435105219
0.0372273681 -0.1224839069 -0.2513851297
0.0064842390 -0.1022076711 -0.2517053338
0.0324242417 -0.1091748538 -0.2600487649
-0.0031764647 -0.1156410640 -0.2436554526
0.0016602263 -0.1371816955 -0.2401170292
0.0117736282 -0.1543184519 -0.2406971082
0.0089146033 -0.1250539956 -0.2477633676
0.0042856449 -0.1197648138 -0.2456281518
0.0241913354 -0.1446625110 -0.2453774188
0.0288086711 -0.1489791860 -0.2454303337
-0.0198600183 -0.1564256600 -0.2268428607
0.0170324171 -0.1866983062 -0.2456354286
0.0446304383 -0.0990597918 -0.2656607189
0.0074656632 -0.1449830047 -0.2391039321
0.0153012188 -0.1613319927 -0.2381344955
0.0439223161 -0.1373521199 -0.2520447810
0.0406947374 -0.0945908434 -0.2755250773
0.0170697076 -0.1489275739 -0.2405752326
0.0367622763 -0.1046123512 -0.2586349631
-0.0162424360 -0.1192951178 -0.2391749822
0.0015757720 -0.1346663356 -0.2425201211
-0.0006263890 -0.1134629190 -0.2423965150
0.0344058519 -0.1700410694 -0.2427772834
0.0038412595 -0.1099114023 -0.2438778979
0.0142728501 -0.1868227428 -0.2433293618
-0.0556237029 -0.1165278526 -0.2305743088
0.0396254906 -0.0947092720 -0.2725278432
-0.0065437069 -0.1689529240 -0.2266352425
0.0538172057 -0.1047172167 -0.2673147252
0.0561055131 -0.1034754601 -0.2851333078
0.0523837750 -0.1022537308 -0.2721539519
0.0144682714 -0.1837523499 -0.2385402460
0.0501089316 -0.1003616087 -0.2774357343
0.0215801411 -0.1295350975 -0.2479520209
0.0184753351 -0.1496154535 -0.2427450890
-0.0079898034 -0.1208195551 -0.2444953604
0.0319043294 -0.0975146297 -0.2584353348
0.0193641796 -0.1713839336 -0.2376857929
0.0168561193 -0.1601194990 -0.2419011108
0.0068374490 -0.1121753344 -0.2480995280
-0.0021524898 -0.1903637996 -0.2387122750
0.0167462950 -0.1622349290 -0.2396814892
-0.0077020869 -0.1027122627 -0.2435278971
0.0361747095 -0.1320812783 -0.2541859073
-0.0278741749 -0.1214350526 -0.2290014594
-0.0185942885 -0.1521230547 -0.2244722798
0.0310775998 -0.1782718256 -0.2382013845
-0.0312750025 -0.1190055607 -0.2322413112
0.0188555299 -0.1219005466 -0.2495007274
0.0343384488 -0.1667441204 -0.2432224600
-0.0050729126 -0.1451623995 -0.2374920516
0.0489419738 -0.1403416818 -0.2595174729
-0.0004058075 -0.1392250705 -0.2419399343
0.0062539224 -0.1825848908 -0.2316175455
-0.0414203921 -0.1196578674 -0.2293073714
0.0315694515 -0.1745330396 -0.2421465762
0.0099259516 -0.1867043928 -0.2384978602
0.0345011623 -0.1498694721 -0.2470686906
0.0004812562 -0.1061103827 -0.2460494800
0.0467079032 -0.1172290805 -0.2621259849
0.0105610746 -0.1916933427 -0.2486977399
0.0515539921 -0.1205991709 -0.2675053374
0.0475331500 -0.1402836465 -0.2527019062
-0.0434434625 -0.1302282777 -0.2272748091
0.0053587834 -0.1035126024 -0.2478617212
0.0048005844 -0.1884618308 -0.2387266696
0.0132090971 -0.1920477613 -0.2523393711
0.0190044641 -0.0951588648 -0.2624554088
0.0070802040 -0.1195874206 -0.2473873657
0.0420040749 -0.1347746402 -0.2550583482
0.0340033978 -0.1834370076 -0.2473739369
0.0040372659 -0.1396263513 -0.2416811534
0.0165877240 -0.1170706632 -0.2506868399
0.0489894747 -0.1272628716 -0.2659968788
-0.0042466444 -0.1194336950 -0.2434270474
-0.0514742503 -0.1012338677 -0.2345958941
0.0187538698 -0.0995560526 -0.2532335533
0.0407986702 -0.1146610173 -0.2580716908
-0.0314216172 -0.1040669838 -0.2378429153
0.0178882810 -0.1156697346 -0.2492243410
0.0118585679 -0.0954379156 -0.2576170557
0.0291274708 -0.1394411480 -0.2477292023
0.0290450969 -0.1349062373 -0.2479445885
-0.0413024273 -0.0985404619 -0.2409652581
0.0047014964 -0.1201959537 -0.2478913372
0.0533542651 -0.1000040714 -0.2769781308
-0.0114818285 -0.1122631838 -0.2450243952
0.0366641904 -0.1463397000 -0.2493156559
0.0167469346 -0.1100481633 -0.2506787753
0.0185040509 -0.1869271996 -0.2487682825
0.0013614824 -0.1881463370 -0.2372589126
-0.0154398728 -0.1515220624 -0.2285733705
-0.0028517547 -0.1542576192 -0.2319216266
0.0032361477 -0.1369970109 -0.2404256672
0.0192142469 -0.1244938202 -0.2499933691
0.0418389369 -0.1001327499 -0.2598893722
-0.0147513086 -0.1107596583 -0.2409949096
0.0188795440 -0.0949302273 -0.2578717531
0.0031059404 -0.1682436874 -0.2327313216
-0.0041278681 -0.1630972659 -0.2332496634
0.0265462194 -0.1617331431 -0.2429352305
