-0.0369789749 -0.0158126093 -0.2727500200
-0.0363592990 -0.0161643941 -0.2739447653
-0.0354358666 -0.0162008945 -0.2742360532
-0.0345113613 -0.0162358731 -0.2745240927
-0.0332981683 -0.0159550067 -0.2739040554
-0.0323752314 -0.0159868039 -0.2741842866
-0.0314512253 -0.0160170700 -0.2744611502
-0.0302498899 -0.0157311242 -0.2738265693
-0.0293275248 -0.0157582443 -0.2740956843
-0.0281354841 -0.0154689318 -0.2734511793
-0.0274797883 -0.0158079043 -0.2746238708
-0.0262933131 -0.0155153573 -0.2739705145
-0.0253707394 -0.0155363046 -0.2742252052
-0.0244472139 -0.0155557329 -0.2744765580
-0.0235227197 -0.0155736404 -0.2747245729
-0.0228431970 -0.0159054492 -0.2758857906
-0.0221551172 -0.0162358657 -0.2770456672
-0.0214585066 -0.0165648796 -0.2782041430
-0.0209877938 -0.0172080044 -0.2802806199
-0.0202702824 -0.0175341554 -0.2814370990
-0.0190906506 -0.0172275472 -0.2807492614
-0.0987005457 -0.0120933233 -0.2489544302
-0.0973340794 -0.0119420178 -0.2486810684
-0.0970457718 -0.0123755913 -0.2499825209
-0.0956818014 -0.0122202421 -0.2496990710
-0.0948525742 -0.0123571651 -0.2502037287
-0.0940213576 -0.0124925980 -0.2507053912
-0.0931881070 -0.0126265790 -0.2512040436
-0.0923528299 -0.0127590783 -0.2516997755
-0.0909988806 -0.0125931464 -0.2513894737
-0.0901630372 -0.0127221793 -0.2518772781
-0.0893252417 -0.0128497425 -0.2523620725
-0.0884854868 -0.0129758473 -0.2528438568
-0.0871406123 -0.0128014581 -0.2525118589
-0.0863003954 -0.0129240938 -0.2529857457
-0.0859547183 -0.0133452872 -0.2542712688
-0.0856002942 -0.0137659488 -0.2555575073
-0.0842580274 -0.0135841677 -0.2552077174
-0.0834068581 -0.0137014054 -0.2556714118
-0.0825538784 -0.0138171418 -0.2561320961
-0.0812197700 -0.0136290370 -0.2557657659
-0.0803665519 -0.0137413768 -0.2562184930
-0.0795115158 -0.0138522023 -0.2566681504
-0.0781858340 -0.0136578530 -0.2562853992
-0.0777960345 -0.0140694221 -0.2575583458
-0.0769356564 -0.0141758015 -0.2579988539
-0.0756151006 -0.0139756957 -0.2576014996
-0.0747547001 -0.0140786720 -0.2580340803
-0.0738925561 -0.0141801825 -0.2584635615
-0.0730287209 -0.0142801702 -0.2588899434
-0.0721631795 -0.0143786957 -0.2593132555
-0.0712959543 -0.0144757517 -0.2597335279
-0.0704270452 -0.0145712867 -0.2601506114
-0.0691226944 -0.0143575175 -0.2597178221
-0.0686842576 -0.0147578809 -0.2609755099
-0.0678103939 -0.0148489559 -0.2613832951
-0.0669349357 -0.0149385128 -0.2617879510
-0.0664774105 -0.0153358616 -0.2630428672
-0.0655951872 -0.0154227838 -0.2634428740
-0.0647113472 -0.0155081889 -0.2638396621
-0.0638259426 -0.0155921020 -0.2642333508
-0.0633442178 -0.0159851424 -0.2654836774
-0.0620504655 -0.0157553870 -0.2650111318
-0.0615584515 -0.0161460564 -0.2662582099
-0.0606632717 -0.0162242316 -0.2666406631
-0.0597666018 -0.0163008962 -0.2670199275
-0.0584812239 -0.0160638094 -0.2665284276
-0.0575851910 -0.0161371361 -0.2668997347
-0.0566876791 -0.0162089262 -0.2672678530
-0.0557887219 -0.0162792057 -0.2676326931
-0.0548883267 -0.0163479764 -0.2679943740
-0.0539865196 -0.0164152179 -0.2683527172
-0.0534486435 -0.0167948399 -0.2695842981
-0.0525403582 -0.0168592986 -0.2699376643
-0.0512726866 -0.0166078117 -0.2694085538
-0.0503653139 -0.0166689567 -0.2697539628
-0.0498072617 -0.0170434993 -0.2709781229
-0.0485465527 -0.0167866834 -0.2704350054
-0.0472919159 -0.0165278800 -0.2698859572
-0.0467224978 -0.0168982912 -0.2711029649
-0.0454726368 -0.0166359860 -0.2705446780
-0.0445610769 -0.0166877694 -0.2708691061
-0.0436482579 -0.0167380124 -0.2711902857
-0.0430589281 -0.0171031486 -0.2723995149
-0.0421398990 -0.0171505362 -0.2727153301
-0.0412196368 -0.0171963796 -0.2730279267
-0.0399846286 -0.0169237349 -0.2724421024
-0.0390657037 -0.0169663318 -0.2727468014
-0.0384517126 -0.0173247326 -0.2739456892
-0.0372243449 -0.0170469396 -0.2733462155
-0.0366005190 -0.0174026079 -0.2745409310
-0.0356732272 -0.0174392313 -0.2748335302
-0.0344537236 -0.0171564091 -0.2742204666
-0.0332406498 -0.0168717578 -0.2736017406
-0.0326011144 -0.0172217153 -0.2747866809
-0.0316731483 -0.0172520578 -0.2750647366
-0.0307441652 -0.0172808580 -0.2753394544
-0.0295418967 -0.0169895999 -0.2747028768
-0.0286145899 -0.0170152318 -0.2749697864
-0.0274216253 -0.0167205930 -0.2743231952
-0.0264960974 -0.0167430751 -0.2745823562
-0.0253125485 -0.0164451189 -0.2739259601
-0.0246421341 -0.0167834610 -0.2750906944
-0.0237137061 -0.0168013684 -0.2753398120
-0.0230300035 -0.0171368811 -0.2765008807
-0.0223377291 -0.0174710248 -0.2776606381
-0.0216369275 -0.0178037100 -0.2788189352
-0.0211617537 -0.0184542723 -0.2808940113
-0.0204400308 -0.0187840946 -0.2820503116
-0.0194832310 -0.0187930502 -0.2822848856
-0.0983648673 -0.0134572005 -0.2499450594
-0.0975329429 -0.0135984644 -0.2504596114
-0.0966989771 -0.0137382243 -0.2509711981
-0.0953330174 -0.0135779893 -0.2506860793
-0.0944982916 -0.0137142474 -0.2511896789
-0.0936615169 -0.0138490377 -0.2516902983
-0.0928227603 -0.0139823388 -0.2521879971
-0.0919820145 -0.0141141750 -0.2526826560
-0.0911392793 -0.0142444978 -0.2531742752
-0.0897847638 -0.0140716368 -0.2528572679
-0.0894478932 -0.0145006999 -0.2541486323
-0.0880962387 -0.0143238483 -0.2538216710
-0.0872491077 -0.0144477244 -0.2542993426
-0.0864000395 -0.0145701300 -0.2547740042
-0.0860418305 -0.0149952136 -0.2560608685
-0.0846962109 -0.0148104476 -0.2557142675
-0.0838414505 -0.0149283530 -0.2561797798
-0.0829848647 -0.0150447721 -0.2566423118
-0.0816473812 -0.0148536321 -0.2562790215
-0.0807905421 -0.0149666062 -0.2567335069
-0.0794597641 -0.0147711122 -0.2563586831
-0.0786027834 -0.0148806470 -0.2568052709
-0.0777439997 -0.0149887018 -0.2572488189
-0.0768834427 -0.0150952702 -0.2576892972
-0.0755629539 -0.0148916291 -0.2572931647
-0.0751571134 -0.0153039321 -0.2585610151
-0.0742913038 -0.0154060023 -0.2589922249
-0.0734238029 -0.0155065935 -0.2594203949
-0.0725545958 -0.0156056974 -0.2598454058
-0.0721243173 -0.0160140339 -0.2611095607
-0.0708110854 -0.0157993510 -0.2606861889
-0.0699368417 -0.0158939492 -0.2611018717
-0.0690609291 -0.0159870088 -0.2615144253
-0.0681833699 -0.0160785932 -0.2619238794
-0.0673042014 -0.0161686540 -0.2623301148
-0.0668427572 -0.0165702086 -0.2635854483
-0.0659567937 -0.0166576207 -0.2639870644
-0.0650692061 -0.0167434979 -0.2643854916
-0.0645886883 -0.0171419028 -0.2656377852
-0.0636943877 -0.0172250867 -0.2660314143
-0.0623971149 -0.0169920307 -0.2655617297
-0.0619011335 -0.0173868593 -0.2668091357
-0.0606079996 -0.0171501189 -0.2663299143
-0.0597111695 -0.0172268674 -0.2667092085
-0.0588128380 -0.0173020959 -0.2670852244
-0.0579130165 -0.0173757896 -0.2674580812
-0.0570117347 -0.0174479708 -0.2678277194
-0.0561090000 -0.0175186098 -0.2681940794
-0.0552048087 -0.0175877288 -0.2685572207
-0.0542992055 -0.0176553112 -0.2689171135
-0.0537572764 -0.0180389900 -0.2701488435
-0.0524837412 -0.0177858733 -0.2696271241
-0.0515739359 -0.0178488474 -0.2699772418
-0.0506627560 -0.0179102924 -0.2703241408
-0.0493998080 -0.0176515579 -0.2697870135
-0.0484896079 -0.0177096967 -0.2701258957
-0.0472350493 -0.0174471829 -0.2695781589
-0.0466652475 -0.0178213622 -0.2707939744
-0.0454154722 -0.0175553448 -0.2702369690
-0.0448357202 -0.0179268997 -0.2714489102
-0.0435908176 -0.0176574159 -0.2708826959
-0.0430010967 -0.0180262849 -0.2720906436
-0.0420819409 -0.0180736817 -0.2724065781
-0.0411615521 -0.0181195457 -0.2727192044
-0.0402399413 -0.0181638338 -0.2730284929
-0.0393171497 -0.0182066094 -0.2733345032
-0.0386990048 -0.0185689051 -0.2745334804
-0.0374680199 -0.0182875376 -0.2739365101
-0.0368400924 -0.0186470598 -0.2751312256
-0.0359088965 -0.0186838154 -0.2754250765
-0.0349765718 -0.0187190138 -0.2757155895
-0.0337560587 -0.0184308477 -0.2751004696
-0.0328252800 -0.0184628163 -0.2753831148
-0.0318934321 -0.0184932556 -0.2756623924
-0.0309605245 -0.0185221303 -0.2759382725
-0.0297545772 -0.0182271879 -0.2753041387
-0.0288233589 -0.0182528645 -0.2755722106
-0.0278911144 -0.0182770062 -0.2758369744
-0.0266972668 -0.0179770235 -0.2751883864
-0.0257668402 -0.0179979969 -0.2754453123
-0.0248354264 -0.0180174429 -0.2756989300
-0.0239030700 -0.0180353317 -0.2759491801
-0.0232151784 -0.0183745660 -0.2771100998
-0.0222771280 -0.0183894411 -0.2773545682
-0.0215759333 -0.0187257621 -0.2785117030
-0.0211001337 -0.0193836913 -0.2805844247
-0.0206081569 -0.0200402327 -0.2826574743
-0.0980181918 -0.0148274638 -0.2509309053
-0.0971807465 -0.0149680804 -0.2514444888
-0.0963412300 -0.0151071912 -0.2519550323
-0.0949732587 -0.0149420602 -0.2516681254
-0.0941330120 -0.0150776533 -0.2521707416
-0.0932907388 -0.0152117433 -0.2526703179
-0.0924464837 -0.0153443441 -0.2531669140
-0.0910872594 -0.0151705649 -0.2528580725
-0.0902423784 -0.0152996751 -0.2533466816
-0.0893955454 -0.0154272811 -0.2538322806
-0.0880439878 -0.0152469696 -0.2535066307
-0.0871966705 -0.0153710740 -0.2539842427
-0.0863474384 -0.0154936984 -0.2544588447
-0.0859889165 -0.0159227382 -0.2557444274
-0.0851324722 -0.0160428472 -0.2562148869
-0.0842741579 -0.0161614697 -0.2566822767
-0.0829316899 -0.0159692448 -0.2563270032
-0.0815942660 -0.0157745965 -0.2559649646
-0.0807372853 -0.0158877689 -0.2564194798
-0.0794065967 -0.0156887714 -0.2560458183
-0.0785494372 -0.0157984979 -0.2564923763
-0.0776905268 -0.0159067567 -0.2569359839
-0.0768298432 -0.0160134975 -0.2573764026
-0.0755094066 -0.0158063099 -0.2569815516
-0.0751031786 -0.0162225179 -0.2582480907
-0.0742372274 -0.0163247678 -0.2586793303
-0.0733695775 -0.0164255220 -0.2591074705
-0.0729441717 -0.0168388728 -0.2603717148
-0.0720695853 -0.0169369970 -0.2607953250
-0.0707564428 -0.0167187583 -0.2603732049
-0.0698820204 -0.0168134980 -0.2607888877
-0.0694357678 -0.0172223486 -0.2620474398
-0.0681282803 -0.0169984251 -0.2616108656
-0.0676716417 -0.0174049977 -0.2628664672
-0.0676253513 -0.0181274936 -0.2649730146
-0.0663165674 -0.0178986620 -0.2645253539
-0.0654252693 -0.0179850049 -0.2649254203
-0.0645323992 -0.0180698223 -0.2653222978
-0.0636379644 -0.0181531217 -0.2657159865
-0.0623407699 -0.0179164428 -0.2652475536
-0.0618444197 -0.0183151085 -0.2664936781
-0.0609453283 -0.0183937959 -0.2668777108
-0.0600447319 -0.0184709616 -0.2672585547
-0.0591426454 -0.0185465813 -0.2676361799
-0.0582390539 -0.0186206587 -0.2680105269
-0.0573339872 -0.0186932143 -0.2683816254
-0.0564274713 -0.0187642165 -0.2687495351
-0.0555194877 -0.0188336838 -0.2691141665
-0.0549786091 -0.0192226935 -0.2703479230
-0.0540641323 -0.0192893483 -0.2707074881
-0.0531482473 -0.0193544328 -0.2710637450
-0.0518734157 -0.0190960858 -0.2705400586
-0.0509584174 -0.0191578250 -0.2708883584
-0.0493416861 -0.0185732618 -0.2694744468
-0.0484313592 -0.0186314229 -0.2698134184
-0.0471768938 -0.0183652248 -0.2692669332
-0.0466067195 -0.0187431630 -0.2704815269
-0.0453570485 -0.0184734408 -0.2699258327
-0.0451086164 -0.0191722400 -0.2720227540
-0.0441880748 -0.0192229077 -0.2723466158
-0.0435905792 -0.0195959564 -0.2735559940
-0.0423432626 -0.0193196386 -0.2729844749
-0.0414189994 -0.0193656757 -0.2732983828
-0.0404935293 -0.0194101594 -0.2736090124
-0.0395668782 -0.0194530934 -0.2739163041
-0.0386389941 -0.0194944721 -0.2742202580
-0.0374081098 -0.0192093533 -0.2736245990
-0.0367798023 -0.0195726007 -0.2748181224
-0.0358484611 -0.0196093153 -0.2751120031
-0.0349160023 -0.0196444821 -0.2754026353
-0.0336955972 -0.0193525720 -0.2747888267
-0.0327647068 -0.0193844978 -0.2750715017
-0.0318327136 -0.0194148775 -0.2753508985
-0.0308996662 -0.0194436908 -0.2756268978
-0.0302373227 -0.0197969973 -0.2768049836
-0.0290304441 -0.0194967017 -0.2761687338
-0.0280942768 -0.0195208769 -0.2764346600
-0.0268967655 -0.0192171894 -0.2757884562
-0.0259623993 -0.0192381721 -0.2760465741
-0.0250270609 -0.0192576051 -0.2763012350
-0.0240907669 -0.0192754939 -0.2765525877
-0.0233986564 -0.0196184274 -0.2777133584
-0.0226980317 -0.0199599545 -0.2788727283
-0.0217512809 -0.0199732818 -0.2791158855
-0.0212710574 -0.0206386186 -0.2811871171
-0.0985014513 -0.0160625484 -0.2513962984
-0.0976605341 -0.0162040163 -0.2519118488
-0.0968175307 -0.0163439792 -0.2524243891
-0.0954462960 -0.0161759686 -0.2521407306
-0.0940796956 -0.0160053410 -0.2518500090
-0.0937567726 -0.0164472740 -0.2531468272
-0.0923928693 -0.0162725970 -0.2528460920
-0.0910337046 -0.0160953663 -0.2525385022
-0.0901887044 -0.0162247196 -0.2530270815
-0.0893417075 -0.0163525585 -0.2535125911
-0.0879902244 -0.0161687993 -0.2531881928
-0.0871427879 -0.0162931457 -0.2536658049
-0.0867891833 -0.0167271178 -0.2549512088
-0.0864268243 -0.0171605870 -0.2562373579
-0.0855668262 -0.0172813982 -0.2567096055
-0.0842194483 -0.0170881432 -0.2563623786
-0.0833590999 -0.0172054674 -0.2568266988
-0.0820182934 -0.0170077663 -0.2564677298
-0.0811577067 -0.0171216298 -0.2569240928
-0.0798236206 -0.0169195570 -0.2565535009
-0.0784946606 -0.0167150795 -0.2561762631
-0.0776356086 -0.0168235246 -0.2566197813
-0.0767747536 -0.0169304498 -0.2570602000
-0.0759121627 -0.0170358978 -0.2574975491
-0.0755020753 -0.0174564105 -0.2587645948
-0.0746324882 -0.0175592434 -0.2591975629
-0.0737611800 -0.0176605694 -0.2596273720
-0.0733318701 -0.0180781912 -0.2608920336
-0.0724536255 -0.0181768909 -0.2613174021
-0.0715736672 -0.0182740763 -0.2617395818
-0.0706920549 -0.0183697026 -0.2621586323
-0.0698087662 -0.0184638351 -0.2625745237
-0.0689238086 -0.0185564291 -0.2629872561
-0.0680372193 -0.0186474975 -0.2633968294
-0.0675679073 -0.0190574974 -0.2646529078
-0.0666744858 -0.0191458352 -0.2650577724
-0.0657794997 -0.0192326624 -0.2654594481
-0.0648828968 -0.0193179529 -0.2658579051
-0.0639847144 -0.0194016881 -0.2662531734
-0.0626840070 -0.0191617254 -0.2657876015
-0.0617863126 -0.0192420594 -0.2661748528
-0.0608871132 -0.0193208419 -0.2665589154
-0.0603764914 -0.0197212026 -0.2678019702
-0.0590841435 -0.0194738284 -0.2673174441
-0.0585632809 -0.0198716875 -0.2685570121
-0.0576544367 -0.0199446175 -0.2689296603
-0.0567441434 -0.0200159680 -0.2692990601
-0.0554604270 -0.0197612289 -0.2687954903
-0.0549191833 -0.0201540403 -0.2700279653
-0.0540045723 -0.0202207509 -0.2703876197
-0.0527275763 -0.0199605413 -0.2698698938
-0.0518137999 -0.0200238694 -0.2702214718
-0.0505450480 -0.0197597835 -0.2696930170
-0.0492822826 -0.0194936823 -0.2691585124
-0.0480255559 -0.0192255508 -0.2686179280
-0.0471174531 -0.0192820057 -0.2689523697
-0.0465469100 -0.0196636934 -0.2701657414
-0.0456325151 -0.0197172686 -0.2704949379
-0.0450482853 -0.0200965442 -0.2717057765
-0.0444553718 -0.0204746518 -0.2729159296
-0.0435297415 -0.0205239989 -0.2732377946
-0.0426028632 -0.0205717832 -0.2735563815
-0.0416747443 -0.0206180029 -0.2738716602
-0.0404325463 -0.0203344729 -0.2732922435
-0.0395057462 -0.0203774050 -0.2735995948
-0.0385777466 -0.0204187743 -0.2739035785
-0.0373469740 -0.0201299060 -0.2733092606
-0.0364204198 -0.0201680064 -0.2736054361
-0.0357868150 -0.0205335412 -0.2747956216
-0.0348542444 -0.0205686744 -0.2750862241
-0.0336339474 -0.0202729851 -0.2744737864
-0.0329857431 -0.0206342489 -0.2756573558
-0.0320498422 -0.0206647180 -0.2759379447
-0.0311128851 -0.0206936151 -0.2762151062
-0.0301748831 -0.0207209326 -0.2764889002
-0.0292358529 -0.0207467172 -0.2767593265
-0.0280318744 -0.0204409789 -0.2761200368
-0.0270945672 -0.0204635151 -0.2763825655
-0.0264125913 -0.0208146144 -0.2775502503
-0.0254695248 -0.0208341312 -0.2778070867
-0.0245254841 -0.0208520684 -0.2780605853
-0.0238253921 -0.0211987942 -0.2792221606
-0.0228756592 -0.0212136600 -0.2794698477
-0.0221622530 -0.0215574056 -0.2806275785
-0.0216737259 -0.0222301669 -0.2826983035
-0.0989827514 -0.0173037481 -0.2518558204
-0.0981383547 -0.0174460541 -0.2523733377
-0.0972918645 -0.0175868310 -0.2528878450
-0.0959173590 -0.0174159408 -0.2526074052
-0.0950701013 -0.0175531730 -0.2531138957
-0.0942208245 -0.0176888742 -0.2536173463
-0.0928536430 -0.0175113007 -0.2533199191
-0.0914911851 -0.0173311606 -0.2530154884
-0.0906426460 -0.0174612682 -0.2535059750
-0.0897921249 -0.0175898913 -0.2539934218
-0.0884373114 -0.0174031705 -0.2536721528
-0.0870873705 -0.0172139369 -0.2533440292
-0.0867334083 -0.0176518373 -0.2546280921
-0.0863706842 -0.0180892330 -0.2559129298
-0.0855105445 -0.0182102676 -0.2563851476
-0.0841632411 -0.0180135258 -0.2560391724
-0.0837845877 -0.0184478033 -0.2573204339
-0.0829187855 -0.0185642987 -0.2577834725
-0.0815762356 -0.0183616076 -0.2574227750
-0.0802387893 -0.0181564856 -0.2570553124
-0.0793744028 -0.0182674881 -0.2575054169
-0.0785082355 -0.0183770154 -0.2579525113
-0.0771792680 -0.0181655679 -0.2575685680
-0.0758555159 -0.0179517493 -0.2571780384
-0.0754450634 -0.0183761436 -0.2584437132
-0.0745753348 -0.0184791628 -0.2588766515
-0.0737038925 -0.0185806472 -0.2593064606
-0.0732742101 -0.0190021377 -0.2605698407
-0.0723958164 -0.0191009995 -0.2609951496
-0.0715157390 -0.0191983320 -0.2614173591
-0.0706339851 -0.0192941241 -0.2618364394
-0.0701798722 -0.0197114684 -0.2630956769
-0.0692912340 -0.0198045615 -0.2635100782
-0.0684009418 -0.0198961347 -0.2639212906
-0.0679276660 -0.0203103274 -0.2651776671
-0.0670305714 -0.0203991625 -0.2655841708
-0.0661318600 -0.0204864647 -0.2659874558
-0.0656394288 -0.0208974052 -0.2672406733
-0.0643296093 -0.0206563752 -0.2667843401
-0.0630254224 -0.0204131640 -0.2663216889
-0.0621240027 -0.0204939209 -0.2667105198
-0.0612210259 -0.0205731299 -0.2670961618
-0.0603165291 -0.0206507854 -0.2674785256
-0.0594105497 -0.0207268968 -0.2678577006
-0.0585030429 -0.0208014287 -0.2682335675
-0.0579730608 -0.0212021414 -0.2694716454
-0.0570589900 -0.0212738644 -0.2698425651
-0.0557717532 -0.0210157558 -0.2693417966
-0.0548584200 -0.0210840795 -0.2697046399
-0.0543080382 -0.0214796588 -0.2709355056
-0.0526667722 -0.0208869707 -0.2695479095
-0.0517528839 -0.0209503490 -0.2698995173
-0.0508376136 -0.0210121982 -0.2702478766
-0.0495712981 -0.0207426548 -0.2697161138
-0.0486569963 -0.0208011214 -0.2700564563
-0.0477413908 -0.0208580643 -0.2703936398
-0.0468244366 -0.0209134314 -0.2707275152
-0.0459062047 -0.0209672507 -0.2710580230
-0.0453178957 -0.0213504676 -0.2722689509
-0.0447208993 -0.0217325259 -0.2734791934
-0.0437914133 -0.0217820797 -0.2738023996
-0.0431807339 -0.0221615937 -0.2750098109
-0.0422450230 -0.0222081803 -0.2753276229
-0.0409954935 -0.0219212919 -0.2747521102
-0.0400611088 -0.0219645668 -0.2750619650
-0.0388203822 -0.0216739923 -0.2744759917
-0.0375859737 -0.0213815439 -0.2738842666
-0.0369531475 -0.0217523463 -0.2750765383
-0.0360177904 -0.0217891578 -0.2753717899
-0.0350813381 -0.0218244046 -0.2756636143
-0.0341437422 -0.0218580738 -0.2759521008
-0.0334876105 -0.0222232826 -0.2771368325
-0.0325440578 -0.0222539436 -0.2774196863
-0.0313244052 -0.0219496544 -0.2767973542
-0.0303824805 -0.0219770335 -0.2770723104
-0.0294395387 -0.0220028516 -0.2773438990
-0.0282318965 -0.0216934271 -0.2767070234
-0.0272906907 -0.0217159893 -0.2769707441
-0.0266045369 -0.0220708326 -0.2781382501
-0.0256575346 -0.0220903251 -0.2783962190
-0.0247095749 -0.0221082624 -0.2786507905
-0.0240052789 -0.0224586688 -0.2798122168
-0.0230516084 -0.0224735066 -0.2800609469
-0.0223340150 -0.0228209328 -0.2812184393
-0.0218410045 -0.0235010665 -0.2832876742
-0.0994620100 -0.0185509566 -0.2523093224
-0.0986141264 -0.0186941195 -0.2528288364
-0.0982932821 -0.0191490445 -0.2541339397
-0.0974379107 -0.0192896929 -0.2546493709
-0.0955357105 -0.0188000444 -0.2535765767
-0.0946829095 -0.0189365540 -0.2540819645
-0.0938281193 -0.0190715361 -0.2545843720
-0.0924590006 -0.0188890062 -0.2542851269
-0.0910946354 -0.0187039133 -0.2539789379
-0.0902406052 -0.0188332889 -0.2544682622
-0.0888824612 -0.0186436176 -0.2541501522
-0.0875292048 -0.0184514355 -0.2538252473
-0.0871714503 -0.0188937616 -0.2551098168
-0.0863130763 -0.0190165620 -0.2555851042
-0.0854527727 -0.0191378165 -0.2560573518
-0.0845905915 -0.0192575846 -0.2565265000
-0.0837265328 -0.0193758048 -0.2569925785
-0.0823824853 -0.0191715918 -0.2566380203
-0.0815181360 -0.0192863140 -0.2570960820
-0.0801807866 -0.0190776978 -0.2567299008
-0.0793162659 -0.0191888995 -0.2571800351
-0.0784499794 -0.0192986075 -0.2576270700
-0.0771211162 -0.0190836377 -0.2572444081
-0.0762547404 -0.0191898737 -0.2576835454
-0.0753866211 -0.0192945730 -0.2581195235
-0.0749670640 -0.0197221674 -0.2593843043
-0.0740919560 -0.0198242422 -0.2598158717
-0.0732151344 -0.0199247841 -0.2602443099
-0.0727763250 -0.0203494094 -0.2615066171
-0.0718925670 -0.0204472914 -0.2619304955
-0.0710071325 -0.0205436200 -0.2623511851
-0.0705491081 -0.0209651869 -0.2636108994
-0.0696567819 -0.0210588016 -0.2640269101
-0.0687628016 -0.0211508777 -0.2644397914
-0.0682855994 -0.0215692837 -0.2656964958
-0.0673847869 -0.0216586012 -0.2661046088
-0.0664823279 -0.0217463598 -0.2665094137
-0.0655782968 -0.0218325611 -0.2669111490
-0.0646726564 -0.0219171979 -0.2673095763
-0.0629645064 -0.0213411134 -0.2659947872
-0.0624598004 -0.0217518657 -0.2672401667
-0.0615531020 -0.0218315069 -0.2676273286
-0.0606448613 -0.0219095591 -0.2680112422
-0.0597351007 -0.0219860580 -0.2683919370
-0.0588238500 -0.0220609903 -0.2687693238
-0.0579111092 -0.0221343506 -0.2691434920
-0.0569968931 -0.0222061519 -0.2695144415
-0.0557097867 -0.0219443962 -0.2690150142
-0.0547963269 -0.0220127944 -0.2693778872
-0.0538814366 -0.0220796112 -0.2697375417
-0.0526046753 -0.0218120813 -0.2692224979
-0.0516906567 -0.0218755268 -0.2695741653
-0.0507752560 -0.0219374206 -0.2699225545
-0.0498584844 -0.0219977181 -0.2702676654
-0.0489403866 -0.0220564809 -0.2706094980
-0.0480209589 -0.0221136808 -0.2709480226
-0.0471001938 -0.0221692976 -0.2712832689
-0.0461781360 -0.0222233701 -0.2716151774
-0.0459166802 -0.0229451712 -0.2737084329
-0.0449846461 -0.0229964983 -0.2740363777
-0.0440513156 -0.0230462775 -0.2743609548
-0.0431167297 -0.0230944417 -0.2746821940
-0.0421808772 -0.0231410265 -0.2750000656
-0.0409315079 -0.0228504259 -0.2744258940
-0.0396883637 -0.0225578807 -0.2738458812
-0.0387563780 -0.0225993935 -0.2741512060
-0.0378232449 -0.0226393174 -0.2744532228
-0.0368889347 -0.0226776823 -0.2747518122
-0.0359534398 -0.0227144659 -0.2750470936
-0.0350168534 -0.0227496903 -0.2753390670
-0.0340791270 -0.0227833204 -0.2756276131
-0.0334226452 -0.0231521986 -0.2768110633
-0.0324789323 -0.0231828019 -0.2770939767
-0.0312594511 -0.0228747670 -0.2764730155
-0.0303174052 -0.0229020715 -0.2767480612
-0.0296415109 -0.0232651196 -0.2779224217
-0.0284302123 -0.0229519941 -0.2772880197
-0.0277446900 -0.0233120546 -0.2784577012
-0.0267947838 -0.0233331453 -0.2787202299
-0.0258438718 -0.0233526547 -0.2789793313
-0.0248919763 -0.0233705584 -0.2792349756
-0.0239391215 -0.0233868901 -0.2794872224
-0.0232258867 -0.0237394534 -0.2806459665
-0.0225040857 -0.0240905397 -0.2818032205
-0.1366302520 -0.0217063930 -0.2528327405
-0.1339085400 -0.0210132990 -0.2513159513
-0.1312027276 -0.0203142576 -0.2497820407
-0.0994037315 -0.0194883477 -0.2519736886
-0.0990879014 -0.0199481994 -0.2532783449
-0.0982345119 -0.0200906601 -0.2537967563
-0.0973790064 -0.0202316009 -0.2543122470
-0.0959992409 -0.0200529192 -0.2540332675
-0.0951429829 -0.0201902278 -0.2545405626
-0.0932537839 -0.0196877345 -0.2534543276
-0.0924002230 -0.0198209323 -0.2539516091
-0.0910359547 -0.0196324103 -0.2536467016
-0.0901817754 -0.0197620392 -0.2541360259
-0.0888237432 -0.0195689071 -0.2538191974
-0.0879690573 -0.0196949802 -0.2543005049
-0.0871124789 -0.0198195297 -0.2547787726
-0.0862539336 -0.0199425444 -0.2552539706
-0.0853935108 -0.0200640447 -0.2557261884
-0.0845311955 -0.0201840177 -0.2561952472
-0.0836670026 -0.0203024559 -0.2566612959
-0.0823230594 -0.0200947784 -0.2563080490
-0.0814585909 -0.0202096943 -0.2567661107
-0.0805923194 -0.0203230884 -0.2572210729
-0.0797241926 -0.0204349402 -0.2576729357
-0.0783902481 -0.0202188734 -0.2572982609
-0.0775220394 -0.0203272365 -0.2577422261
-0.0766520724 -0.0204340797 -0.2581830621
-0.0757803097 -0.0205393918 -0.2586207986
-0.0753568485 -0.0209712479 -0.2598859966
-0.0749246255 -0.0214024168 -0.2611515522
-0.0740406439 -0.0215039384 -0.2615834177
-0.0727154538 -0.0212746002 -0.2611764371
-0.0722675025 -0.0217023157 -0.2624376714
-0.0709460005 -0.0214691125 -0.2620209455
-0.0704875961 -0.0218945164 -0.2632792890
-0.0695951432 -0.0219882764 -0.2636952996
-0.0691227689 -0.0224117059 -0.2649522722
-0.0682234690 -0.0225027315 -0.2653635442
-0.0673224926 -0.0225921776 -0.2657716274
-0.0664199218 -0.0226800647 -0.2661765218
-0.0655157641 -0.0227663834 -0.2665781677
-0.0646100044 -0.0228511244 -0.2669766247
-0.0633024275 -0.0226010252 -0.2665181458
-0.0627937540 -0.0230159163 -0.2677638233
-0.0618832968 -0.0230959542 -0.2681525052
-0.0609713197 -0.0231744293 -0.2685379386
-0.0600578152 -0.0232513212 -0.2689201832
-0.0591428019 -0.0233266298 -0.2692990899
-0.0582263097 -0.0234003887 -0.2696748078
-0.0573083200 -0.0234725457 -0.2700471878
-0.0560176708 -0.0232074037 -0.2695505321
-0.0551004298 -0.0232761484 -0.2699149251
-0.0541817509 -0.0233432930 -0.2702759802
-0.0529014766 -0.0230723880 -0.2697637975
-0.0519836657 -0.0231361259 -0.2701168954
-0.0510644577 -0.0231982972 -0.2704666853
-0.0501439013 -0.0232589114 -0.2708131671
-0.0492219850 -0.0233179349 -0.2711564600
-0.0482987389 -0.0233753901 -0.2714963555
-0.0473741479 -0.0234312583 -0.2718330026
-0.0461138561 -0.0231474079 -0.2712866068
-0.0455210730 -0.0235382859 -0.2724962831
-0.0449196026 -0.0239280015 -0.2737052441
-0.0439861566 -0.0239777789 -0.2740298510
-0.0433709882 -0.0243649129 -0.2752360106
-0.0421155058 -0.0240725316 -0.2746690810
-0.0411783159 -0.0241175462 -0.2749836445
-0.0399315841 -0.0238214582 -0.2744062841
-0.0386911556 -0.0235234424 -0.2738229930
-0.0377578847 -0.0235633682 -0.2741250694
-0.0368234329 -0.0236016903 -0.2744237185
-0.0358878598 -0.0236384496 -0.2747190893
-0.0349511579 -0.0236736331 -0.2750110924
-0.0340133123 -0.0237072296 -0.2752996981
-0.0333564393 -0.0240797698 -0.2764818668
-0.0324126519 -0.0241103359 -0.2767648995
-0.0311932731 -0.0237985253 -0.2761453390
-0.0302511342 -0.0238257926 -0.2764204144
-0.0295748562 -0.0241924655 -0.2775935233
-0.0283637065 -0.0238755792 -0.2769604623
-0.0276778173 -0.0242392793 -0.2781289518
-0.0269832909 -0.0246015359 -0.2792960703
-0.0260284487 -0.0246210378 -0.2795562744
-0.0253205746 -0.0249803420 -0.2807196975
-0.0243599657 -0.0249967203 -0.2809740305
-0.0236387365 -0.0253530089 -0.2821335495
-0.0229089148 -0.0257077944 -0.2832915485
-0.0226357765 -0.0267443359 -0.2862692475
-0.1375789493 -0.0238249842 -0.2552884817
-0.1348551214 -0.0231198054 -0.2537725568
-0.1321472079 -0.0224087071 -0.2522394061
-0.1300678700 -0.0219959114 -0.2514188886
-0.0998791754 -0.0207439046 -0.2524165213
-0.0990276933 -0.0208881870 -0.2529379129
-0.0981741473 -0.0210309345 -0.2534562945
-0.0978437886 -0.0214933455 -0.2547596097
-0.0964608043 -0.0213118028 -0.2544839382
-0.0950824693 -0.0211276542 -0.2542012334
-0.0937088206 -0.0209408849 -0.2539114952
-0.0928517506 -0.0210748632 -0.2544107437
-0.0914841890 -0.0208834261 -0.2541090548
-0.0906264931 -0.0210138056 -0.2546001971
-0.0892651975 -0.0208177641 -0.2542866170
-0.0884069726 -0.0209445823 -0.2547697723
-0.0875468329 -0.0210698526 -0.2552498877
-0.0866847411 -0.0211935826 -0.2557269335
-0.0858207718 -0.0213157963 -0.2562009990
-0.0849548802 -0.0214364752 -0.2566719055
-0.0840871185 -0.0215555783 -0.2571397722
-0.0827398077 -0.0213448815 -0.2567896545
-0.0813975632 -0.0211317241 -0.2564327121
-0.0805311427 -0.0212453213 -0.2568876743
-0.0801301971 -0.0216870215 -0.2581599653
-0.0787928775 -0.0214679055 -0.2577883601
-0.0779210553 -0.0215768870 -0.2582340539
-0.0775042549 -0.0220152717 -0.2595022917
-0.0766253695 -0.0221216045 -0.2599435747
-0.0757447109 -0.0222263858 -0.2603816688
-0.0753086433 -0.0226618387 -0.2616476119
-0.0744209886 -0.0227639247 -0.2620811760
-0.0735316202 -0.0228644535 -0.2625115812
-0.0726405308 -0.0229634196 -0.2629387975
-0.0713156164 -0.0227270368 -0.2625250816
-0.0708532929 -0.0231566709 -0.2637836933
-0.0699571595 -0.0232509542 -0.2642014027
-0.0694808289 -0.0236785691 -0.2654586434
-0.0685778111 -0.0237700772 -0.2658715844
-0.0676731691 -0.0238600187 -0.2662812769
-0.0667668879 -0.0239483695 -0.2666877508
-0.0658589900 -0.0240351390 -0.2670910060
-0.0649495125 -0.0241203588 -0.2674910426
-0.0636384785 -0.0238669738 -0.2670354843
-0.0631258264 -0.0242859982 -0.2682813108
-0.0622116290 -0.0243664682 -0.2686716020
-0.0609067790 -0.0241073985 -0.2682015896
-0.0599931516 -0.0241843760 -0.2685838640
-0.0590780154 -0.0242597833 -0.2689628303
-0.0581613891 -0.0243336074 -0.2693384886
-0.0572432913 -0.0244058259 -0.2697108984
-0.0563237108 -0.0244764909 -0.2700800300
-0.0550354198 -0.0242058672 -0.2695800066
-0.0541166365 -0.0242730975 -0.2699411213
-0.0531964228 -0.0243387185 -0.2702989578
-0.0522748269 -0.0244027860 -0.2706535161
-0.0513518304 -0.0244652424 -0.2710047066
-0.0507764108 -0.0248671044 -0.2722256482
-0.0495017506 -0.0245854557 -0.2716973424
-0.0485746823 -0.0246431548 -0.2720386684
-0.0473084524 -0.0243576393 -0.2714996338
-0.0463824421 -0.0244119614 -0.2718329728
-0.0457855724 -0.0248067789 -0.2730426490
-0.0451800078 -0.0252004247 -0.2742516398
-0.0439197049 -0.0249079168 -0.2736953199
-0.0433041714 -0.0252987780 -0.2749002278
-0.0420488343 -0.0250026863 -0.2743346095
-0.0411115289 -0.0250476785 -0.2746492624
-0.0398649722 -0.0247478820 -0.2740732431
-0.0389289968 -0.0247895252 -0.2743799388
-0.0379918590 -0.0248295777 -0.2746832073
-0.0373503976 -0.0252117254 -0.2758741081
-0.0361141302 -0.0249049161 -0.2752797604
-0.0351735279 -0.0249402057 -0.2755729556
-0.0342318267 -0.0249739010 -0.2758628130
-0.0335707627 -0.0253502317 -0.2770448625
-0.0326231085 -0.0253808498 -0.2773290277
-0.0316743478 -0.0254098903 -0.2776098549
-0.0307244975 -0.0254373122 -0.2778872252
-0.0300402697 -0.0258078370 -0.2790612876
-0.0288217012 -0.0254873540 -0.2784317434
-0.0281278417 -0.0258548837 -0.2796010971
-0.0271700658 -0.0258759819 -0.2798658609
-0.0262113512 -0.0258954689 -0.2801271677
-0.0252516102 -0.0259133596 -0.2803850472
-0.0245347414 -0.0262748189 -0.2815457880
-0.0235692915 -0.0262895301 -0.2817977667
-0.0228390619 -0.0266479254 -0.2829545438
-0.0230297539 -0.0283861123 -0.2877468169
-0.1363924295 -0.0255573597 -0.2569541633
-0.1342916787 -0.0251427162 -0.2561524212
-0.1303731948 -0.0237979610 -0.2531466782
-0.1264833659 -0.0224445481 -0.2501148582
-0.1003525406 -0.0220054109 -0.2528533638
-0.0994976163 -0.0221505351 -0.2533767223
-0.0986405984 -0.0222941246 -0.2538970113
-0.0977815017 -0.0224361774 -0.2544143200
-0.0963986292 -0.0222512521 -0.2541399300
-0.0955387279 -0.0223896410 -0.2546491325
-0.0941618308 -0.0221999902 -0.2543626726
-0.0933012292 -0.0223347563 -0.2548637986
-0.0924386159 -0.0224679690 -0.2553618252
-0.0915740281 -0.0225996319 -0.2558568716
-0.0897046104 -0.0220726188 -0.2547479868
-0.0888428614 -0.0222001560 -0.2552330196
-0.0879791901 -0.0223261714 -0.2557150126
-0.0871135592 -0.0224506296 -0.2561939359
-0.0857582763 -0.0222429968 -0.2558617592
-0.0848922804 -0.0223638918 -0.2563326955
-0.0840243921 -0.0224832371 -0.2568005025
-0.0826771930 -0.0222690497 -0.2564516664
-0.0818090364 -0.0223848447 -0.2569114864
-0.0809390321 -0.0224991012 -0.2573682070
-0.0800672099 -0.0226117931 -0.2578218579
-0.0791935548 -0.0227229465 -0.2582723796
-0.0783180967 -0.0228325482 -0.2587198317
-0.0774408728 -0.0229406059 -0.2591641545
-0.0765618905 -0.0230471175 -0.2596053779
-0.0761306584 -0.0234875511 -0.2608713210
-0.0756906793 -0.0239272583 -0.2621376216
-0.0747993737 -0.0240299199 -0.2625728548
-0.0739063695 -0.0241310149 -0.2630049288
-0.0734470561 -0.0245676190 -0.2642685771
-0.0716832727 -0.0239909776 -0.2630231678
-0.0712170303 -0.0244248342 -0.2642820776
-0.0703172162 -0.0245196242 -0.2647014260
-0.0698369592 -0.0249514543 -0.2659589648
-0.0689302459 -0.0250434559 -0.2663734853
-0.0684359670 -0.0254731923 -0.2676294446
-0.0671119243 -0.0252227001 -0.2671929300
-0.0666072294 -0.0256499723 -0.2684456110
-0.0656904355 -0.0257359538 -0.2688487470
-0.0643723533 -0.0254796613 -0.2683977187
-0.0634560063 -0.0255621262 -0.2687928081
-0.0625380725 -0.0256430004 -0.2691846192
-0.0612297356 -0.0253806431 -0.2687175274
-0.0603123568 -0.0254580043 -0.2691012323
-0.0590118580 -0.0251915529 -0.2686230838
-0.0580951385 -0.0252654552 -0.2689987719
-0.0571769141 -0.0253377818 -0.2693712711
-0.0562572218 -0.0254084878 -0.2697404027
-0.0553361028 -0.0254776347 -0.2701062560
-0.0544135384 -0.0255451743 -0.2704688311
-0.0534895323 -0.0256111138 -0.2708280385
-0.0525641553 -0.0256754812 -0.2711840570
-0.0516373739 -0.0257382467 -0.2715367377
-0.0507092029 -0.0257994309 -0.2718860507
-0.0497796834 -0.0258590020 -0.2722321153
-0.0488488078 -0.0259169638 -0.2725748420
-0.0475790277 -0.0256279986 -0.2720385194
-0.0466492064 -0.0256825648 -0.2723732591
-0.0457180776 -0.0257355273 -0.2727046311
-0.0451121368 -0.0261329021 -0.2739123106
-0.0441747345 -0.0261828825 -0.2742382884
-0.0432360768 -0.0262312517 -0.2745609283
-0.0422961861 -0.0262780394 -0.2748802602
-0.0410434790 -0.0259764493 -0.2743114233
-0.0401048809 -0.0260198489 -0.2746227384
-0.0391650535 -0.0260616392 -0.2749306858
-0.0382240824 -0.0261018351 -0.2752352357
-0.0372819044 -0.0261404272 -0.2755364478
-0.0363385864 -0.0261774100 -0.2758342624
-0.0353941359 -0.0262128096 -0.2761287093
-0.0347338356 -0.0265944023 -0.2773129046
-0.0337833650 -0.0266267136 -0.2776016891
-0.0325540602 -0.0263093505 -0.2769916952
-0.0318791345 -0.0266865082 -0.2781690657
-0.0309254304 -0.0267139934 -0.2784476578
-0.0299706701 -0.0267398618 -0.2787227929
-0.0290148295 -0.0267641060 -0.2789944708
-0.0283167697 -0.0271353219 -0.2801635861
-0.0273551177 -0.0271564350 -0.2804294825
-0.0261413213 -0.0268272012 -0.2797890007
-0.0251814835 -0.0268449988 -0.2800469100
-0.0242206808 -0.0268611740 -0.2803014219
-0.0232589431 -0.0268757436 -0.2805524468
-0.0227680840 -0.0275866631 -0.2826139629
-0.0229572654 -0.0293432046 -0.2873996198
-0.1366741955 -0.0274044350 -0.2586829066
-0.1333532184 -0.0263569523 -0.2564221919
-0.1288429499 -0.0246764254 -0.2526769340
-0.1002890617 -0.0229459796 -0.2525048852
-0.0994340256 -0.0230914131 -0.2530281842
-0.0985768586 -0.0232352931 -0.2535484433
-0.0977176353 -0.0233776122 -0.2540656626
-0.0968563184 -0.0235183612 -0.2545797825
-0.0959929526 -0.0236575864 -0.2550909817
-0.0951275155 -0.0237952229 -0.2555990219
-0.0937487260 -0.0236006137 -0.2553107738
-0.0923746377 -0.0234033968 -0.2550155818
-0.0915099010 -0.0235352926 -0.2555105388
-0.0901420340 -0.0233334322 -0.2552033663
-0.0892767683 -0.0234617088 -0.2556902468
-0.0884095505 -0.0235884637 -0.2561740875
-0.0875403658 -0.0237136390 -0.2566548288
-0.0861817896 -0.0235030334 -0.2563258410
-0.0853122175 -0.0236246232 -0.2567985654
-0.0844407603 -0.0237446707 -0.2572682202
-0.0830902681 -0.0235274974 -0.2569225729
-0.0817448273 -0.0233078394 -0.2565701008
-0.0813449472 -0.0237588603 -0.2578426600
-0.0804695114 -0.0238722004 -0.2582980990
-0.0795922801 -0.0239839889 -0.2587503791
-0.0787132159 -0.0240942184 -0.2591995895
-0.0782886595 -0.0245412067 -0.2604686618
-0.0774025470 -0.0246487577 -0.2609133422
-0.0769639388 -0.0250938777 -0.2621814013
-0.0760707557 -0.0251986906 -0.2626214921
-0.0756180584 -0.0256418847 -0.2638884187
-0.0742791444 -0.0254035499 -0.2634921968
-0.0738159344 -0.0258444026 -0.2647561729
-0.0724806562 -0.0256020986 -0.2643502057
-0.0715788528 -0.0256989989 -0.2647743821
-0.0706753582 -0.0257943161 -0.2651953697
-0.0701911524 -0.0262303241 -0.2664531469
-0.0692807660 -0.0263228286 -0.2668693364
-0.0683687031 -0.0264137238 -0.2672822177
-0.0674550235 -0.0265030246 -0.2676919103
-0.0665397272 -0.0265907310 -0.2680983543
-0.0652197823 -0.0263327900 -0.2676535249
-0.0643048957 -0.0264169648 -0.2680518627
-0.0633884072 -0.0264995378 -0.2684469223
-0.0624703728 -0.0265805051 -0.2688387036
-0.0615507849 -0.0266598705 -0.2692272961
-0.0606296808 -0.0267376546 -0.2696125507
-0.0597070456 -0.0268138256 -0.2699945271
-0.0587829202 -0.0268883854 -0.2703731954
-0.0574832447 -0.0266148206 -0.2698883414
-0.0565597974 -0.0266858991 -0.2702589631
-0.0552681424 -0.0264082961 -0.2697631419
-0.0547085591 -0.0268232487 -0.2709903121
-0.0537807979 -0.0268895049 -0.2713510394
-0.0524958558 -0.0266063232 -0.2708410025
-0.0519210361 -0.0270172358 -0.2720625401
-0.0509890988 -0.0270786993 -0.2724133134
-0.0497110635 -0.0267899558 -0.2718891501
-0.0487800911 -0.0268479772 -0.2722319365
-0.0478477776 -0.0269043725 -0.2725713253
-0.0465805382 -0.0266099162 -0.2720317543
-0.0459791981 -0.0270123780 -0.2732401192
-0.0450429767 -0.0270639639 -0.2735694945
-0.0441054702 -0.0271139462 -0.2738955319
-0.0431667008 -0.0271623395 -0.2742182612
-0.0422266982 -0.0272091087 -0.2745375931
-0.0409741737 -0.0269038398 -0.2739701569
-0.0397279486 -0.0265966281 -0.2733969390
-0.0387917645 -0.0266382284 -0.2737036943
-0.0378544293 -0.0266782306 -0.2740071118
-0.0372121781 -0.0270677339 -0.2751953900
-0.0365612730 -0.0274559241 -0.2763826847
-0.0356129520 -0.0274914112 -0.2766783834
-0.0349484943 -0.0278768074 -0.2778623998
-0.0339941643 -0.0279091951 -0.2781524062
-0.0330387242 -0.0279399697 -0.2784390152
-0.0320821814 -0.0279691312 -0.2787221372
-0.0311245862 -0.0279966574 -0.2790018618
-0.0304319952 -0.0283746459 -0.2801755369
-0.0292061828 -0.0280468240 -0.2795509994
-0.0282454565 -0.0280694999 -0.2798204124
-0.0272837058 -0.0280905310 -0.2800863981
-0.0260700751 -0.0277575087 -0.2794473469
-0.0253572408 -0.0281277243 -0.2806079388
-0.0241492651 -0.0277913306 -0.2799599171
-0.0234268494 -0.0281584039 -0.2811156213
-0.0229315050 -0.0288766529 -0.2831754684
-0.0233471617 -0.0310043078 -0.2888619900
-0.1363290101 -0.0289506856 -0.2596805990
-0.1311988831 -0.0269358587 -0.2552247941
-0.1267124414 -0.0252267737 -0.2514662147
-0.1007585153 -0.0242156591 -0.2529309094
-0.0999000296 -0.0243619531 -0.2534561455
-0.0990394279 -0.0245066714 -0.2539783716
-0.0981767103 -0.0246498156 -0.2544974983
-0.0967907682 -0.0244586803 -0.2542276978
-0.0959272459 -0.0245981310 -0.2547387183
-0.0950617120 -0.0247360449 -0.2552467287
-0.0941941068 -0.0248723868 -0.2557516694
-0.0928168148 -0.0246722959 -0.2554597557
-0.0914442465 -0.0244695749 -0.2551608086
-0.0900765434 -0.0242642853 -0.2548549771
-0.0897086337 -0.0247292072 -0.2561413646
-0.0883437917 -0.0245197807 -0.2558255494
-0.0874745101 -0.0246451944 -0.2563062906
-0.0866032988 -0.0247690398 -0.2567838728
-0.0852463767 -0.0245529599 -0.2564512789
-0.0843748078 -0.0246732086 -0.2569208741
-0.0835013613 -0.0247918870 -0.2573873401
-0.0826260298 -0.0249090046 -0.2578507662
-0.0817488432 -0.0250245612 -0.2583110034
-0.0813363343 -0.0254792515 -0.2595845163
-0.0804520100 -0.0255921129 -0.2600403428
-0.0795658678 -0.0257034022 -0.2604930401
-0.0786779299 -0.0258131288 -0.2609426677
-0.0782407001 -0.0262636878 -0.2622124851
-0.0773456693 -0.0263706613 -0.2626574636
-0.0764488503 -0.0264760535 -0.2630992830
-0.0755502954 -0.0265798438 -0.2635379136
-0.0750884265 -0.0270261299 -0.2648036778
-0.0741828457 -0.0271271262 -0.2652375996
-0.0732755437 -0.0272265524 -0.2656683624
-0.0723664984 -0.0273243375 -0.2660958469
-0.0714557990 -0.0274205729 -0.2665201724
-0.0705433860 -0.0275151432 -0.2669411600
-0.0692121834 -0.0272617992 -0.2665186822
-0.0687135831 -0.0276995357 -0.2677735388
-0.0677962005 -0.0277892966 -0.2681847811
-0.0664708316 -0.0275300667 -0.2677477002
-0.0655537993 -0.0276162736 -0.2681508362
-0.0646351948 -0.0277008917 -0.2685507536
-0.0637149885 -0.0277838986 -0.2689473927
-0.0627932325 -0.0278652925 -0.2693407238
-0.0614816062 -0.0275960527 -0.2688779533
-0.0609450750 -0.0280232411 -0.2701176703
-0.0596376508 -0.0277501736 -0.2696452737
-0.0587134175 -0.0278248116 -0.2700239420
-0.0577876754 -0.0278978385 -0.2703993022
-0.0564903356 -0.0276187807 -0.2699110806
-0.0555653311 -0.0276883338 -0.2702784538
-0.0546388812 -0.0277562663 -0.2706424296
-0.0537110232 -0.0278225876 -0.2710032165
-0.0527817309 -0.0278872885 -0.2713606656
-0.0518510528 -0.0279504042 -0.2717147171
-0.0509189926 -0.0280118957 -0.2720654905
-0.0499855652 -0.0280717835 -0.2724130154
-0.0487100631 -0.0277775601 -0.2718855441
-0.0477776453 -0.0278339740 -0.2722249627
-0.0468439050 -0.0278888047 -0.2725611031
-0.0462384634 -0.0282951798 -0.2737694383
-0.0452984348 -0.0283469968 -0.2741002142
-0.0446792841 -0.0287507568 -0.2753057480
-0.0434145033 -0.0284457654 -0.2747515440
-0.0424706787 -0.0284927282 -0.2750722170
-0.0412145965 -0.0281839371 -0.2745074630
-0.0402720533 -0.0282274764 -0.2748201191
-0.0390247740 -0.0279149432 -0.2742449343
-0.0380835906 -0.0279550795 -0.2745495737
-0.0374372192 -0.0283484235 -0.2757377625
-0.0367821641 -0.0287403986 -0.2769249380
-0.0358299725 -0.0287760068 -0.2772217989
-0.0351613723 -0.0291651785 -0.2784057260
-0.0342031680 -0.0291976575 -0.2786968946
-0.0332438350 -0.0292284936 -0.2789846957
-0.0322834514 -0.0292577092 -0.2792690396
-0.0313219689 -0.0292852856 -0.2795499265
-0.0303594023 -0.0293112453 -0.2798274159
-0.0293957889 -0.0293355398 -0.2801013589
-0.0281729624 -0.0290022511 -0.2794737816
-0.0272111222 -0.0290232208 -0.2797397673
-0.0262482874 -0.0290425438 -0.2800024152
-0.0252844337 -0.0290602259 -0.2802615166
-0.0243196469 -0.0290762950 -0.2805171609
-0.0235930476 -0.0294470340 -0.2816726565
-0.0230932124 -0.0301725827 -0.2837307751
-0.0235031787 -0.0323222727 -0.2894101441
-0.1380836070 -0.0309402142 -0.2614687681
-0.1335510164 -0.0292227454 -0.2577580810
-0.1284512132 -0.0271743033 -0.2532857358
-0.1008949205 -0.0259730797 -0.2546564937
-0.0994999185 -0.0257839207 -0.2544021606
-0.0986337289 -0.0259279050 -0.2549232543
-0.0972445533 -0.0257339217 -0.2546567321
-0.0963775739 -0.0258742105 -0.2551696897
-0.0955085233 -0.0260129087 -0.2556795776
-0.0946374461 -0.0261500366 -0.2561863959
-0.0932569131 -0.0259470772 -0.2558977604
-0.0918811336 -0.0257414728 -0.2556021214
-0.0905101299 -0.0255332626 -0.2552995086
-0.0896412209 -0.0256625470 -0.2557881773
-0.0887703523 -0.0257902574 -0.2562738061
-0.0878975019 -0.0259163827 -0.2567563355
-0.0870227665 -0.0260409527 -0.2572357953
-0.0861460939 -0.0261639282 -0.2577120960
-0.0852675065 -0.0262853410 -0.2581853271
-0.0843870416 -0.0264051948 -0.2586555183
-0.0830315277 -0.0261800010 -0.2583112121
-0.0821507722 -0.0262962189 -0.2587732971
-0.0812681764 -0.0264108721 -0.2592322528
-0.0803837329 -0.0265239179 -0.2596880496
-0.0794974789 -0.0266354065 -0.2601407170
-0.0790651813 -0.0270909667 -0.2614105046
-0.0781718120 -0.0271997042 -0.2618586421
-0.0777254328 -0.0276533812 -0.2631273568
-0.0768249854 -0.0277593341 -0.2635709047
-0.0759227872 -0.0278637148 -0.2640112042
-0.0754570067 -0.0283142179 -0.2652772367
-0.0745477676 -0.0284157861 -0.2657129169
-0.0736368001 -0.0285157152 -0.2661452293
-0.0722965822 -0.0282651633 -0.2657404840
-0.0713857487 -0.0283615123 -0.2661647499
-0.0704732463 -0.0284562465 -0.2665857375
-0.0691422001 -0.0281993579 -0.2661646307
-0.0686432198 -0.0286408905 -0.2674180567
-0.0677257404 -0.0287307892 -0.2678293586
-0.0664005205 -0.0284679886 -0.2673936486
-0.0658859089 -0.0289057493 -0.2686420977
-0.0645646751 -0.0286390483 -0.2681967020
-0.0636443719 -0.0287221372 -0.2685932815
-0.0623308457 -0.0284512658 -0.2681367397
-0.0617990941 -0.0288835093 -0.2693767548
-0.0608741306 -0.0289617628 -0.2697634995
-0.0595668890 -0.0286851041 -0.2692925334
-0.0586425364 -0.0287598241 -0.2696712315
-0.0573432036 -0.0284790546 -0.2691891789
-0.0560496897 -0.0281960946 -0.2687008977
-0.0551282354 -0.0282654259 -0.2690667510
-0.0545678772 -0.0286878608 -0.2702912092
-0.0536399074 -0.0287542250 -0.2706519663
-0.0530657172 -0.0291742329 -0.2718741000
-0.0521312617 -0.0292376298 -0.2722295821
-0.0511954166 -0.0292994305 -0.2725818455
-0.0502582043 -0.0293595754 -0.2729306519
-0.0489791706 -0.0290619098 -0.2724059522
-0.0480429642 -0.0291186031 -0.2727467716
-0.0474384576 -0.0295302887 -0.2739571333
-0.0464958921 -0.0295839552 -0.2742925584
-0.0452264249 -0.0292789135 -0.2737491131
-0.0446068943 -0.0296863746 -0.2749533653
-0.0436604694 -0.0297351405 -0.2752786577
-0.0427128151 -0.0297822822 -0.2756006420
-0.0414531790 -0.0294699743 -0.2750385404
-0.0405067988 -0.0295136832 -0.2753525078
-0.0392559841 -0.0291976351 -0.2747800350
-0.0383109450 -0.0292379037 -0.2750858665
-0.0376604199 -0.0296350233 -0.2762738764
-0.0370012484 -0.0300308429 -0.2774609625
-0.0360452011 -0.0300665516 -0.2777590752
-0.0353724360 -0.0304594822 -0.2789427638
-0.0344103575 -0.0304920226 -0.2792351544
-0.0334471874 -0.0305229537 -0.2795241773
-0.0322098099 -0.0301929805 -0.2789172530
-0.0315175317 -0.0305798464 -0.2800917327
-0.0302856080 -0.0302463975 -0.2794757485
-0.0293218922 -0.0302706156 -0.2797497809
-0.0283571910 -0.0302932207 -0.2800204456
-0.0237574782 -0.0307415836 -0.2822233438
-0.0230180994 -0.0311144050 -0.2833769321
-0.1346891522 -0.0308894906 -0.2588220239
-0.1301866472 -0.0291420147 -0.2550933957
-0.1251205057 -0.0270593781 -0.2506024539
-0.1013564765 -0.0272589810 -0.2550708055
-0.0999582559 -0.0270670094 -0.2548197806
-0.0990886316 -0.0272118393 -0.2553428113
-0.0982168913 -0.0273550805 -0.2558627427
-0.0973430946 -0.0274967235 -0.2563796043
-0.0959532931 -0.0272956453 -0.2561063170
-0.0950787142 -0.0274335705 -0.2566150129
-0.0936949328 -0.0272277240 -0.2563295960
-0.0923159271 -0.0270192456 -0.2560372353
-0.0909416974 -0.0268081501 -0.2557379305
-0.0900692716 -0.0269381739 -0.2562284470
-0.0891948566 -0.0270666033 -0.2567158937
-0.0878283679 -0.0268487614 -0.2563996613
-0.0869535208 -0.0269735456 -0.2568790615
-0.0860767141 -0.0270967353 -0.2573553026
-0.0851980448 -0.0272183996 -0.2578285635
-0.0843174532 -0.0273384284 -0.2582986057
-0.0834349766 -0.0274568815 -0.2587655485
-0.0825506523 -0.0275737476 -0.2592293918
-0.0821304247 -0.0280370656 -0.2605036497
-0.0812389329 -0.0281512178 -0.2609629929
-0.0803455785 -0.0282637645 -0.2614191771
-0.0794504210 -0.0283747129 -0.2618722320
-0.0785534605 -0.0284840502 -0.2623220384
-0.0776546970 -0.0285918079 -0.2627688050
-0.0771990940 -0.0290485304 -0.2640363276
-0.0762932599 -0.0291534755 -0.2644782960
-0.0758235678 -0.0296082143 -0.2657446265
-0.0749106780 -0.0297103114 -0.2661819458
-0.0739960670 -0.0298108160 -0.2666159570
-0.0726524517 -0.0295571052 -0.2662142217
-0.0721616745 -0.0300069135 -0.2674742639
-0.0708217993 -0.0297492109 -0.2670627534
-0.0694873706 -0.0294891596 -0.2666446567
-0.0685714334 -0.0295807943 -0.2670591772
-0.0680632442 -0.0300251972 -0.2683111429
-0.0667346269 -0.0297592189 -0.2678784430
-0.0662160143 -0.0302010644 -0.2691270411
-0.0652899817 -0.0302865673 -0.2695300579
-0.0643623546 -0.0303704012 -0.2699297667
-0.0630417839 -0.0300965961 -0.2694776952
-0.0621146373 -0.0301768724 -0.2698692977
-0.0608018078 -0.0298988242 -0.2694059908
-0.0598752461 -0.0299755633 -0.2697894871
-0.0589471497 -0.0300506558 -0.2701697052
-0.0576443821 -0.0297665782 -0.2696904838
-0.0567169636 -0.0298381392 -0.2700626254
-0.0561540015 -0.0302662011 -0.2712904215
-0.0552200451 -0.0303347874 -0.2716573477
-0.0542846359 -0.0304017421 -0.2720209956
-0.0533478074 -0.0304670762 -0.2723812759
-0.0524095595 -0.0305307563 -0.2727382481
-0.0514699332 -0.0305928290 -0.2730918527
-0.0505289361 -0.0306532681 -0.2734420896
-0.0495865755 -0.0307120588 -0.2737889588
-0.0486428589 -0.0307692140 -0.2741325200
-0.0476978160 -0.0308247451 -0.2744726837
-0.0467514433 -0.0308786239 -0.2748094797
-0.0454784632 -0.0305701457 -0.2742687762
-0.0445332192 -0.0306205489 -0.2745975256
-0.0435867086 -0.0306693334 -0.2749228776
-0.0426389500 -0.0307164527 -0.2752448320
-0.0413795151 -0.0304004662 -0.2746842504
-0.0404330418 -0.0304441471 -0.2749981880
-0.0391824208 -0.0301244110 -0.2744271159
-0.0385364741 -0.0305266436 -0.2756159604
-0.0375864021 -0.0305654369 -0.2759197652
-0.0369268321 -0.0309648924 -0.2771054506
-0.0362585858 -0.0313629881 -0.2782900333
-0.0352975465 -0.0313971378 -0.2785859704
-0.0346157439 -0.0317923427 -0.2797671854
-0.0333721302 -0.0314605162 -0.2791674435
-0.0324077457 -0.0314897373 -0.2794530392
-0.0314422809 -0.0315172970 -0.2797351480
-0.0304757711 -0.0315432064 -0.2800138295
-0.0295081921 -0.0315674879 -0.2802890539
-0.0282819998 -0.0312267859 -0.2796654701
-0.0275699589 -0.0316110365 -0.2808290124
-0.0253815036 -0.0312844664 -0.2804566920
