-0.0712941255 -0.1030176196 -1.6607165924
-0.0081708173 -0.1936728493 -1.7477789962
-0.0739247713 -0.1513871036 -1.6891644657
-0.1336436547 -0.1385267215 -1.7276847245
-0.0655162930 -0.1114064381 -1.6375824213
-0.0922106435 -0.0910409700 -1.6600079798
-0.0239131973 -0.1932476240 -1.7480657356
-0.0471800019 -0.1002593695 -1.6460498503
-0.0351992787 -0.1390382083 -1.6463713596
-0.1169554314 -0.1053185929 -1.7396855976
-0.1201902796 -0.1290099050 -1.6521832597
-0.0576746104 -0.1208600038 -1.7422576170
-0.0618306716 -0.1207423620 -1.6308724887
-0.0380432998 -0.1179520703 -1.6569696282
-0.1139489374 -0.1320742711 -1.6998979672
-0.0167704764 -0.1784650991 -1.6986577687
-0.1272638386 -0.1571474088 -1.6910844000
-0.1136369834 -0.1486580412 -1.6821226065
-0.0087391178 -0.1569790075 -1.7357900462
-0.0586938010 -0.1373604919 -1.7838459730
-0.0368510665 -0.0894994827 -1.6833832955
-0.0881040919 -0.1109173153 -1.7085984697
-0.1247764701 -0.1543069429 -1.6787276340
-0.0429668858 -0.1442849120 -1.6401543351
-0.0787503669 -0.1754443755 -1.7815451504
-0.0639921759 -0.1346973861 -1.6966492462
-0.1004978486 -0.1770527278 -1.7120931224
-0.0618789592 -0.1011727645 -1.6441006092
-0.0384431852 -0.1494289741 -1.6488481403
-0.0202474745 -0.1717258614 -1.7302938623
-0.0335425201 -0.1063633780 -1.6544244509
-0.1040051675 -0.1276975090 -1.7713888851
-0.0202478654 -0.1723694201 -1.6855196527
-0.1005182275 -0.1223502547 -1.7686507997
-0.0634970925 -0.1197246144 -1.7360686371
-0.0979156630 -0.1785024730 -1.7405613288
-0.0571270344 -0.0991793322 -1.6783655019
-0.0262120638 -0.1452976854 -1.6941479059
-0.0146553618 -0.1155532051 -1.7465143948
-0.1363340425 -0.1306767541 -1.6728580190
-0.0032605866 -0.1445725863 -1.6954989516
-0.0899782131 -0.1390933509 -1.6446732929
-0.0678510565 -0.0893640269 -1.6574428089
-0.1299685299 -0.1140700204 -1.6813369126
-0.0415574246 -0.1187296845 -1.6432687066
-0.1040119804 -0.0916508602 -1.6775170876
-0.0935273051 -0.1658202713 -1.6952457109
-0.0431486996 -0.1012219499 -1.6442533809
-0.0946086551 -0.1163631437 -1.6459575926
-0.0679624974 -0.1985746360 -1.7490136464
-0.0386261406 -0.1847500009 -1.7305557986
-0.0395022651 -0.1873320560 -1.7299770221
-0.0578130280 -0.0841928400 -1.6579886434
-0.0392278551 -0.1806666480 -1.6807196212
-0.0683145534 -0.1669732304 -1.7794173859
-0.0471150372 -0.1671101451 -1.7813324468
-0.0619098002 -0.1991746580 -1.7488474768
-0.0553921093 -0.0875399801 -1.6615000345
-0.0967161347 -0.1083629364 -1.6468671628
-0.0724303725 -0.1352876502 -1.7966679751
-0.0690561550 -0.1159668601 -1.6360060133
-0.0675170757 -0.1163024381 -1.6348139644
-0.0463935884 -0.1686439454 -1.7220155471
-0.1047437684 -0.1715736839 -1.7094866161
-0.0726982558 -0.0958176492 -1.6521105927
-0.0720619207 -0.1924143387 -1.7511489596
-0.0964887320 -0.1946312766 -1.7542426500
-0.1194923641 -0.0833171052 -1.7011566800
-0.0364948545 -0.1775931109 -1.7303213794
-0.0295075417 -0.2012500586 -1.7509535905
-0.0219286476 -0.2024708008 -1.7329291779
-0.0071375834 -0.1920102583 -1.7435822574
-0.0842575129 -0.1122164208 -1.7099199815
-0.1325392016 -0.1607894606 -1.7154587433
-0.0017057350 -0.1222636899 -1.7379473366
-0.0684524328 -0.1128360182 -1.6394529343
-0.0549955171 -0.1335558211 -1.7425558011
-0.0020437720 -0.1399083790 -1.6954577872
-0.0739771888 -0.1783553097 -1.7157703858
-0.1076499392 -0.1488714204 -1.6973091575
-0.0828580163 -0.1352366394 -1.6437761543
-0.0763669390 -0.1627679628 -1.6561059137
-0.0934256853 -0.1342076855 -1.7905847673
-0.0676594436 -0.1675785077 -1.7146849881
-0.0634176066 -0.1757996812 -1.7790085335
-0.0735490710 -0.0967108173 -1.6579664425
-0.1257651414 -0.1305304256 -1.6979729876
-0.1002497231 -0.1841334899 -1.7481056745
-0.0337068791 -0.1809799816 -1.7086692290
-0.0248322863 -0.1520532577 -1.7287867314
-0.0443152267 -0.1900726733 -1.7580737355
-0.0961607758 -0.1561257879 -1.6523776601
-0.0940167614 -0.1564596174 -1.6498975654
-0.1107074982 -0.1746502205 -1.7763930605
-0.1137757182 -0.1308474120 -1.7628683544
-0.0706215953 -0.1068695324 -1.6982179249
-0.0364006394 -0.1503455271 -1.6766199710
-0.1112838337 -0.1393396061 -1.7022144562
-0.0748382428 -0.1113068861 -1.7402950694
-0.1116193794 -0.1528628628 -1.7433650603
-0.0387521699 -0.1684343451 -1.6516754171
-0.0716283417 -0.1687678472 -1.6484207109
-0.0840291352 -0.1624156146 -1.6481049972
-0.0882637850 -0.1126465947 -1.7471922811
-0.1158239378 -0.1304811210 -1.7520046685
-0.0662228533 -0.1491348683 -1.6545710999
-0.1272373864 -0.1668173075 -1.7490769124
-0.0972921477 -0.1564502141 -1.6951014530
-0.0190649036 -0.1355483977 -1.7089239241
-0.0250871145 -0.1389612226 -1.7023965628
-0.1139925887 -0.1389665495 -1.6441592579
-0.1181008833 -0.1282698706 -1.7296261535
-0.0075110600 -0.1504242383 -1.7229920262
-0.0445908703 -0.1709159466 -1.6561439161
-0.1141917846 -0.1082788440 -1.6421421516
-0.0851115024 -0.1551670814 -1.6492450576
-0.0649208418 -0.1535286083 -1.6973229756
-0.0430365300 -0.1537041865 -1.7807668746
-0.0325313484 -0.1577858841 -1.7006490040
-0.0334901632 -0.1775071596 -1.7233269139
-0.1366262672 -0.1561272098 -1.7037117384
-0.1164418372 -0.1265886845 -1.7429899964
-0.0270143830 -0.1096461695 -1.7091028190
-0.0248294752 -0.1182177737 -1.6955868006
-0.0577046841 -0.1672352170 -1.7896660899
-0.0410083027 -0.1339382901 -1.6565657281
-0.0823735968 -0.1127415012 -1.6606319657
-0.0528629418 -0.1380710671 -1.7351801470
-0.0500843630 -0.0892960780 -1.6683847679
-0.0384251872 -0.1767175429 -1.7181641734
-0.1103122727 -0.1700783655 -1.7902794038
-0.0488680095 -0.1436219866 -1.7338960746
-0.0508715873 -0.1622018278 -1.6826961880
-0.0278378706 -0.1162123590 -1.6835516221
-0.0376477642 -0.1085983809 -1.6432748536
-0.0529212000 -0.1526931466 -1.6621418779
-0.0889468292 -0.1243262404 -1.6402814351
-0.0616068039 -0.1658601985 -1.7431585473
-0.0336168194 -0.1310939861 -1.6480412966
-0.0396654086 -0.1087266424 -1.6409157884
-0.1409097696 -0.1287171773 -1.6767663025
-0.0551746938 -0.1168178901 -1.7292999400
-0.0291448991 -0.1109842763 -1.6824502696
-0.0651820016 -0.1552997527 -1.6249694184
-0.0527456610 -0.1215177286 -1.7524406519
-0.1169632105 -0.1223617360 -1.7664575948
-0.1136063162 -0.0901889651 -1.6644891995
-0.0088963382 -0.1392745368 -1.7690262761
-0.1421203037 -0.1343382824 -1.6499336734
-0.0900321085 -0.1708740900 -1.7251566250
-0.1028198275 -0.1787873666 -1.7420738015
-0.1018153588 -0.1712681971 -1.6499882507
-0.0684077170 -0.1616755952 -1.6653413470
-0.0412279526 -0.1080975536 -1.6405758785
-0.0315413215 -0.1483323763 -1.6705595024
-0.0087201958 -0.1376351904 -1.7636362173
-0.1029812402 -0.1024672993 -1.6429941384
-0.0445392326 -0.1052001701 -1.6955257428
-0.0143384794 -0.1363721586 -1.7410737146
-0.0287261783 -0.1738675137 -1.7049743950
-0.0601362860 -0.1922891916 -1.7778222302
-0.1285537959 -0.1367265082 -1.6667266404
-0.0305339055 -0.0911736724 -1.6933848951
-0.0452059754 -0.1593784307 -1.6467910052
-0.0506581192 -0.1129072486 -1.7172041766
-0.0396887313 -0.1217797859 -1.7544086098
-0.0793333210 -0.0869558972 -1.6772688817
-0.0171443961 -0.1832262974 -1.7281436051
-0.0349919826 -0.1095625010 -1.6462315292
-0.0360687909 -0.1781598170 -1.7822973675
-0.0624947687 -0.0829969435 -1.6623616144
-0.0891924743 -0.0862748885 -1.6846645590
-0.0698524700 -0.1359440333 -1.6735258201
-0.1305107100 -0.1606880990 -1.7241736218
-0.0407090761 -0.1627775508 -1.6804218258
-0.0525461902 -0.1435286948 -1.6360422513
-0.0353559406 -0.1695072581 -1.7030549858
-0.0326717313 -0.1610416961 -1.6851746443
-0.0377655255 -0.1724330456 -1.7878161165
-0.0198943301 -0.1202000955 -1.7216968508
-0.0266894870 -0.1936171498 -1.7017753108
-0.1090996095 -0.1564672477 -1.6618729750
-0.0649486398 -0.1924655276 -1.7776161616
-0.1191239405 -0.1582047015 -1.6542532192
-0.1156633408 -0.1563595516 -1.6700036395
-0.0865159713 -0.1875657608 -1.7738567352
-0.0396602678 -0.2026628482 -1.7510379786
-0.0326923618 -0.1009369700 -1.6712443250
-0.0971060999 -0.1116383812 -1.6485681000
-0.0824403844 -0.1408848177 -1.6419408728
-0.0887657992 -0.1022330211 -1.6508164123
-0.1240841980 -0.1739928192 -1.7429682032
-0.1304296204 -0.1511911106 -1.7104200871
-0.0465068156 -0.1214673441 -1.7489233279
-0.0644688736 -0.1331119053 -1.7769580419
-0.0241931136 -0.1484898077 -1.6957901667
-0.0059344777 -0.1494023839 -1.7646352778
-0.0491202976 -0.1920813083 -1.7631681442
-0.0508684893 -0.1748449436 -1.7249805802
-0.0845031765 -0.1500805555 -1.6514330899
-0.1138438190 -0.1787884900 -1.7544665956
-0.0838150951 -0.1784772658 -1.7033851272
-0.0294871640 -0.1916922113 -1.7207289291
-0.0410537925 -0.1632386739 -1.6827604297
-0.0234311949 -0.1286039650 -1.6713478565
-0.0480758208 -0.1345821830 -1.7838834351
-0.1438092325 -0.1293975765 -1.6757061217
-0.0615391574 -0.1502381146 -1.6597477542
-0.0956144815 -0.1541034173 -1.6639171410
-0.1013258092 -0.0937981557 -1.6565134643
-0.0712523157 -0.0947105324 -1.7066522997
-0.0181422222 -0.1176604441 -1.7381701628
-0.0348695103 -0.1761558275 -1.6983136053
-0.0768829566 -0.1143987596 -1.6334407014
-0.0353412545 -0.1738773647 -1.6897277114
-0.0445345182 -0.1051447789 -1.6405120041
-0.0616152283 -0.1580205722 -1.6299982332
-0.0373494773 -0.1437171880 -1.6800179247
-0.0480735693 -0.1570296395 -1.7298594461
-0.0242263718 -0.1107525081 -1.7353468988
-0.0797567025 -0.0975159451 -1.6418493002
-0.0312576913 -0.1720543052 -1.7295948157
-0.0413185586 -0.1558423935 -1.6499640416
-0.0515163767 -0.1085085725 -1.6254854016
-0.0415366999 -0.1480238223 -1.6503597690
-0.0339573110 -0.1604281086 -1.7060145800
-0.0670814482 -0.1663375484 -1.6424314339
-0.0227077684 -0.1407650803 -1.6877989672
-0.0412189642 -0.1605598920 -1.6749936741
-0.1137432944 -0.1037749238 -1.6687390153
-0.0392140683 -0.1833145837 -1.6877305405
-0.0909950924 -0.1508087117 -1.6529677706
-0.0298968107 -0.1773141842 -1.7050220480
-0.0640827952 -0.1636613059 -1.6453556344
-0.0986876915 -0.1297039730 -1.7904449430
-0.0284052492 -0.1730035595 -1.7236626463
-0.0940225840 -0.1224839651 -1.6262528756
-0.0666711575 -0.1028602839 -1.6576690927
-0.0871241306 -0.0954100423 -1.6450114208
-0.0364433323 -0.1852634748 -1.6861835210
-0.0150746102 -0.1631600321 -1.7825043795
-0.0885641270 -0.1269292211 -1.7828717785
-0.0993045270 -0.1641570777 -1.6554002762
-0.0132788585 -0.1683363824 -1.7431810212
-0.0877409151 -0.0984757027 -1.6464457830
-0.0081063542 -0.1360908960 -1.7585957409
-0.1042544169 -0.1752008980 -1.7473766339
-0.0936289764 -0.1821229618 -1.7815676716
-0.0153465947 -0.1643412734 -1.6952047578
-0.1212284301 -0.1667766000 -1.6584009122
-0.1201082952 -0.1294630337 -1.7275092440
-0.0700068115 -0.1458291847 -1.6454118157
-0.0390755695 -0.1674690654 -1.6911618618
-0.0707724075 -0.1002077667 -1.6786329310
-0.0696070326 -0.0980112312 -1.6694968391
-0.1093281186 -0.1705048530 -1.6435388089
-0.0851011204 -0.0996704175 -1.7176779156
-0.0650554992 -0.1927538698 -1.7663551552
-0.1019167237 -0.1837133290 -1.7756095268
-0.1347847728 -0.0934999680 -1.6768229607
-0.0838939693 -0.0898569598 -1.6417755765
-0.0741838969 -0.1881652922 -1.7603512184
-0.0725453272 -0.2035771662 -1.7801387263
-0.0269280121 -0.1942587141 -1.7335471175
-0.0325575600 -0.1570567787 -1.7143013231
-0.0385335404 -0.1615813337 -1.7944845351
-0.0337694035 -0.1155480049 -1.6425850071
-0.1046111946 -0.1701971143 -1.6434099790
-0.0365413487 -0.1838701770 -1.6932571059
-0.0633107347 -0.1695473296 -1.6993629637
-0.0445455150 -0.1259751607 -1.6334953367
-0.0329127873 -0.1164111590 -1.7329337784
-0.0322082276 -0.1688693605 -1.6989410314
-0.1328037955 -0.1047282739 -1.6966306274
-0.1288057175 -0.1054765212 -1.6604466000
-0.0747976484 -0.1521099451 -1.6610218789
-0.0825739547 -0.1249880901 -1.6889831239
-0.0454730667 -0.1641592404 -1.6471938774
-0.0620130344 -0.1111175377 -1.7364605578
-0.1019386910 -0.1507862952 -1.6479192408
-0.1033674577 -0.1724364680 -1.7602902739
-0.0346323669 -0.1438482809 -1.6880800995
-0.0196807440 -0.1228635576 -1.6914505512
-0.0445059168 -0.1448042709 -1.6455424224
-0.0459240120 -0.1611826725 -1.6798630632
-0.0704235505 -0.1285093745 -1.6769487709
-0.0802349768 -0.1157281392 -1.7190248637
-0.0889580146 -0.1354449876 -1.6440159737
-0.1165982792 -0.0846776293 -1.6976594623
-0.0469320766 -0.1155319409 -1.7286175406
-0.1046484464 -0.1045904156 -1.6557858292
-0.0873430044 -0.0928644761 -1.6528960118
-0.0674998039 -0.1206323355 -1.7608042949
-0.0649446279 -0.1884080956 -1.7674753151
-0.0377901872 -0.1876395859 -1.7709352226
-0.0399104199 -0.1961735821 -1.7513781064
-0.0998578754 -0.1834136409 -1.7132977430
-0.1084236629 -0.1615676545 -1.7042923812
-0.0770087564 -0.0840883126 -1.6547597530
-0.1290815520 -0.1117959798 -1.7072494060
-0.0015839157 -0.1568234968 -1.7561300388
-0.1014820867 -0.1456904926 -1.7678732262
-0.0992718019 -0.1488204674 -1.6624818554
-0.0196178163 -0.1572702963 -1.7804025996
-0.0263508901 -0.1483749052 -1.6926747913
-0.1187281463 -0.1673827096 -1.7314239206
-0.1184427770 -0.1042197269 -1.7451876481
-0.0205087734 -0.1742553042 -1.7283890916
-0.1105557436 -0.1443386018 -1.7694569352
-0.0166169091 -0.1426656458 -1.7693722522
-0.0339736728 -0.0973177128 -1.6575803197
-0.1000372197 -0.1097232686 -1.7279232853
-0.0600986551 -0.1124430908 -1.7421517476
-0.0788553122 -0.1352547441 -1.6485176237
-0.1194730827 -0.1537823611 -1.7273150619
-0.1426145122 -0.1409094704 -1.6809973697
-0.0908331036 -0.1517787393 -1.6712733625
-0.0729239463 -0.1997680796 -1.7803433335
-0.1066445485 -0.1519909352 -1.6465860605
-0.0999274170 -0.1584248640 -1.6514428921
-0.1092047828 -0.1511582690 -1.6478100699
-0.0786527424 -0.1328432718 -1.6356333646
-0.0288978415 -0.1180474545 -1.6487901499
-0.1186203918 -0.0852384235 -1.7107951781
-0.0219118601 -0.1846805020 -1.7126416793
-0.0920155825 -0.1806629860 -1.7451761726
-0.0788784727 -0.1650839853 -1.6501613216
-0.0692515983 -0.1891473845 -1.7611111769
-0.0420975161 -0.1682356314 -1.6748086773
-0.0383522881 -0.1136605134 -1.7229641113
-0.0891479253 -0.1544347364 -1.6836074513
-0.0808102238 -0.1602764911 -1.7971853886
-0.1220272051 -0.1238668721 -1.7090396329
-0.0900930988 -0.1489354117 -1.6751004668
-0.0743358449 -0.1258507016 -1.7722865723
-0.0261343826 -0.1142979146 -1.7529694541
-0.1305855400 -0.0855069678 -1.7071193850
-0.0789555071 -0.1400483282 -1.6723100944
-0.0638418982 -0.1433248972 -1.6389203057
-0.0540550898 -0.2037649463 -1.7512272242
-0.0335147582 -0.1843319092 -1.7328596403
-0.0162454199 -0.1657276104 -1.7431687089
-0.0491976971 -0.1732950616 -1.7127266266
-0.0634582410 -0.1707014422 -1.7128681901
-0.0933732179 -0.1150500150 -1.7254333369
-0.0924554736 -0.1170292003 -1.7365688744
-0.0273407664 -0.1559690608 -1.7843034946
-0.0289725111 -0.1000799935 -1.6759328312
-0.0146542221 -0.2017868507 -1.7510566238
-0.0737389985 -0.1552497334 -1.6774072338
-0.1349521382 -0.1038523391 -1.7133808709
-0.1192205110 -0.1584989818 -1.6559744307
-0.0710803364 -0.1456614025 -1.6949950963
-0.0922873462 -0.1831504855 -1.7728916072
-0.0689926772 -0.1726056552 -1.7806006425
-0.0843714560 -0.1581615078 -1.6950526149
-0.0493135476 -0.1113225653 -1.6312569085
-0.0429023996 -0.1209783214 -1.7738593778
-0.0244722314 -0.1706799610 -1.7323212471
-0.0506472513 -0.1423879431 -1.6588621843
-0.0661172066 -0.1685066571 -1.7122426286
-0.1251361845 -0.1683694972 -1.7617007242
-0.0131059900 -0.1748032891 -1.7333653152
-0.0629165229 -0.0988839868 -1.6510649324
-0.0833455848 -0.1995404100 -1.7666592210
-0.0056989209 -0.1466618712 -1.7137402350
-0.0249910671 -0.1292114854 -1.6662405729
-0.0606705147 -0.1596969282 -1.7903704784
-0.1051184173 -0.1787502547 -1.7124709671
-0.0432766776 -0.1580569694 -1.6833269551
-0.0745278834 -0.1655998500 -1.7210485582
-0.1047389646 -0.0933813841 -1.6650980439
-0.0490594131 -0.0992420093 -1.6439843059
-0.0821092201 -0.1289468415 -1.6791962400
-0.0436759168 -0.1782490687 -1.7445119879
-0.0870749899 -0.1220895211 -1.7436701236
-0.1230524566 -0.1184172733 -1.7388812014
-0.0202574072 -0.1691168061 -1.7764855493
-0.0339312950 -0.1645398663 -1.6952957976
-0.0576752571 -0.1847022296 -1.7343472675
-0.1089689508 -0.1266407967 -1.6408656240
-0.0411803644 -0.1687576533 -1.6622536983
-0.0452134240 -0.1547789545 -1.7286542717
-0.0595060449 -0.1028071040 -1.7332327908
-0.0390625787 -0.1489662492 -1.6463150556
-0.1130589352 -0.1669425919 -1.7425288308
-0.0891694898 -0.1187835855 -1.7319273807
-0.0278443094 -0.1078715546 -1.6742625575
-0.0496862852 -0.0986902732 -1.6481127468
-0.1064883885 -0.1612121416 -1.7506928967
-0.1037514543 -0.1756394238 -1.7027199709
-0.0267462565 -0.1585361303 -1.6964506639
-0.0367727302 -0.1609627391 -1.7972512710
-0.0358465153 -0.0895608758 -1.6748694263
-0.0842115435 -0.1030627272 -1.7259946109
-0.0584923350 -0.1344791177 -1.7979079973
-0.0592191427 -0.1002908245 -1.6562745145
-0.0537782852 -0.1629931284 -1.7152980329
-0.0711796643 -0.1158466644 -1.7222374794
-0.0842601667 -0.1462395925 -1.6554399076
-0.0459381517 -0.1462969762 -1.6760092071
-0.1349279111 -0.1396143427 -1.6508574536
-0.0822917269 -0.1540118783 -1.6699210122
-0.0925411451 -0.1500536340 -1.6928742839
-0.1089629844 -0.1645934609 -1.7138682128
-0.0200600171 -0.1303859292 -1.7010036593
-0.0915208525 -0.1438113092 -1.6508063142
-0.0266668564 -0.2044029392 -1.7607770243
-0.0340153783 -0.1662069815 -1.7024840390
-0.1198136161 -0.1220430385 -1.7203149861
-0.0542683414 -0.1692660188 -1.7791573916
-0.0181358123 -0.1245030910 -1.7259452840
-0.0415523780 -0.1651611024 -1.6918979711
-0.1161450982 -0.1130127604 -1.6527180259
-0.0713333355 -0.1585100016 -1.6514883582
-0.0996432870 -0.1344617398 -1.7762216035
-0.0066351552 -0.1422034423 -1.7588415206
-0.0485945601 -0.0972240623 -1.7118404320
-0.0779482441 -0.1031287404 -1.6354684665
-0.1203873998 -0.1089178208 -1.6685354487
-0.0339697030 -0.1854695162 -1.7080300000
-0.0919575860 -0.1299289821 -1.6444236833
-0.0958241236 -0.1046033185 -1.6615043096
-0.0297059405 -0.1824743904 -1.6957386284
-0.0375741244 -0.1792029199 -1.6960206023
-0.1238290565 -0.0811429283 -1.7150528538
-0.0450390821 -0.1973006320 -1.7577507288
-0.0763416565 -0.1506003469 -1.6517107579
-0.0918622369 -0.1161744148 -1.6480664878
-0.0900763440 -0.1662032989 -1.7950446275
-0.0600129807 -0.1487265432 -1.6542037667
-0.0197452222 -0.1482511085 -1.7066289546
-0.1191290792 -0.1202636274 -1.7336498006
-0.0733412280 -0.1608904263 -1.6449322555
-0.0871395959 -0.1164478311 -1.7279561197
-0.1230106668 -0.1459504734 -1.6703725828
-0.1053972039 -0.1738018173 -1.7155298999
-0.0793836138 -0.0836054899 -1.6898836542
-0.0047973908 -0.1435580866 -1.7508734801
-0.0408190461 -0.1920903723 -1.7612401172
-0.0558210813 -0.1518913692 -1.6837474013
-0.0317529912 -0.1046595611 -1.7209788684
-0.1097549292 -0.0989812168 -1.7235704633
-0.0230635796 -0.1379117537 -1.6812536811
-0.0304945822 -0.1162028038 -1.6413537478
-0.0807858974 -0.1185264957 -1.7614665638
-0.1075123429 -0.1671046560 -1.7355786450
0.0000768649 -0.1709864976 -1.7584269789
-0.0549585461 -0.1057175253 -1.6379693950
-0.0216814627 -0.1187406495 -1.6822011865
-0.0235541098 -0.1903943168 -1.7468680381
-0.0344450506 -0.1034445766 -1.6930062493
-0.0837062302 -0.1423306604 -1.6946700646
-0.0682742052 -0.0951589477 -1.7033698188
-0.1066714196 -0.1017114044 -1.6708817645
-0.1058471198 -0.1093450014 -1.7446070410
-0.0933154159 -0.1199494002 -1.6271979709
-0.0339921310 -0.1184609915 -1.6411245713
-0.1261518416 -0.0868393868 -1.6916003062
-0.0791336252 -0.0862781701 -1.6819353429
-0.1299298818 -0.1056729846 -1.7119569223
-0.1319970505 -0.1631217035 -1.7377756846
-0.0891152815 -0.1688443518 -1.6445537762
-0.0276443395 -0.1137779356 -1.7412108317
-0.0981378970 -0.1322142967 -1.7736067187
-0.0107501101 -0.1985302214 -1.7546279434
-0.0930692862 -0.1004626599 -1.7199509279
-0.0120894923 -0.1316120579 -1.7340540165
-0.0074064761 -0.1465731538 -1.7214468488
-0.0769868531 -0.1312749246 -1.6456167302
-0.0282051955 -0.0983287716 -1.6737386092
-0.1046588747 -0.1662094114 -1.7130303260
-0.0640693638 -0.1289724355 -1.6291450793
-0.0512857134 -0.1512472153 -1.6406662543
-0.0322530669 -0.1834868157 -1.6952921296
-0.0606030231 -0.1427710376 -1.7852454112
-0.1109173294 -0.1300560683 -1.7691440694
-0.0559738087 -0.1428336284 -1.7853425419
-0.0370484237 -0.1961862390 -1.7543247376
-0.0091498883 -0.1141639008 -1.7491752623
-0.0285649151 -0.1586933995 -1.6717171731
-0.0839730199 -0.1986183089 -1.7814445708
-0.0423323333 -0.1663641544 -1.6514191294
-0.1047918617 -0.1683239851 -1.6407095695
-0.0810315612 -0.1374603800 -1.6685549029
-0.1314634929 -0.1390719858 -1.6875642874
-0.1264209396 -0.1205135926 -1.6603201297
-0.0871148669 -0.1579917911 -1.6567373452
-0.0682330360 -0.1301027889 -1.7937952624
-0.0426341624 -0.1707865805 -1.6914222099
-0.1270850964 -0.1534887831 -1.7241900512
-0.0614883747 -0.1590709417 -1.6759570993
-0.0406276341 -0.1510139007 -1.6477858940
-0.0221169566 -0.1289263877 -1.6807958054
-0.0038347591 -0.1306495588 -1.7453582762
-0.0814187959 -0.1337242064 -1.6487786794
-0.0866023806 -0.1753002838 -1.7132678496
-0.0792744435 -0.1331477121 -1.6478217402
-0.0899723368 -0.2029829051 -1.7578339227
-0.0975915209 -0.1761080155 -1.7302855122
-0.0176157894 -0.1595942690 -1.7100472766
-0.1296163193 -0.1135069173 -1.6558603359
-0.0300481298 -0.1521302988 -1.7136008055
-0.0378813667 -0.1277303348 -1.6677990153
-0.0100547637 -0.1492171623 -1.7019259982
-0.0329412872 -0.1471832980 -1.6812833041
-0.0852420243 -0.1667209341 -1.6426333949
-0.1097752281 -0.1194132425 -1.6394407199
-0.0359267939 -0.1032880715 -1.7137517474
-0.0770746003 -0.1658489514 -1.8049725431
-0.1190087342 -0.0896243042 -1.6643611620
-0.0684470230 -0.1415653692 -1.7405850008
-0.0639862611 -0.1063924465 -1.6412479924
-0.1390885080 -0.1155807820 -1.6813073866
-0.0819695987 -0.1084784044 -1.6629445094
-0.0565649155 -0.1133295857 -1.7408659861
-0.1027812490 -0.1149432958 -1.7215445672
-0.0086277670 -0.1352311172 -1.7514496949
-0.1100075376 -0.1770390153 -1.7606636385
-0.1246854868 -0.1465334605 -1.6533829167
-0.0374112544 -0.1830409398 -1.7257868268
-0.0134787588 -0.1325409685 -1.7461936543
-0.0313685684 -0.1124078650 -1.6651018809
-0.0778538810 -0.1411508707 -1.6458585357
-0.0960978378 -0.1178083531 -1.7693971069
-0.0937319689 -0.1843017982 -1.7115421669
-0.0581019165 -0.1161768295 -1.6314248607
-0.0998449736 -0.1256340135 -1.6412474054
-0.0759841169 -0.0992016476 -1.6527512755
-0.0236778590 -0.1574529903 -1.7211636645
-0.0613327342 -0.1787827264 -1.7632443922
-0.1148147754 -0.1606548483 -1.7227405084
-0.1041923423 -0.1702216159 -1.6454384777
-0.0471618017 -0.1474044897 -1.7861006264
-0.0665144268 -0.1582410957 -1.7163727158
-0.0343763253 -0.1115682936 -1.7186322150
-0.0591385341 -0.1403379967 -1.7818556680
-0.0775578050 -0.0834054390 -1.6861929218
-0.0936668517 -0.1069801918 -1.7025243281
-0.1195350172 -0.1355665900 -1.7490028378
-0.1299547062 -0.0990570310 -1.6721870584
-0.1144573489 -0.1133632819 -1.6432249131
-0.0196635960 -0.1571980948 -1.7275312331
-0.0794863208 -0.1063252323 -1.6633811693
-0.0765802457 -0.1080987629 -1.6467220521
-0.0466376504 -0.1416199496 -1.6380473821
-0.0164482557 -0.1183102959 -1.7009200345
-0.0676815203 -0.1679574637 -1.6501843196
-0.1022584095 -0.1641070129 -1.6506984380
-0.0068907236 -0.1426109554 -1.6957793682
-0.0012233010 -0.1737985841 -1.7692130680
-0.0697739840 -0.1661127427 -1.6493926453
-0.1443914249 -0.1265954934 -1.6878786255
-0.1363818161 -0.1231178217 -1.6683625748
-0.0423206488 -0.1255713006 -1.6339828173
-0.0929314749 -0.1112100634 -1.6509088215
-0.0312434301 -0.1447558068 -1.6847525928
-0.0486096821 -0.1795784502 -1.6994005846
-0.0827433257 -0.1382903499 -1.6440472772
-0.1166036492 -0.1728861721 -1.6510113329
-0.0687246294 -0.1007558567 -1.6606112588
-0.0584312279 -0.1880874125 -1.7401742346
-0.1087088182 -0.0894455855 -1.6607473861
-0.1429468975 -0.1451107686 -1.6874553052
-0.0266674983 -0.1652417796 -1.6904300745
-0.1213076575 -0.1182564201 -1.6527556022
-0.0515415663 -0.1703240532 -1.6806293547
-0.0884405928 -0.1752587678 -1.7204876941
-0.1203809628 -0.1435309649 -1.7273310218
-0.0209002815 -0.1370688922 -1.6876217790
-0.1424400870 -0.1420987743 -1.6857904968
-0.0252660205 -0.1060454344 -1.6830941921
-0.0833867761 -0.1292234393 -1.6983164971
-0.0649145405 -0.1425054306 -1.7463499899
-0.1434175463 -0.1461581124 -1.6904263314
-0.0327141356 -0.1731037265 -1.6997777472
-0.1025163331 -0.1309795535 -1.7796633115
-0.0718593864 -0.2055531882 -1.7598948051
-0.1126716258 -0.1246156207 -1.7427660636
-0.1124664503 -0.1636990615 -1.7716033482
-0.0349307874 -0.1817141765 -1.6959764333
-0.0468656058 -0.1706981658 -1.6977240358
-0.1121463408 -0.1153839509 -1.6457332831
-0.0667817414 -0.1300872881 -1.7761555532
-0.0811005369 -0.0807148208 -1.6632038110
-0.0071331755 -0.1574859871 -1.7083414860
-0.0130830704 -0.1394701657 -1.7217548907
-0.0316111708 -0.1832096610 -1.7133817723
-0.0298075519 -0.1137004392 -1.6717269054
-0.0843669423 -0.1013787124 -1.7212414497
-0.0970070010 -0.1779964179 -1.7271762856
-0.1274007526 -0.1440084101 -1.7468081665
-0.1237560495 -0.1584375082 -1.6573474133
-0.1087163376 -0.0965080748 -1.6693391657
-0.0412468393 -0.1792164164 -1.6908764049
-0.0271415133 -0.1536687400 -1.6960179610
-0.0540746353 -0.1555185666 -1.7351800482
-0.0245699846 -0.1032706576 -1.6891084176
-0.0604012199 -0.1224904731 -1.6374527216
-0.0574375969 -0.1383954581 -1.7406820129
-0.0340015045 -0.1637898284 -1.6805633606
-0.1002826794 -0.1884000226 -1.7530916589
-0.1187005627 -0.1563365769 -1.6723017605
-0.0327949525 -0.1882370322 -1.7132767906
-0.0196498939 -0.1464488326 -1.6778101483
-0.1081692847 -0.1785653682 -1.7396363910
-0.0342208556 -0.1090272203 -1.6516754601
-0.0894263408 -0.1803117950 -1.7267634002
-0.0632166210 -0.1629908725 -1.7191583973
-0.0618265583 -0.1160668566 -1.6343092379
-0.0517346571 -0.1581275608 -1.7442968677
-0.0478022498 -0.1523768950 -1.7273205436
-0.0412852281 -0.1339191839 -1.6785508186
-0.1270169905 -0.1675157735 -1.7553662201
-0.0678944187 -0.1628387204 -1.7201629267
-0.0810320282 -0.1762227710 -1.7067285267
-0.0831072009 -0.1598355264 -1.6982213680
-0.0078817825 -0.1286952588 -1.7513998769
-0.0149363535 -0.1616465905 -1.7147343806
-0.0823030031 -0.1525624253 -1.6559086083
-0.0445700117 -0.1085766138 -1.7058977494
-0.0322263911 -0.1143952571 -1.6429201365
-0.0419904834 -0.1282168352 -1.6357486533
-0.0145147438 -0.1343627144 -1.7238276308
-0.0506761716 -0.1425157212 -1.6644132623
-0.0952105478 -0.1054070034 -1.6987389465
-0.0661298348 -0.1025513050 -1.7160058078
-0.0177970831 -0.1469558290 -1.7096079724
-0.0264742840 -0.1518434733 -1.6959855556
-0.1045469128 -0.1775259651 -1.7311929275
-0.0146403743 -0.1355449412 -1.7319052030
-0.1092033197 -0.1388319383 -1.7517477911
-0.1094413953 -0.0941745450 -1.7002828784
0.0071117497 -0.1685310040 -1.7805595872
-0.0574783790 -0.1682679987 -1.7328885647
-0.0525913450 -0.1476632094 -1.7924275031
-0.1088514901 -0.0933359090 -1.7108865106
-0.0918524065 -0.1415849114 -1.6493976186
-0.0395938542 -0.1377227755 -1.6848105153
-0.0488439260 -0.1878717642 -1.7559665191
-0.0961193778 -0.1823324770 -1.7797277790
-0.0377661694 -0.1680297936 -1.6944022783
-0.0408506102 -0.1232617134 -1.6408728302
-0.1219003493 -0.1456727875 -1.6962783032
-0.0694954144 -0.1580953506 -1.6644465159
-0.0399576439 -0.1441283168 -1.6417833743
-0.1040172309 -0.1098015908 -1.7530609874
-0.0632750310 -0.0974019924 -1.6418913784
-0.0386415395 -0.1294497251 -1.7717344032
-0.0974117752 -0.1687661697 -1.7059070388
-0.1089585886 -0.1793965640 -1.7476339038
-0.0400944352 -0.1044022553 -1.6434053183
-0.0423088433 -0.1044658451 -1.7323930719
-0.0595026892 -0.1281629618 -1.6328944695
-0.0325504586 -0.1794081199 -1.6850008155
0.0127405188 -0.1719256949 -1.7572749038
-0.0021704819 -0.1510288697 -1.7628147967
-0.1004474552 -0.1180265313 -1.7308262108
-0.0182943435 -0.1409851580 -1.7193055112
-0.1332803686 -0.1479151911 -1.6980956343
-0.0217241936 -0.1335496731 -1.6811253992
-0.1070474547 -0.1285730888 -1.6425822456
-0.0792140187 -0.1274324547 -1.7007655919
-0.1236315684 -0.1016836364 -1.6576726899
-0.0909430070 -0.1829507254 -1.7133163404
-0.0053575825 -0.1882991956 -1.7571362125
-0.1109992590 -0.1329842703 -1.7693222073
-0.0536630265 -0.1233444624 -1.6327376366
-0.1085708332 -0.1594432985 -1.7719729811
-0.0641214260 -0.1557443556 -1.7309339567
-0.1162960902 -0.1506578773 -1.6495174170
-0.1038099665 -0.1608850554 -1.6966719746
-0.0910525366 -0.0841299926 -1.6802108758
-0.0949203448 -0.1421994870 -1.6428869864
-0.0373971017 -0.1865921685 -1.6950200675
-0.0820793379 -0.1482997328 -1.6563382972
-0.0844275288 -0.1202588122 -1.6488466624
-0.0798965384 -0.1690382333 -1.6538667746
-0.0473037752 -0.1759428032 -1.6773004335
-0.0323043310 -0.1751525060 -1.7277271276
-0.0264392756 -0.1302912262 -1.6615648368
-0.1039201543 -0.1182873026 -1.6424403787
-0.0776298566 -0.1653087137 -1.6906365867
-0.0661594590 -0.1501837741 -1.7220662204
-0.0640990328 -0.1649837306 -1.6480431897
-0.0206762865 -0.1138849633 -1.7149166910
-0.0640976266 -0.1689131239 -1.7300672275
-0.0781821731 -0.1001628080 -1.6771329524
-0.0658305117 -0.1389010692 -1.6304015307
-0.0751948830 -0.1364721080 -1.7018683772
-0.0671639844 -0.1243266222 -1.7830083716
-0.0196110039 -0.1387500954 -1.6803151407
-0.0381312322 -0.1286678537 -1.6409314835
-0.0896761907 -0.1301427876 -1.6451050933
-0.0470506291 -0.1262057551 -1.6335978296
-0.0108261506 -0.1372953430 -1.7393114442
-0.1077625261 -0.1788298155 -1.7646014713
-0.0325657763 -0.1868784726 -1.6944293976
-0.0158932430 -0.1219953574 -1.7309472445
-0.1045111339 -0.1620568961 -1.7564942285
-0.0307958861 -0.1908052434 -1.7356478226
-0.1058199890 -0.1690404816 -1.7939214176
-0.0838854696 -0.1582667612 -1.6701102900
-0.1128888213 -0.1610672121 -1.7369158135
-0.0490204090 -0.1532073549 -1.7823015320
-0.0215877699 -0.1186804115 -1.7053777459
-0.0760275764 -0.1023949359 -1.6572767583
-0.1286071851 -0.1536278909 -1.6931947657
-0.0654854711 -0.1490226372 -1.6894791292
-0.0078261684 -0.1732858326 -1.6956380257
-0.1045498346 -0.1491966615 -1.6801756096
-0.0223581944 -0.1510596224 -1.7008650246
-0.0330795287 -0.1589597012 -1.6776047581
-0.0181447765 -0.1486240658 -1.7359078629
-0.1071349745 -0.1388356971 -1.7592294813
-0.0873367233 -0.1201643504 -1.6406921088
-0.1266707670 -0.1239585854 -1.7095009005
-0.0665974921 -0.1264525588 -1.6361663446
-0.0239821865 -0.1735756535 -1.7874527823
-0.0648153697 -0.2045773802 -1.7734851986
-0.0956923990 -0.1513110461 -1.6691795838
-0.0814774027 -0.2009641375 -1.7782136695
-0.0611515910 -0.1739821588 -1.7831324088
-0.0327685851 -0.1061011257 -1.6685566809
-0.0667187056 -0.0955941723 -1.6421620490
-0.0322723069 -0.1064609977 -1.6669052208
-0.0305231093 -0.1806758510 -1.7123993851
-0.0851606111 -0.1838861334 -1.7836701465
-0.1112513905 -0.0929443047 -1.6974318957
-0.0586821083 -0.0964104150 -1.6479232331
-0.1150788729 -0.0878757889 -1.6822340331
-0.1238569954 -0.0896852785 -1.6808272237
-0.0518049082 -0.0990905124 -1.6791156841
-0.1335958457 -0.0929078287 -1.6723578641
-0.0937174866 -0.1472279812 -1.6673135185
-0.0070943763 -0.1397034420 -1.7471431920
-0.0374546809 -0.1717140211 -1.6805186766
-0.0393633168 -0.1846830762 -1.7730753922
-0.0205236253 -0.1534174689 -1.7172387242
-0.0629667386 -0.1462549672 -1.6971690337
-0.0621319033 -0.1824103294 -1.7398044201
-0.0560700893 -0.1499579146 -1.6504883195
-0.1140347306 -0.1487409812 -1.7523294206
-0.0561619411 -0.1487386052 -1.6540762894
-0.0450401639 -0.1338349326 -1.6589984040
-0.0569928035 -0.1411937663 -1.6360764243
-0.0373570021 -0.1844951981 -1.7177577544
-0.0482373259 -0.1290677408 -1.7712494013
-0.0350950632 -0.1138577486 -1.7248277420
-0.1147575075 -0.1760588011 -1.7426964093
-0.0345591975 -0.1238548872 -1.6435131186
-0.0809189247 -0.1203282601 -1.6962114249
-0.0365183003 -0.1851950279 -1.6911636678
-0.0478696847 -0.1063891998 -1.6437802540
-0.0994105802 -0.1934555233 -1.7559299201
-0.0378231845 -0.1898712298 -1.7300705947
-0.0601529134 -0.1103967909 -1.7329385700
-0.1074337492 -0.1210483447 -1.6381358816
-0.0837868890 -0.1579065436 -1.7977223231
-0.0846314270 -0.1406821734 -1.6539030698
-0.0725467319 -0.1587769008 -1.6461451392
-0.0971448270 -0.1017095128 -1.6642326803
-0.0721976633 -0.1844995289 -1.7338523398
-0.0872390181 -0.0951058305 -1.6382538963
-0.0442210907 -0.1859935444 -1.6850762675
-0.0692062250 -0.1607125734 -1.6510176978
-0.0617467730 -0.1520734410 -1.6870999389
-0.0354982058 -0.1079436765 -1.6584460088
-0.1146962249 -0.1273414250 -1.7501918988
-0.0246463462 -0.1112660602 -1.7180060353
-0.0672313538 -0.1706064884 -1.7360660659
-0.1351736542 -0.1260345793 -1.6786763082
-0.0664731350 -0.1511350800 -1.6437478874
-0.0092872589 -0.1971827754 -1.7421748908
-0.1197531511 -0.1351723439 -1.6983310561
-0.0926416224 -0.1228430261 -1.7765624904
-0.0193038316 -0.1529632554 -1.7201041215
-0.0088374866 -0.1497730917 -1.7356805396
-0.1161930486 -0.1222800608 -1.7729235717
-0.1162811797 -0.1366856524 -1.6919729204
-0.1007986748 -0.1034932472 -1.6577712113
-0.0897155955 -0.1089985910 -1.6491380910
-0.0939300231 -0.1656993927 -1.7387165063
-0.0453531490 -0.1594191593 -1.7807991907
-0.0638625376 -0.2033063145 -1.7622331882
-0.0761845119 -0.1949929691 -1.7582619284
-0.0531484175 -0.0856144345 -1.6659236011
-0.0665874414 -0.1272894261 -1.7714445481
-0.0170996719 -0.1337607838 -1.7162827259
-0.0088930426 -0.1531244143 -1.7400297277
-0.0351592948 -0.1319119827 -1.7756955119
-0.0688222133 -0.1547617452 -1.7937750349
-0.1017057626 -0.1083207858 -1.6533069114
-0.0781866077 -0.1169734531 -1.6923171428
-0.0164552155 -0.1408735030 -1.7040130186
-0.0657905972 -0.1229991724 -1.6948514781
-0.0713749826 -0.1096577123 -1.6484858990
-0.0345957206 -0.0952734581 -1.6947667677
-0.0700445266 -0.1079265177 -1.6481075077
-0.1018213527 -0.1662080744 -1.6489223242
-0.0814480173 -0.1476954846 -1.6913762841
-0.0552522687 -0.1406256198 -1.7496557227
-0.0892947950 -0.1618610371 -1.6334172212
-0.0388207415 -0.1642523776 -1.7816208840
-0.0943112695 -0.1709524940 -1.6505991720
-0.0347604868 -0.1239800018 -1.6876477239
-0.1240977488 -0.1073078070 -1.7276506261
-0.0318060219 -0.1132244779 -1.6530332763
-0.0229785620 -0.1464555158 -1.6949151553
-0.1141040614 -0.1602172484 -1.7477138677
-0.0405223589 -0.1794771576 -1.7827588284
-0.0928176452 -0.1569708641 -1.7929760041
-0.0683128033 -0.1494944750 -1.6300347003
-0.0585678717 -0.1466545488 -1.6293436978
-0.0533027466 -0.1094288105 -1.7075415632
-0.0547567729 -0.1735514969 -1.7717149155
-0.0801034986 -0.1340261466 -1.6709600131
-0.0555494529 -0.1100972966 -1.7092757906
-0.0402430653 -0.1713931171 -1.7114471320
-0.0971961244 -0.0856207327 -1.6885141602
-0.0889186189 -0.1494382985 -1.6586615994
-0.0652244684 -0.1583807041 -1.6294274489
-0.0508453655 -0.1505588351 -1.7998734975
-0.0791910341 -0.1718324041 -1.7770927427
-0.0582079871 -0.1778271834 -1.7201483487
-0.0598412846 -0.1827780910 -1.7564492014
-0.0292754570 -0.1337765880 -1.6660433164
-0.0816244030 -0.1611325494 -1.6602833144
-0.0209591918 -0.1366933108 -1.7088776497
-0.0942783778 -0.1949081993 -1.7737533224
-0.1167917862 -0.1437658935 -1.6475218169
-0.0832557268 -0.0876643755 -1.6798121446
-0.0557264982 -0.0954612200 -1.6561262147
-0.0825031909 -0.1607412968 -1.6589335054
-0.0504944879 -0.1518861765 -1.6850544784
-0.1319651180 -0.1026271105 -1.6888721034
-0.0493927817 -0.1603608887 -1.7411751195
-0.0135233258 -0.1764876255 -1.7513300760
-0.0757782670 -0.0795818962 -1.6653328437
-0.0396869224 -0.1696188523 -1.7075654712
-0.0263046223 -0.1185150955 -1.6890302589
-0.0838108292 -0.1660265191 -1.6410185550
-0.0787214697 -0.0908804521 -1.6697812010
-0.0163593143 -0.1242171322 -1.7410807422
-0.0350234392 -0.1554368903 -1.6812458204
-0.0333592470 -0.1604927401 -1.6798320488
-0.1113259111 -0.1622639467 -1.7774174315
-0.0362488151 -0.1690005598 -1.7105844405
-0.0987958871 -0.1593252811 -1.7004018544
-0.0941922426 -0.0955607228 -1.6788079459
-0.0646899475 -0.1799329211 -1.7787254217
-0.0475807914 -0.0810528882 -1.6696789543
-0.1193158521 -0.1593608371 -1.6760992294
-0.0761862964 -0.1121437314 -1.7143947685
-0.0710818921 -0.1571728973 -1.6954307774
-0.0440319001 -0.1666912795 -1.6611273665
-0.0199379573 -0.1332988359 -1.7037333573
-0.0561514869 -0.0959144385 -1.6683440760
-0.0913143240 -0.1078174814 -1.6630027660
-0.0964234074 -0.1588593295 -1.6771311974
-0.0546562999 -0.1397980576 -1.7434209708
-0.0469133547 -0.1086821112 -1.6353581141
-0.0203549071 -0.1327307450 -1.7051518516
-0.0641202014 -0.1465072393 -1.7846155290
-0.0058401134 -0.1507640861 -1.7304636221
-0.0569394658 -0.1730637479 -1.7867125831
-0.1408412649 -0.1251865979 -1.6712746578
-0.0467527626 -0.1695540808 -1.6850958443
-0.0875178022 -0.1962841403 -1.7588821261
-0.1237251292 -0.1385749908 -1.7176504436
-0.0466289655 -0.1791734161 -1.6731997870
-0.0223911949 -0.1616647031 -1.6907431424
-0.1288210610 -0.1099102227 -1.7042726529
-0.0217316003 -0.1233493672 -1.7082619094
-0.1068195230 -0.1756581613 -1.7888488630
-0.0578505595 -0.0912828791 -1.6406842761
-0.0722817902 -0.1677639972 -1.7929108766
-0.0634840090 -0.1000712629 -1.7104240392
0.0137160427 -0.1741714780 -1.7515522142
-0.0642579419 -0.0985518353 -1.7068205344
-0.0615771897 -0.1102929241 -1.6388221031
-0.0367921861 -0.1865453465 -1.7097898015
-0.0866422678 -0.1461762175 -1.6541285894
-0.0979204619 -0.1166853709 -1.7619748894
0.0065469807 -0.1696425834 -1.7562735542
-0.0106376697 -0.1397437401 -1.7221241525
-0.0156260808 -0.1596870245 -1.7171947477
-0.0285262496 -0.1464601133 -1.6584171846
-0.0200662737 -0.1863036204 -1.7370192035
-0.0116544553 -0.1549065404 -1.7284534961
-0.1195914673 -0.1253944329 -1.6417062458
-0.0914714851 -0.1449315699 -1.6893690663
-0.0548860102 -0.1903865785 -1.7693173421
-0.0904585268 -0.1763782560 -1.7419578490
-0.0444270379 -0.0940141324 -1.6881386970
-0.1190715901 -0.1666527467 -1.7253285338
-0.0630962264 -0.1501728528 -1.6563343513
-0.0504741067 -0.1782253650 -1.7667675419
-0.0453906926 -0.1418467454 -1.6810216339
-0.0435865639 -0.1542852514 -1.6839923113
-0.0300106772 -0.1731653512 -1.7011739108
-0.0167389589 -0.1629734955 -1.7183604611
-0.0970932076 -0.1433187539 -1.6477846217
-0.0443463516 -0.1028285628 -1.6431823740
-0.0903716360 -0.1669695135 -1.7726674459
-0.1351574909 -0.1281987723 -1.6828793197
-0.0891421684 -0.1700064352 -1.7006654280
-0.0337728888 -0.1653420230 -1.6846012151
-0.0789313324 -0.1732783627 -1.6998891259
-0.0126548504 -0.1255752305 -1.7316689007
-0.0595294014 -0.1844680960 -1.7691314719
-0.1223762346 -0.1339948222 -1.7044562884
-0.0752222025 -0.1021797627 -1.7026307734
-0.0366804124 -0.1870215861 -1.7669958373
-0.0222402829 -0.1554976996 -1.7034887216
-0.1320621538 -0.1141214201 -1.6868769151
-0.0688516397 -0.1693593543 -1.7769760009
-0.0895093598 -0.1204558235 -1.6409092528
-0.0519390508 -0.1862161742 -1.7690621342
-0.1446919490 -0.1166316091 -1.6810829006
-0.0534626815 -0.1780008629 -1.7741447227
-0.1256825922 -0.1009546220 -1.6616913852
-0.0308810725 -0.1219465328 -1.7551526759
-0.0359509005 -0.1422242575 -1.6682474588
-0.0649538121 -0.1641838124 -1.6388475443
-0.1001222975 -0.0963821978 -1.6756266988
-0.0957298103 -0.1710772063 -1.7656551264
-0.0524915841 -0.1629679539 -1.6433911405
-0.0404897503 -0.1307727425 -1.6645142975
-0.0060329878 -0.1544408413 -1.7449641806
-0.0421535446 -0.1133303202 -1.7207665579
-0.0065439590 -0.1556609209 -1.7550773268
-0.0472343166 -0.1454222031 -1.7809840588
-0.0793729513 -0.0966018716 -1.7075322015
-0.1175575436 -0.1665035163 -1.7429637722
-0.0277452902 -0.1750859789 -1.7151728002
-0.0508965794 -0.1643706340 -1.7365515118
-0.1268935926 -0.1128259979 -1.6995676497
-0.0751659264 -0.1481084629 -1.6465061845
-0.0856410295 -0.1898075246 -1.7367819139
-0.0921749127 -0.1358184098 -1.6490534997
-0.0993444914 -0.0854208627 -1.6819432761
-0.1106014544 -0.0856353734 -1.6695124932
-0.0994461856 -0.1188046047 -1.6408364771
-0.0710113992 -0.1596514341 -1.7923573531
-0.1219936990 -0.1405605522 -1.6483747857
-0.0395360441 -0.1820469893 -1.7748489977
-0.0447251919 -0.1238936030 -1.6352510903
-0.0422340383 -0.1347466154 -1.7788154015
-0.0365648099 -0.1818211800 -1.7054151656
-0.0756686951 -0.1919680386 -1.7769189855
-0.0901221572 -0.0951307423 -1.6585287172
-0.0373398304 -0.1033637172 -1.6910197205
-0.0420292007 -0.0966930039 -1.6554516476
-0.0020780011 -0.1661604872 -1.7433291644
-0.0746162074 -0.1469226180 -1.6767576619
-0.0441476148 -0.1387193450 -1.6383009665
-0.0953044949 -0.1770782882 -1.7208053445
-0.0103629122 -0.1241338177 -1.7595179411
-0.0825887095 -0.0977837222 -1.6429042787
-0.0446101660 -0.1115473565 -1.6332509835
-0.0628718379 -0.2024525866 -1.7513194545
-0.0148325577 -0.1176746975 -1.7577731368
-0.0801010760 -0.1568430674 -1.6931892318
-0.0790220621 -0.1056301870 -1.7406608856
-0.0136718807 -0.1615141231 -1.7370308157
-0.0406526620 -0.1802364542 -1.7870228331
-0.0235072964 -0.1760007793 -1.7206969096
-0.0305275573 -0.1779621436 -1.7123177964
-0.0040163760 -0.1111808185 -1.7198691855
-0.0495753943 -0.1141328066 -1.7275488534
-0.1116539781 -0.1460907858 -1.7544907650
-0.0894127698 -0.1805546904 -1.7112116681
-0.0916095327 -0.1310881065 -1.6462073971
-0.0522427442 -0.1111635331 -1.7335352543
-0.0807066497 -0.1120894894 -1.7424610101
-0.0073897213 -0.1395670904 -1.7132296322
-0.0854912024 -0.1584492970 -1.6277032382
-0.0385384479 -0.1784222495 -1.6878805559
-0.0530297651 -0.1336266230 -1.7387260871
-0.0719711820 -0.1176502991 -1.7406214994
-0.1371142451 -0.1424161247 -1.6440441907
-0.0152737730 -0.1671896528 -1.7318654743
-0.0876805458 -0.1132259327 -1.7718821809
-0.0341056305 -0.1837808328 -1.6907641659
-0.0177812602 -0.1510857956 -1.7200652170
-0.0298755155 -0.1844185372 -1.7033306007
-0.0309492213 -0.1512393448 -1.6809769213
-0.0174193094 -0.1767736043 -1.7317352113
-0.0485559729 -0.1637673837 -1.6799906194
-0.0865892461 -0.0953380201 -1.6985002718
-0.0845068584 -0.0978017171 -1.6336265890
-0.0823536349 -0.1173847359 -1.7257321985
-0.0425023637 -0.1259869573 -1.6547951460
-0.0770116406 -0.1902169173 -1.7734461742
-0.0671814120 -0.1539997558 -1.6864550066
-0.0407501561 -0.1416529152 -1.6406029446
-0.1233051424 -0.0946740819 -1.7140732566
-0.1308076969 -0.1564847615 -1.7252081496
-0.0216255774 -0.1209901349 -1.7141910215
-0.0783356172 -0.1501231682 -1.6449975788
-0.0834911588 -0.1397516620 -1.6815709499
-0.0215762590 -0.1494385295 -1.7081294706
-0.0963785214 -0.1825305725 -1.7367412361
-0.0066122757 -0.1763173208 -1.7781653416
-0.0477524825 -0.1056682230 -1.7180535903
-0.0061924069 -0.1441593668 -1.7342884489
-0.0549019470 -0.1508048409 -1.7428885619
-0.1088306341 -0.1564017224 -1.7686027561
-0.0766966269 -0.1374458106 -1.7911112663
-0.0912333255 -0.1492055302 -1.6524968203
-0.0496627979 -0.1215236240 -1.7452942011
-0.1243043059 -0.0979675770 -1.6679775140
-0.0388160811 -0.1576869847 -1.6756856783
-0.1128743358 -0.1270195557 -1.7413289257
-0.1355952534 -0.1317911059 -1.6865111364
-0.0336123416 -0.1259233356 -1.6477426609
-0.0876551326 -0.1212763655 -1.6385624782
-0.0261802556 -0.1696817906 -1.6967865297
-0.0938850236 -0.0976636489 -1.6603197806
-0.0385940963 -0.1834209732 -1.7093572905
-0.1350204947 -0.1132551182 -1.6881547482
-0.1135083890 -0.1511732439 -1.7557877842
-0.0402315877 -0.1209725319 -1.7594568089
-0.0449213643 -0.1068421031 -1.7010237830
-0.0917116013 -0.1462480881 -1.6387838868
-0.0531205822 -0.1418529434 -1.7842098281
-0.0453137525 -0.1191308965 -1.6350553532
-0.0973237327 -0.1211147943 -1.6265349146
-0.0710033314 -0.2043947398 -1.7558535294
-0.0970472739 -0.1101947888 -1.6572893586
-0.0324502711 -0.1001733251 -1.6860387737
-0.0545123939 -0.1517888803 -1.7773362808
-0.0829887347 -0.1537736487 -1.6655766388
-0.1194506355 -0.1661090976 -1.6584155990
-0.0342244402 -0.1739271084 -1.7323194663
-0.0124175459 -0.1770008609 -1.7578642372
-0.1229763252 -0.1470568766 -1.7596526509
-0.0372176727 -0.1751811409 -1.6903857723
-0.0765543350 -0.1334176401 -1.6475707140
-0.0042357958 -0.1391792908 -1.7724034631
-0.0300339513 -0.1659809151 -1.6807180100
-0.0323721560 -0.1964573925 -1.7231457353
-0.1168505186 -0.1406117204 -1.6456429970
-0.1172187232 -0.1120273290 -1.6536396895
-0.0295946195 -0.1125033949 -1.6889015348
-0.1353393311 -0.1424758240 -1.6960818321
-0.0188886368 -0.1489840132 -1.7137636868
-0.0563302115 -0.1269709021 -1.6322139502
-0.0670751439 -0.0928336864 -1.6571910314
-0.1165171663 -0.1612620795 -1.7638662277
-0.0419153181 -0.1730109196 -1.6758272601
-0.1121367544 -0.1659807455 -1.6530881061
-0.0039405662 -0.1251219632 -1.7351505441
-0.1084228474 -0.1764163158 -1.7666230733
-0.0388654104 -0.1353805213 -1.6453085272
-0.0819707786 -0.1582855433 -1.6599092881
-0.1080116320 -0.0913192447 -1.6775049066
-0.0106469358 -0.1289141873 -1.7603006509
-0.0522659620 -0.1769634484 -1.7450006246
-0.0613938102 -0.1947410312 -1.7758609094
-0.1100918488 -0.1412071470 -1.6995977155
-0.0942314437 -0.1197452634 -1.7870466362
-0.0623516840 -0.1261276945 -1.6328368282
-0.0391924848 -0.1797738708 -1.7310381099
-0.1072483520 -0.1086171118 -1.7542056187
-0.0370930203 -0.1250590739 -1.6523344120
-0.0768259371 -0.1582805257 -1.6559584952
-0.0354999788 -0.1145753637 -1.6393851042
-0.0860650775 -0.1152347107 -1.7385020736
-0.1084763125 -0.1782046267 -1.7280655310
-0.0116111629 -0.1417889144 -1.7386442058
-0.0938548765 -0.0988446218 -1.7173112296
-0.0562678192 -0.1106314963 -1.7494833983
-0.0781462638 -0.1859341928 -1.7416111693
-0.0542221187 -0.1083908693 -1.7046572524
-0.0988505260 -0.1795378075 -1.7103370995
-0.0250214000 -0.1118116909 -1.7451540421
-0.0931217379 -0.1445444123 -1.6466638066
-0.0648993753 -0.1635782266 -1.6481404492
-0.0610379601 -0.1316768132 -1.7361371224
-0.1368784412 -0.1359386862 -1.6995299797
-0.0133209153 -0.1628197551 -1.7290821160
-0.0695502383 -0.1005047805 -1.6370843666
-0.0912747887 -0.1915660981 -1.7939643280
-0.1362078113 -0.1396796100 -1.7019995852
-0.0785661429 -0.2006939046 -1.7716085989
-0.0559031628 -0.1480993325 -1.6346483705
-0.0710127799 -0.1634315258 -1.7370529233
-0.0561137242 -0.1609254830 -1.6308124224
-0.1102322227 -0.0879822528 -1.6859580974
-0.0634876431 -0.1459513034 -1.7470776300
-0.0267479851 -0.1898172405 -1.7599667904
-0.0925173544 -0.1061475973 -1.6988020268
-0.0336990728 -0.1407482904 -1.6721215435
-0.0484995602 -0.1666718772 -1.6567150968
-0.0994411216 -0.1689526702 -1.6486363029
-0.0526475980 -0.1692748038 -1.6632247508
-0.0613074734 -0.1469392133 -1.6688170814
-0.0685876880 -0.1018444146 -1.7254182750
-0.0884462265 -0.1914921342 -1.7527516397
-0.1207168675 -0.1390182644 -1.6592416821
-0.0746356808 -0.1680101305 -1.6575731039
-0.0422258099 -0.1510733415 -1.6452705224
-0.0161302469 -0.1366918611 -1.7208972517
-0.0782090882 -0.0989351100 -1.6568845001
-0.1275043501 -0.1539616644 -1.7135607066
-0.0162406738 -0.1280707776 -1.7406033352
-0.1136016858 -0.0872830168 -1.6871197213
-0.0623863504 -0.0865091198 -1.6792225918
-0.1271088415 -0.1318424062 -1.7095928635
-0.0732745080 -0.1792725293 -1.7198872979
-0.0501664691 -0.1709191277 -1.6672867789
-0.1044490100 -0.1264280386 -1.6416665432
-0.0514377132 -0.1410663873 -1.6340315342
-0.0544977210 -0.1055585096 -1.6444655121
-0.0524549268 -0.1408658342 -1.6351528587
-0.1016014093 -0.1702377215 -1.6458778584
-0.0662614875 -0.1164567032 -1.7284518831
-0.0137011084 -0.1359090752 -1.7006820620
-0.0104230724 -0.1636335020 -1.7872804299
-0.0474991047 -0.1678243284 -1.6645731819
-0.0116605620 -0.1615521265 -1.7471333089
-0.0680205543 -0.1495722543 -1.7335443061
-0.0701417252 -0.1619163485 -1.6958633722
-0.1175908419 -0.1684507702 -1.7139676064
-0.0997314415 -0.1510356658 -1.6485173035
-0.0756482066 -0.1321442634 -1.6403233951
-0.1291271970 -0.0966713622 -1.6897806535
-0.0828155504 -0.1695302951 -1.7916723267
-0.1142607666 -0.1460398233 -1.6707165614
-0.0836119428 -0.1409076303 -1.6553658247
-0.1334190494 -0.1318710150 -1.7193115137
-0.1136255147 -0.1518819858 -1.6596079512
-0.0330559330 -0.1079705470 -1.6727591869
-0.0102649395 -0.1662927327 -1.7222343594
-0.0788345960 -0.1014446605 -1.7102152330
-0.0945719980 -0.1277268604 -1.6434234504
-0.0770019072 -0.1440503401 -1.6526023170
-0.0768773779 -0.1433088183 -1.6511774063
-0.0349614544 -0.1207760324 -1.7486756604
-0.1200045847 -0.1401769475 -1.7484503448
