-0.0368350856 -0.0947765260 -0.4038663445
-0.0296742537 -0.0634503047 -0.3030420222
0.0218943160 -0.0461276849 -0.3916038358
0.0016694746 -0.0866766117 -0.3118695958
-0.0640035326 -0.1213569921 -0.3589058926
0.0548799427 -0.1512183559 -0.4034113081
0.0750718630 -0.0661055520 -0.4258910450
0.0328423766 -0.0472815660 -0.4145317229
-0.0730811804 -0.1169013792 -0.3713087728
-0.0351749375 -0.1529115261 -0.4165444550
0.0588361426 -0.1189566669 -0.4317536283
-0.0692452400 -0.0543262570 -0.3870985076
-0.0471215702 -0.0585715351 -0.3538859270
-0.0220750846 -0.1693306689 -0.3405238744
-0.0417791494 -0.0655583961 -0.3139748001
-0.0464837030 -0.0614276826 -0.3516499698
-0.0030174236 -0.1177481991 -0.4177504364
-0.0675565856 -0.0783276006 -0.3286551598
0.0090907619 -0.0917743980 -0.4003341325
0.0851562909 -0.0843887430 -0.3699426316
0.0212637866 -0.1217306517 -0.3447671235
-0.0635266316 -0.1253205412 -0.3958192056
0.0202954258 -0.0854597178 -0.3325092370
0.0186040121 -0.0830835757 -0.4215455535
-0.0399506339 -0.1010035919 -0.3461409568
0.0153503654 -0.1787553366 -0.3691341662
-0.0130389458 -0.0707157809 -0.3499206397
0.0009966604 -0.0447026847 -0.3859808056
0.0789381758 -0.0756046285 -0.3857078117
0.0322056048 -0.1388344045 -0.3450103900
-0.0695757206 -0.1023145732 -0.3951104276
0.0407109141 -0.1323967386 -0.4417521670
0.0521574074 -0.1336897321 -0.3453136255
0.0688593870 -0.0943517421 -0.3820628195
0.0020822259 -0.0472730773 -0.3558075230
-0.0419939928 -0.1164583976 -0.3308194605
0.0338509497 -0.0447997440 -0.3899665241
-0.0025060822 -0.1554214998 -0.3678187166
-0.0672888407 -0.1346674574 -0.3590378407
-0.0635385541 -0.1170504854 -0.3637170786
0.0266724061 -0.0628850032 -0.3497157210
-0.0071428885 -0.0965764468 -0.3272489607
-0.0794595050 -0.0853116177 -0.3811685546
0.0213372922 -0.0718009737 -0.3544649265
0.0414836308 -0.1147279296 -0.3474204100
0.0319320663 -0.1649075039 -0.3454403192
-0.0063664264 -0.0543592633 -0.3547764568
-0.0328138928 -0.1581622910 -0.3921519862
-0.0265613229 -0.1212347375 -0.4015729935
-0.0232911382 -0.1596906155 -0.3999910062
-0.0204949550 -0.1275772177 -0.4091374005
0.0096718616 -0.0715499222 -0.3500078272
0.0512753497 -0.0501343304 -0.4031070742
-0.1060365907 -0.0211924893 -0.3758023735
0.0228012454 -0.0974448672 -0.3297115411
0.0332335853 -0.0545811961 -0.3331332278
0.0344359654 -0.1601157826 -0.3891964592
-0.0377483124 -0.1730939522 -0.3573194272
-0.1003177585 -0.0168675855 -0.3812158517
-0.1033978001 -0.0306960704 -0.3859480944
-0.0598789293 -0.1477907876 -0.3444730954
-0.0777468954 -0.0531885666 -0.3962746515
-0.0213399652 -0.1585247250 -0.3966993829
-0.0016798904 -0.0463623416 -0.3820807331
-0.0677387597 -0.1163713507 -0.3962568718
0.0175996470 -0.0761655113 -0.4216188187
0.0299772887 -0.1540587345 -0.3714793167
-0.0041695831 -0.0838207728 -0.3512195616
-0.0083000718 -0.1319156821 -0.4186650463
0.0418332513 -0.0809064541 -0.3561409570
-0.0765276522 -0.0880030016 -0.3925244448
0.0239366974 -0.0965200372 -0.3509169865
-0.0656484837 -0.0608691380 -0.3760709525
0.0959086547 -0.1279468773 -0.3951393788
-0.0116869167 -0.0943466987 -0.3485907490
0.0693362247 -0.1087709281 -0.3449657752
-0.0694364859 -0.0893383571 -0.4161322841
0.0791974391 -0.0729877584 -0.4176114487
-0.0373956757 -0.0958392175 -0.3121500288
0.0592119538 -0.1293233800 -0.4408170858
0.0337684008 -0.1445499348 -0.4019428563
-0.0268660891 -0.1604752278 -0.3886921182
-0.0589282285 -0.1186174896 -0.3526858902
0.0419444440 -0.1014695562 -0.4096219831
0.0906854344 -0.0688017730 -0.3941524526
-0.0047298432 -0.1044432782 -0.3448738456
-0.0179207107 -0.1332819025 -0.4128382269
0.0334618383 -0.1584424448 -0.4135615027
0.0361176979 -0.0711669805 -0.3560353358
-0.0131748078 -0.1012090680 -0.3596059497
0.0466382493 -0.1119735812 -0.3510923730
-0.0212286628 -0.1597155349 -0.3619748521
-0.0714543496 -0.0993666827 -0.3815994069
0.0612497626 -0.1091071971 -0.3520169040
-0.0079062646 -0.1515114801 -0.3930191785
0.1275448243 -0.1573930719 -0.3624325510
0.0293252772 -0.1120052997 -0.3360241638
0.0641769269 -0.0481885127 -0.3919456741
-0.0180395819 -0.0616192853 -0.3973804631
0.0104863044 -0.1484239505 -0.3993730640
-0.0056897423 -0.1551887229 -0.4150899562
-0.0295240355 -0.0859087351 -0.3853166975
-0.0685860870 -0.0493993294 -0.3869130240
0.0637689171 -0.0523652198 -0.3762796458
0.0382913328 -0.0789026063 -0.3547801700
0.0440220312 -0.1309262504 -0.3491405520
0.0947162624 -0.1228100899 -0.3820018896
-0.0521661765 -0.0985035251 -0.3382425222
0.0030442652 -0.0505073609 -0.3922642821
-0.0306857394 -0.0945532227 -0.3717595268
-0.0595559936 -0.1015228341 -0.3664687565
-0.0489164351 -0.0566654990 -0.3570283553
-0.0101219621 -0.1411965804 -0.4222370274
0.0656152071 -0.0838391067 -0.3704414150
0.0353858477 -0.1095935949 -0.4079429734
-0.0470030464 -0.0562599937 -0.3565363966
-0.0562364225 -0.1173773060 -0.3511145951
-0.0560633688 -0.1015301968 -0.3642270518
-0.0743159279 -0.1713265404 -0.3270562701
0.0455720218 -0.1528159148 -0.3691372205
-0.0119497762 -0.0515497159 -0.3744608207
-0.0330156572 -0.0879179640 -0.3871258113
0.0019503006 -0.0441876007 -0.3831417057
-0.0073851966 -0.0592963790 -0.3523727093
-0.0612271289 -0.0526316588 -0.3825835077
-0.0160026487 -0.1771891803 -0.3825265550
0.0249799558 -0.1615001606 -0.3861690058
0.0667737459 -0.0514676700 -0.3889170884
0.0515418987 -0.1090342208 -0.3500504308
-0.0164655287 -0.0708012422 -0.4090742284
-0.0483892953 -0.1644869893 -0.3706822631
0.0046730323 -0.0437235947 -0.3529661999
-0.0494312003 -0.1012845146 -0.3549697483
0.0212952043 -0.0528800844 -0.3790915925
0.0142832435 -0.0441035755 -0.3844189668
-0.0510449407 -0.0651175369 -0.3494267882
0.0106304634 -0.1079713918 -0.4161878562
0.0025594267 -0.0554942169 -0.3346089679
0.0339004418 -0.1315388380 -0.3434639438
0.0243002117 -0.0838243612 -0.3535385406
0.0564767865 -0.1168411847 -0.3491223200
0.0836409827 -0.0783409836 -0.3636634373
0.0417283107 -0.1270273412 -0.3345069403
-0.0125492849 -0.1227470566 -0.4172409483
-0.0712286267 -0.0984989255 -0.3447523834
0.0098327934 -0.0751375219 -0.3555987581
-0.0167615246 -0.0524804704 -0.3589327335
0.0019832096 -0.1314993436 -0.3319202899
-0.0790392764 -0.1251935240 -0.3576737526
0.0068630252 -0.0739609608 -0.3537641969
-0.0602678321 -0.0997250155 -0.3649002016
-0.0642695777 -0.0532713715 -0.3886653203
0.0664803292 -0.0787987752 -0.3305997713
-0.0637899119 -0.1415606542 -0.3883187507
0.0505856698 -0.0995620067 -0.4347264081
0.0530021193 -0.0551103993 -0.3512345241
0.0083111416 -0.0839471922 -0.4348245884
-0.0269756369 -0.1240819442 -0.3955736482
-0.0471512322 -0.1592321674 -0.3594797543
-0.0040564809 -0.1484088753 -0.3403084324
0.0877476415 -0.1331669760 -0.4068065963
-0.0089682081 -0.0721163038 -0.3523024825
0.0169253416 -0.0412274328 -0.3832366359
0.0401381782 -0.1553388421 -0.4175381950
0.0750985745 -0.1121428872 -0.4095703332
-0.0815594215 -0.1624260948 -0.3324540363
-0.0438801072 -0.1221839868 -0.3438052774
-0.0312936265 -0.0853934502 -0.3891568785
-0.0439155303 -0.0568764367 -0.3541375552
0.0266324584 -0.0941052569 -0.3513235884
-0.0642526031 -0.0635665529 -0.3693246716
-0.0407588080 -0.0916210466 -0.3451563414
-0.0658889577 -0.1443949167 -0.3434281290
0.0509067867 -0.0489140227 -0.3773206770
0.1173169374 -0.1651851339 -0.3925684233
-0.0116663226 -0.0492329392 -0.3816592719
0.0566565466 -0.1039040055 -0.3540372167
0.0820132355 -0.0877625070 -0.3819613089
-0.0299669431 -0.1253284247 -0.3991452273
0.0263545900 -0.0581485932 -0.4254857152
-0.0418867905 -0.1269160177 -0.3369516755
0.0969298996 -0.0862071796 -0.3683129405
0.0759712734 -0.0573066775 -0.3673297775
0.0496667679 -0.1035149612 -0.3439691588
-0.0167086546 -0.0790914349 -0.3518064825
-0.0619813896 -0.1525158988 -0.3590256974
0.0379570810 -0.1694369624 -0.3705303286
0.0220046512 -0.1191865483 -0.4176006710
-0.0057444764 -0.0979159598 -0.4301918645
0.0679355328 -0.1274227387 -0.4214247725
0.0377250662 -0.1309670558 -0.3241022309
0.0364138964 -0.1005086838 -0.3735228457
-0.0127393135 -0.0574908716 -0.4166503781
-0.0326854452 -0.1275351998 -0.4045678672
-0.0363208366 -0.1222057867 -0.3428194452
-0.0783140785 -0.0923199048 -0.3762421889
0.0692392272 -0.1122462122 -0.3636985208
-0.0015930389 -0.1573550180 -0.3785644780
-0.0360752232 -0.0548787206 -0.3600460374
0.1024420234 -0.1068993377 -0.3978444998
-0.0104622800 -0.0737925156 -0.4217530007
0.0236093613 -0.0975121781 -0.3711889978
-0.0951441417 -0.1719575944 -0.3295619951
-0.0659842724 -0.0567142909 -0.3820244410
0.0877595572 -0.0750446875 -0.3651665878
0.0081390721 -0.0735632429 -0.3498612122
-0.0626317763 -0.1541200737 -0.3965943448
-0.0728938286 -0.0719385480 -0.3874705083
-0.0667446156 -0.1774689716 -0.3076724540
0.0627908244 -0.0523150529 -0.3569401122
-0.0697508652 -0.1233410464 -0.3789379841
-0.0060791204 -0.1462096601 -0.4109110952
-0.0252618578 -0.0498318305 -0.3758091206
0.0224158108 -0.1393069130 -0.4208372035
-0.0708152106 -0.0844000933 -0.3654972947
-0.0536982287 -0.0499789961 -0.3801113450
-0.0160924931 -0.1104794771 -0.3672356829
-0.0242021318 -0.0941775098 -0.3471117300
-0.0300257622 -0.0944600616 -0.3877455353
-0.0378622784 -0.1079162955 -0.3759523778
0.0121613951 -0.1825438092 -0.3999702434
0.0092321871 -0.0874556025 -0.3443636939
0.0168955035 -0.0950038794 -0.3515920661
0.0587125270 -0.0590141454 -0.3637707827
-0.0244829077 -0.1046169726 -0.3921660237
-0.0536607287 -0.0488910537 -0.3778627184
0.0519141557 -0.1417432546 -0.4228545947
0.0791159333 -0.1539769955 -0.3919842016
-0.0495917985 -0.0991049247 -0.3553201575
0.0594492304 -0.0633604660 -0.4217935404
0.0270860505 -0.1533322773 -0.3962829745
0.0379659681 -0.0384782372 -0.3815270726
-0.0414237226 -0.1444514405 -0.4081283099
0.0757216718 -0.0792278817 -0.3750078207
-0.0386086508 -0.1014893774 -0.4125795926
-0.0223887579 -0.0603399019 -0.3838101817
0.0020931637 -0.0513267526 -0.4121444471
-0.0334520675 -0.1609873469 -0.3914714287
0.0128694121 -0.1598706502 -0.3552769050
-0.0331792658 -0.1583201217 -0.3573767993
0.0040294292 -0.0513738270 -0.3572806321
0.0142187056 -0.0786020107 -0.3543841955
-0.0701827385 -0.0732123194 -0.3697097415
-0.1591254393 -0.0762529787 -0.4672353498
0.0084548752 -0.0869375888 -0.3501425360
0.0612995808 -0.0813343877 -0.3647158399
0.0965676947 -0.0760074795 -0.3723280880
0.0324604226 -0.1148460763 -0.4171771083
-0.0684130701 -0.1072059732 -0.3714168004
-0.0016782667 -0.0721499408 -0.3536103467
0.0516807304 -0.1551967952 -0.3833140825
0.0742667594 -0.0807988277 -0.4153127524
-0.1223859775 -0.1753905178 -0.4304577636
-0.1231860141 -0.1632079809 -0.2848330718
0.0255355130 -0.1138585241 -0.3936474421
-0.0328456484 -0.1505815559 -0.4224670812
0.0731437140 -0.1026831626 -0.3753589304
-0.0386148436 -0.0690017694 -0.3494507241
0.0179491792 -0.1532719713 -0.3517123782
0.0709372371 -0.0535102609 -0.3715644973
0.0478762872 -0.1360189846 -0.4170364074
-0.1184743712 -0.1582046617 -0.3098465591
-0.0536576693 -0.0867589479 -0.3524584695
-0.0680536808 -0.0865261112 -0.3636730015
0.0108773440 -0.0517035050 -0.3547335133
0.0305854118 -0.0895013547 -0.3533399527
-0.0559746103 -0.0689537314 -0.3535693298
-0.0337508091 -0.1171773618 -0.3438082748
0.0641089482 -0.0892616291 -0.3739774045
0.0209106572 -0.1379330122 -0.4125379013
0.0261480279 -0.0741615971 -0.3550091014
0.0131065940 -0.1623379706 -0.3504512147
-0.0152212704 -0.1379558604 -0.3039225646
0.0038262329 -0.1193956913 -0.3439369131
0.0344122639 -0.0893271704 -0.3544678807
-0.0153416138 -0.1115167427 -0.4106595632
-0.0624075793 -0.0952830687 -0.3619742990
0.0402877182 -0.0476496108 -0.3768293560
-0.0210264416 -0.0566697886 -0.3135328466
0.0581717523 -0.0969229930 -0.3575298282
-0.0536084610 -0.1533899169 -0.3901274669
-0.0472150007 -0.1144976150 -0.3357786206
0.0031838595 -0.1139731693 -0.3443140645
0.0714249581 -0.0656577289 -0.3577910400
-0.0587814995 -0.1616606897 -0.3828885360
0.0120731052 -0.1351803546 -0.3435533691
-0.0776854377 -0.1010526765 -0.3756883328
-0.0582117774 -0.0842127725 -0.3525247276
0.0438295891 -0.1132663146 -0.4289279609
0.0776863437 -0.0828850219 -0.3730648774
-0.0348893199 -0.1000562583 -0.3104920280
0.0632316956 -0.0430685370 -0.3945248841
-0.0350408031 -0.0969603299 -0.3325247596
-0.0160285799 -0.1580481052 -0.3630670717
-0.0314592574 -0.1343663292 -0.3332244939
0.0693982968 -0.0995188424 -0.4086163772
0.0182847840 -0.1511616347 -0.4065495380
-0.0479191080 -0.0724717674 -0.3183639338
-0.0484809569 -0.1203665277 -0.4061441260
-0.0148205956 -0.1559700426 -0.3393606256
-0.0559969704 -0.1116868714 -0.3619789044
0.0759309945 -0.0992666737 -0.3823687341
-0.0805309922 -0.0943254558 -0.3685704230
-0.0279489965 -0.0986308956 -0.3093223238
-0.0331964861 -0.1182211702 -0.3226922643
-0.0667754205 -0.0811117006 -0.4128725870
0.0680648328 -0.1496821649 -0.4091638279
0.0392151057 -0.0584615250 -0.3579123397
0.0632859524 -0.0899371034 -0.4102870689
-0.0704316530 -0.1557240143 -0.3666866933
0.0880454821 -0.0863099779 -0.4002283231
0.0834662586 -0.1470646053 -0.4037047200
-0.0115096497 -0.0508429124 -0.3796870632
0.0709643686 -0.0899321755 -0.3816347170
0.0390976421 -0.1269147761 -0.3492707673
-0.0252575433 -0.0943948323 -0.3616385165
0.0156965945 -0.0501427909 -0.3902804193
0.0533244889 -0.1092604279 -0.3477333268
0.0415179941 -0.1405077620 -0.4206857547
0.0254037663 -0.0973891374 -0.3965219547
-0.0550486446 -0.1604944094 -0.3752635263
0.0784235771 -0.0668394058 -0.3846580606
-0.0027576113 -0.0670239667 -0.4187691756
0.1004712318 -0.1021237618 -0.3761896527
0.0771375716 -0.1290454416 -0.3716687399
0.0065334776 -0.0507183504 -0.3711193031
-0.0528297387 -0.0992872044 -0.3589400947
-0.0331587904 -0.0741528526 -0.4010333632
-0.1402019635 -0.1237740695 -0.4099751187
-0.0628532789 -0.0812112098 -0.4112365475
0.0693744110 -0.0790404899 -0.3329205142
0.0512018211 -0.0484762341 -0.3790743274
-0.0687687178 -0.0774998040 -0.4128403123
-0.0669202901 -0.1505791106 -0.3839065497
-0.0214583717 -0.1531950633 -0.3962779970
0.0311791047 -0.0478293892 -0.3472900400
0.0297139954 -0.0974494605 -0.3993407857
0.0646197858 -0.1642619029 -0.3703688411
0.0100801375 -0.0681994007 -0.3409652144
-0.0354306084 -0.1519992455 -0.3833917465
-0.0354731129 -0.1117467191 -0.3333164954
-0.0746933630 -0.0967684032 -0.3890428389
0.0657613965 -0.1212592532 -0.3517373732
0.0483504799 -0.0477662890 -0.3767297722
0.0652403092 -0.1414820720 -0.3560644817
-0.0434904059 -0.0794385753 -0.3450799035
0.1019030259 -0.1122927705 -0.3958227563
-0.0110100922 -0.1584510551 -0.3748574129
-0.0290160084 -0.0715374155 -0.3516844806
0.0604694283 -0.0915249977 -0.3664854413
-0.0343724369 -0.0623820248 -0.3167651608
-0.0555984434 -0.0862019747 -0.3176731995
-0.0059607354 -0.1170263001 -0.4145818040
-0.0100929193 -0.1006595340 -0.4035358155
0.0591781380 -0.1133657612 -0.3449108823
0.0643193966 -0.1115328319 -0.3684179848
-0.0315754238 -0.0618207709 -0.3920240111
0.0193862838 -0.1572534637 -0.3510555600
-0.0188085857 -0.1130102929 -0.3871172624
0.0818426300 -0.1000547719 -0.3586914456
0.0529028062 -0.0475280242 -0.3794844700
-0.0391986151 -0.0684041957 -0.3511020877
0.0333637220 -0.0889171263 -0.4020762990
-0.0570254679 -0.1338566237 -0.4051090827
-0.0506716639 -0.1398997144 -0.4060645593
-0.0139817196 -0.0512540962 -0.3771621551
-0.0469184766 -0.0885145414 -0.4061114275
0.0642545886 -0.0812167236 -0.3689948634
0.0736919218 -0.0900217104 -0.3835435212
0.0337587333 -0.0766156435 -0.3561013620
0.0475524350 -0.1080504100 -0.4255652115
-0.0736861171 -0.0499903090 -0.3892298921
0.0110677347 -0.1049820259 -0.3283316873
-0.0660256203 -0.1429320160 -0.3559677471
-0.0427036566 -0.0979962695 -0.3167982977
-0.0084986636 -0.0806737572 -0.4155279853
-0.0522221924 -0.0619143777 -0.3955999341
0.0140654517 -0.1150015562 -0.4082900082
-0.0108677349 -0.0817200846 -0.3497028813
-0.0313234466 -0.0549224123 -0.3667730872
0.0394463814 -0.0970559209 -0.3937997218
0.0157639185 -0.0461943032 -0.3890511966
0.0187990230 -0.1171184621 -0.4216935351
0.0579826700 -0.0937426222 -0.3592356229
0.0478382141 -0.1313336802 -0.3454751765
0.1304102421 -0.1501574333 -0.3634685658
0.0383368739 -0.0668448310 -0.3577050298
0.0302862115 -0.0624064803 -0.3430776967
-0.0385532826 -0.0769051254 -0.4068791297
-0.0453264155 -0.1259487359 -0.4039379936
-0.0904885793 -0.1949591648 -0.2830569975
-0.0062176687 -0.0746115792 -0.3517709508
0.0387358358 -0.0713846823 -0.3557696860
-0.0751036027 -0.1470887119 -0.3803937591
-0.0456482409 -0.0520204338 -0.3929032457
0.0575672734 -0.0920677851 -0.3591076996
0.0635207335 -0.0848740409 -0.3698700600
0.0650884646 -0.1384688374 -0.4186325679
0.0760792114 -0.0859214805 -0.3862286476
-0.0491657680 -0.1091884163 -0.3539531086
-0.0459691638 -0.1626800914 -0.3323052602
0.0387291929 -0.0721693401 -0.3551101440
-0.0006965470 -0.0432518809 -0.3794151876
0.0363054366 -0.1002709388 -0.3928218517
0.0459634582 -0.1697351153 -0.3754442693
-0.0016841708 -0.0993919973 -0.3464783200
0.0235954582 -0.1053293724 -0.3818438235
0.0681467784 -0.0937921448 -0.4003076462
0.0350750688 -0.0585328671 -0.3494562634
0.0126562298 -0.0767523651 -0.3558694066
-0.0430631897 -0.1038824411 -0.3452065377
0.0329181331 -0.1366251852 -0.4061884509
-0.0635562359 -0.1297364952 -0.4098850520
-0.0014520962 -0.0494128266 -0.3795490434
0.0745864113 -0.0461324911 -0.3823587341
0.0405054188 -0.1651440228 -0.4009484387
-0.0804408345 -0.1243059476 -0.3649615203
-0.0215755320 -0.1025055934 -0.3804372270
-0.0414741646 -0.0795432602 -0.3464757502
0.0661199396 -0.1508582066 -0.3804827827
-0.0142901315 -0.0722341787 -0.3532715945
-0.0244390714 -0.1468271225 -0.4115730006
0.0796654468 -0.0716029203 -0.3790857045
-0.0242207054 -0.1559639540 -0.4061900821
-0.0122571832 -0.0924535405 -0.3230856211
-0.0190164809 -0.1036522485 -0.3465481751
0.0224876561 -0.0900365588 -0.4078666377
-0.0923822866 -0.2173004680 -0.2835050479
0.0416493103 -0.0512577373 -0.3615917533
0.0323177262 -0.0997668608 -0.3663074731
0.0702495594 -0.1482965409 -0.3819479187
-0.0397937083 -0.1578883064 -0.3609338996
0.0229774395 -0.1046889630 -0.3467109197
0.0278917916 -0.0902107617 -0.3700291699
0.0529637283 -0.1305160042 -0.4211342925
0.0171422133 -0.1443709730 -0.4255368729
-0.0623691625 -0.1363758851 -0.3466758533
-0.0443595225 -0.0547446592 -0.3766506879
-0.0265624560 -0.0916934991 -0.3469060180
0.0348892744 -0.1391373424 -0.4073637430
0.0388689386 -0.0985085940 -0.3979133633
0.0349114179 -0.0510545697 -0.3982682397
0.0290097801 -0.1207469223 -0.4127834598
0.0082107345 -0.1028425904 -0.3243443413
-0.0049620611 -0.1302607956 -0.4208955731
-0.0671804878 -0.1231899547 -0.3952113792
0.0438876309 -0.1169488120 -0.3493166328
0.0732872561 -0.0601053908 -0.3815057576
0.0838415152 -0.1141948079 -0.3779025601
-0.0577000181 -0.1169054956 -0.3219742070
0.0324754624 -0.0705222034 -0.3434692516
-0.0096544825 -0.1138317587 -0.3246417584
-0.0281641278 -0.0595650147 -0.3840503263
0.0632672597 -0.1320666799 -0.4264001548
0.0099705177 -0.0722310171 -0.4171472450
-0.0602060305 -0.1181687496 -0.3375199760
-0.0382607654 -0.1607653001 -0.3331604669
0.0378234017 -0.1521474155 -0.3751145270
0.0690260417 -0.1006828749 -0.3522817908
0.0185140703 -0.0595590159 -0.3548181030
0.0422639795 -0.0621989361 -0.4346132955
-0.0365976874 -0.0816390653 -0.3489124970
-0.0435269367 -0.0790043537 -0.3490643681
0.0316002471 -0.0493358680 -0.3596733323
0.0947872031 -0.0832746111 -0.3718527659
-0.0234913834 -0.1011758004 -0.3416462453
-0.0297316784 -0.1433404191 -0.4181227374
0.0398338806 -0.1337579686 -0.4266304443
0.0170968520 -0.1163892711 -0.3493816562
0.0517479848 -0.0454722421 -0.4010297176
0.0511799260 -0.0570305539 -0.3600546530
-0.0379092232 -0.1037004770 -0.4047409824
0.0568913594 -0.1596527115 -0.4030706479
-0.0261757125 -0.1020450931 -0.3442117353
-0.0148355057 -0.0566277665 -0.3519991098
0.0651719827 -0.1076843546 -0.4137917553
-0.0515129578 -0.1000315617 -0.4017828239
-0.1083243009 -0.0222826532 -0.3746630037
0.0841646555 -0.0925545924 -0.3500579478
0.0117757374 -0.1368650666 -0.3407161423
-0.0240173706 -0.1107941747 -0.3874041921
-0.0015035540 -0.0543085901 -0.3808733062
0.0510995767 -0.1213380143 -0.3477151207
0.0331133678 -0.1482628172 -0.3556378674
0.0205456679 -0.0893778239 -0.4014275129
0.0270659253 -0.1157162890 -0.3420018166
-0.0497061092 -0.1591162593 -0.3971083119
0.0238185510 -0.0980956170 -0.3670119411
0.0033290750 -0.0638167490 -0.3522727436
0.0685456787 -0.1471877587 -0.3662465385
0.0404567665 -0.0990578831 -0.3373857784
-0.0439423659 -0.1056048758 -0.3282465841
0.0314215555 -0.0987583999 -0.4047119046
0.0086875206 -0.1489881527 -0.3466348110
0.0662731979 -0.0469440606 -0.4023864891
-0.0213141988 -0.1262340192 -0.3435357549
0.0067756783 -0.0965021264 -0.4068896304
-0.0514653602 -0.1130202920 -0.4031267611
0.0370871180 -0.1027945874 -0.3789353744
-0.1238558162 -0.2052962607 -0.3631607808
-0.0036759948 -0.0738372616 -0.3537547588
-0.0250505164 -0.0646922077 -0.3909001627
0.0406724741 -0.1343909505 -0.4312469622
-0.0169529544 -0.1515549240 -0.3906657027
0.0211357317 -0.0497548556 -0.3664846563
-0.0475670232 -0.0829448618 -0.4112509927
-0.0233378228 -0.1043655497 -0.3446271845
-0.0477160664 -0.1573058647 -0.4043410231
-0.1661156826 -0.0685698512 -0.4542391807
0.0287292835 -0.0536793429 -0.3619407759
0.0003248974 -0.0676918790 -0.4158480955
-0.0775406976 -0.1410121741 -0.3641209373
-0.0204590295 -0.1111094085 -0.3461124040
0.0472239543 -0.1530640278 -0.3555488224
-0.0254268702 -0.1149314528 -0.3190623726
0.0343621284 -0.1523201829 -0.3550909895
-0.1309034431 -0.2239611395 -0.3209634344
-0.0196938429 -0.1354400485 -0.4104981484
0.0227375446 -0.1496582970 -0.3491082063
0.0489330830 -0.0494890365 -0.3614922632
-0.0162749327 -0.1495640826 -0.4158255926
-0.0263105660 -0.0801264593 -0.4082019318
0.0282851674 -0.0975975458 -0.3833553030
-0.0379311479 -0.1264735606 -0.4131250725
0.0163713721 -0.0966667753 -0.3781703012
0.0114423043 -0.1326562626 -0.3484584978
0.0808132702 -0.0548042974 -0.3827240450
-0.0369374307 -0.0567805067 -0.3541451816
0.0119719708 -0.0952551638 -0.3272565413
-0.0259533403 -0.0912715754 -0.3685625112
-0.0227580329 -0.0890247305 -0.3863731680
-0.0317263132 -0.1519821466 -0.4139512321
0.0363880871 -0.0475293679 -0.3718456628
-0.0311612487 -0.1003442297 -0.3758219990
0.0243829664 -0.0444775740 -0.3935988270
-0.0314943343 -0.0691758014 -0.3519141641
-0.0160058707 -0.1625483596 -0.3945991965
0.0087339922 -0.0507553982 -0.3593508848
-0.0161410273 -0.0862336460 -0.3446036936
-0.0666924590 -0.1041934971 -0.3728546694
0.0682233498 -0.0645528957 -0.3647865057
-0.0740137136 -0.0891830792 -0.3833677835
-0.0039516422 -0.0706104949 -0.4286157445
-0.0223241536 -0.0903483162 -0.3999378087
-0.0514180186 -0.1477569848 -0.3956828874
-0.0213787556 -0.1464512717 -0.3945344655
0.0639398383 -0.0560850827 -0.3519778961
-0.0061265333 -0.0991709470 -0.3470733462
0.0032072440 -0.0968121175 -0.3473901877
0.0276557309 -0.1270231248 -0.3518227482
-0.0635201682 -0.1217123629 -0.3556406067
0.0667091115 -0.1115647944 -0.3541450644
0.0067267760 -0.1643443881 -0.3559386189
-0.0611298496 -0.1147820117 -0.3657073175
-0.0062188875 -0.0648123265 -0.3550277218
-0.0152375852 -0.1113469207 -0.3162525967
0.0633636024 -0.1212760908 -0.3502291885
-0.0178775768 -0.0986003486 -0.3787296674
0.0398058542 -0.0988298873 -0.3733752958
0.0159828688 -0.0484908326 -0.4044746061
-0.0762285493 -0.0836554781 -0.3550757046
0.0103283279 -0.1082682213 -0.3321309143
0.0360735844 -0.0967364768 -0.4070995825
-0.0212102272 -0.0944276818 -0.4009792793
0.0255971192 -0.0930299295 -0.4032733707
0.0460872167 -0.0465754561 -0.3676854152
0.0169668645 -0.1109520765 -0.4125676088
-0.0185615683 -0.1105096967 -0.3636853300
0.0287930203 -0.1161884465 -0.4272299588
0.0358282312 -0.0492166509 -0.3643980274
0.0871905074 -0.0915307283 -0.3544068996
0.0436529964 -0.1484192237 -0.3526580453
-0.0565096432 -0.1244350004 -0.3207284453
0.0264941479 -0.0567868960 -0.3488471360
0.0385985299 -0.1750012817 -0.3911919862
-0.0238548595 -0.1479119471 -0.3722177428
-0.0463469061 -0.0567339706 -0.3593620426
0.0011501915 -0.1063770871 -0.4209331640
0.0350339845 -0.0992489068 -0.3387381875
-0.0466139822 -0.0560996434 -0.3615123498
0.0008755868 -0.0518237965 -0.3593575022
0.0231025221 -0.1210023471 -0.3469014966
-0.0015989104 -0.0263676267 -0.3613418610
-0.0284881927 -0.0547443366 -0.3584280317
0.0251881615 -0.0954588329 -0.4232417872
0.0664088395 -0.0449183018 -0.3945784708
0.0910540072 -0.1014551398 -0.3798256675
0.0282735190 -0.1149367541 -0.3979027593
0.0287603113 -0.0495606137 -0.3669069560
-0.0027341570 -0.0788626725 -0.3183023218
0.0039076988 -0.0660635606 -0.3260941995
0.0206980447 -0.1583878805 -0.4127595139
0.0954721277 -0.1355263362 -0.3939597712
0.0102845142 -0.1032323241 -0.3455076218
-0.0568837890 -0.1159590770 -0.3540250615
-0.0383971319 -0.1386259105 -0.3956853963
0.0310737225 -0.0572275352 -0.3587196991
0.0663087638 -0.1265800630 -0.3596619133
-0.0519290978 -0.0920573249 -0.4011861195
0.0482712506 -0.0917917458 -0.3560080844
0.0533261698 -0.0882322252 -0.3558559567
-0.0017187458 -0.1195887531 -0.4197431637
0.0871875380 -0.0638596326 -0.3909307432
0.0309908987 -0.0563794668 -0.3577953440
-0.0187174305 -0.0472601709 -0.3857907907
0.1131444155 -0.1163937132 -0.3852373802
0.0627528713 -0.0993806739 -0.3700176044
-0.0055343559 -0.1129424287 -0.4144319426
0.0015736164 -0.1050043752 -0.4161891298
0.0636067897 -0.1616739537 -0.3826154272
0.0077293531 -0.1033977216 -0.3960071116
-0.0259691425 -0.1266464328 -0.3419704384
0.0383381074 -0.0484934543 -0.3785817719
-0.0780951046 -0.0969219248 -0.3515693114
0.0241307647 -0.1063315637 -0.3489769189
0.0441113225 -0.1284344966 -0.4392654368
-0.1005379598 -0.0210418564 -0.3744067598
0.0361644904 -0.0814159123 -0.3564504764
0.0908875336 -0.0903172500 -0.3719937818
0.0242392440 -0.0686077662 -0.3559202506
0.0103152593 -0.1274631830 -0.3457995111
0.0038557721 -0.1471347671 -0.3418222195
0.0742380759 -0.0498783310 -0.3957239597
-0.0080091958 -0.1573474530 -0.3727279687
0.0259097059 -0.1356346713 -0.3999874095
-0.0061727525 -0.1192148849 -0.3438648209
-0.0390710377 -0.0992470829 -0.3427447771
0.0746993796 -0.1696456391 -0.4008119167
0.0525832376 -0.1478723200 -0.3615560198
-0.0086031739 -0.1019606754 -0.3472668456
0.0082306519 -0.0467774772 -0.3841935650
0.0461823993 -0.0500129834 -0.3644983323
-0.0497854341 -0.0801403865 -0.4051755479
0.0262922682 -0.1096722707 -0.3467863997
0.0314510471 -0.0596956361 -0.3587071927
0.0361879796 -0.1116023672 -0.3495822837
-0.0220526513 -0.0874411762 -0.3472248614
0.0269451572 -0.0965542379 -0.3513364343
-0.0179775895 -0.0956906638 -0.3447274157
0.1054724341 -0.1109679988 -0.3941955077
0.0408776348 -0.0639855519 -0.3573994944
-0.0033276750 -0.0440882543 -0.3796156601
0.0221591964 -0.1584423760 -0.4061968746
-0.0497251547 -0.1316205153 -0.3390157039
-0.0565476450 -0.0581328498 -0.3254746416
-0.0446354510 -0.0631135271 -0.3201652309
-0.0360928245 -0.1195871899 -0.4078540280
-0.0244039182 -0.1176658926 -0.3787209654
0.0323100724 -0.0878718170 -0.4140226687
-0.0087138063 -0.1000412812 -0.4179011618
-0.0139718868 -0.0999877437 -0.4076447463
-0.0096196118 -0.0659736720 -0.3515659582
0.0201542835 -0.1444576809 -0.4254663657
-0.0205854266 -0.1036403312 -0.3461238917
0.0085242653 -0.0965783990 -0.3497083758
0.0678263994 -0.1593675021 -0.3683590760
0.0399826179 -0.1644380003 -0.3454995276
-0.0347868971 -0.1257959379 -0.4156743579
0.0147423307 -0.0928188177 -0.3901634673
0.0319278866 -0.0621454293 -0.3463114310
-0.0367288110 -0.1175036939 -0.3934778145
0.0482345557 -0.1351188718 -0.4373524596
0.0611477904 -0.0641158745 -0.3636723161
0.0261039071 -0.0811991374 -0.3526811480
-0.0519906962 -0.1656877673 -0.3479998439
0.0393485136 -0.1656788697 -0.3654410346
-0.0734799494 -0.1335012026 -0.3525627203
-0.0687818073 -0.1185510554 -0.3688803898
0.0344834534 -0.0908182419 -0.3743844081
-0.0349502454 -0.0990337988 -0.3170997367
0.0684590690 -0.1564204331 -0.3956429052
-0.1099231827 -0.2068956440 -0.3115778603
0.0461710977 -0.1242648337 -0.3477296515
-0.0559054781 -0.0842815020 -0.3522847610
0.0181625346 -0.0516309777 -0.3587356780
-0.0439533484 -0.1142676563 -0.3423194938
0.0229095572 -0.1415423928 -0.3442923894
0.0950265900 -0.1256432068 -0.4006294988
0.0715799580 -0.1030330057 -0.3823237650
0.0661054684 -0.0534885159 -0.3795057519
0.0803170522 -0.0966845390 -0.3815579607
0.0635375076 -0.0593348163 -0.4178129685
0.0285765818 -0.1394871382 -0.4248678907
0.0527982696 -0.1003637299 -0.4318712941
0.0253237448 -0.0644287029 -0.3615330882
0.0609833533 -0.0982372486 -0.3683973288
-0.1340028912 -0.2047310321 -0.3078816992
0.0307223598 -0.1642819422 -0.3571248937
-0.0743196023 -0.0513896105 -0.3949617786
0.0106819927 -0.0995431908 -0.3465437333
0.0324544858 -0.1091232697 -0.4166996224
-0.0090037905 -0.1267851741 -0.3400898237
0.0785676364 -0.0686554379 -0.3834254346
0.0984324379 -0.0772506284 -0.3623156790
-0.0333439021 -0.0966738593 -0.3465553248
0.0588101710 -0.0559713737 -0.3380007027
0.0180733529 -0.0614572823 -0.3545246093
0.0296389170 -0.0486281433 -0.4141909146
0.0334690939 -0.1535655636 -0.4049042761
-0.0126892205 -0.1757159965 -0.3908452349
-0.1046007429 -0.0557496032 -0.4161272258
-0.0567925555 -0.1105759257 -0.3143842201
-0.0142776361 -0.1657600340 -0.3949780862
0.0281680212 -0.0458611341 -0.4009998128
-0.0661513492 -0.0973768168 -0.3793719532
0.0467728650 -0.1014893303 -0.3540236553
-0.0141863558 -0.1575076229 -0.3672014123
-0.0334935635 -0.1032943986 -0.3459622264
-0.0038944292 -0.0510523559 -0.3698003666
0.0040189349 -0.1067202234 -0.3440760721
0.0135287154 -0.0911534337 -0.4066065120
0.0293713357 -0.1041414298 -0.4212392207
0.0204783680 -0.1507380256 -0.3547293027
-0.0507481478 -0.1428020045 -0.3376464396
-0.0334277243 -0.1043153831 -0.3450995556
-0.0703567936 -0.1053989040 -0.3829701735
-0.0091032246 -0.1540867122 -0.4103985824
0.0357909108 -0.0806297826 -0.3481426914
0.0047488427 -0.1309832121 -0.4230860493
-0.0082927918 -0.1493909488 -0.4133217929
-0.1078062877 -0.0726366073 -0.4369457688
-0.0331904594 -0.0801608651 -0.4080135233
0.0005201646 -0.0804774484 -0.3182659005
-0.0362305129 -0.1061336758 -0.3425712299
0.0440202170 -0.0490453735 -0.4031708219
0.0605288841 -0.0984711809 -0.3618518491
0.0925582516 -0.1281219784 -0.3997848745
0.0950072358 -0.1048820013 -0.3793247100
0.0059672354 -0.0715401895 -0.3524950736
-0.0590983412 -0.0712372275 -0.3539947830
0.0266142930 -0.1040240553 -0.4151071695
-0.0292009210 -0.1611364354 -0.3922034124
-0.0295623123 -0.0926185223 -0.3923689681
-0.0438079259 -0.0502879681 -0.3843520186
-0.1312879039 -0.2277067848 -0.3084221892
-0.0634280603 -0.0997068904 -0.3243452862
0.0315967520 -0.1469407379 -0.3494838730
-0.0259425252 -0.0967785998 -0.3584067644
-0.0708355718 -0.1098584135 -0.3871398760
0.0492548398 -0.0845018889 -0.3542195269
0.0231664488 -0.1195410416 -0.3455514163
-0.0293849199 -0.1282956531 -0.3382331787
-0.0272239373 -0.0991434590 -0.3919589523
-0.0750195610 -0.1879159725 -0.3281511836
-0.0175583199 -0.0532084251 -0.3302191943
-0.0561376096 -0.0500206029 -0.3781209391
0.0530818655 -0.0578579898 -0.3485312994
0.0035926867 -0.1576047929 -0.3829019105
0.0292844288 -0.1020370178 -0.4089317592
0.0825033966 -0.1296499893 -0.3866996997
0.0622675091 -0.1565085237 -0.3953528307
0.0126780009 -0.1207003807 -0.3488690515
-0.0036097555 -0.0866820163 -0.3208715519
0.0832291029 -0.0955591447 -0.3860316606
-0.0698499539 -0.0945857141 -0.3968448615
0.0479041980 -0.0562166258 -0.3608359056
0.0180419038 -0.1262908061 -0.4117531131
-0.0356241963 -0.1567839356 -0.3885843350
0.0909136689 -0.0870403911 -0.3742349764
0.0039016838 -0.0499857087 -0.3738474958
0.0163667692 -0.0823948216 -0.4245435914
-0.0512413952 -0.0737832206 -0.4129760431
-0.0279919612 -0.0879277635 -0.4142052185
-0.0562351525 -0.0992510791 -0.3416578015
0.0569774756 -0.0866359148 -0.3594069778
-0.0294930539 -0.0837469819 -0.3507463663
-0.0141332528 -0.0488299812 -0.3815570907
0.0287787908 -0.1611725051 -0.3344243870
-0.0530293439 -0.1037510786 -0.3271936535
-0.0673336616 -0.0718219678 -0.3664752772
0.0010780090 -0.1691765602 -0.4033373447
0.0140804660 -0.0592756903 -0.3377542664
0.0374812685 -0.1054308079 -0.3401456777
-0.0005827474 -0.0727900713 -0.4260782626
-0.0137589678 -0.0509555813 -0.3798868018
0.0202383961 -0.0593291006 -0.3906755912
-0.0286361170 -0.0844726692 -0.3497484880
-0.0391342797 -0.0551517251 -0.3567431431
-0.0358115866 -0.1468536189 -0.3344391693
0.0089180023 -0.0845183920 -0.3507267217
0.1020596891 -0.1408108322 -0.3837294860
0.0738433088 -0.0654268934 -0.4081137814
0.0167696380 -0.0872498461 -0.3501865134
0.0725092337 -0.0781216860 -0.3720701956
-0.0126090163 -0.1605191288 -0.3927707412
0.0119488869 -0.1627782872 -0.3939860218
0.0923669844 -0.0805758450 -0.3711641389
-0.0617718330 -0.0908308882 -0.4029081326
0.0310089036 -0.0467782778 -0.3887450411
0.0568964000 -0.1234758001 -0.4274978018
-0.0869256158 -0.1805981488 -0.3900068804
-0.0241372406 -0.0717916916 -0.3523964383
0.0830646228 -0.0881178105 -0.3530323624
-0.0334490608 -0.0958444052 -0.4206816868
0.0439552342 -0.0917481951 -0.3542449592
-0.0662806947 -0.1486867745 -0.3668612955
-0.0170790297 -0.0522341786 -0.3687469491
-0.0388743956 -0.1070893233 -0.3916483714
0.0539159128 -0.1158323449 -0.3511410111
0.0382894602 -0.0491784712 -0.3764399408
0.0293968770 -0.1627574250 -0.3538417794
0.0285515472 -0.0496372655 -0.3748481777
-0.0455767195 -0.1095457737 -0.4062358014
-0.0117840840 -0.1432239716 -0.3393605873
0.0352291548 -0.0482113589 -0.3762846394
0.0715527337 -0.1421371202 -0.4101638395
0.0598684326 -0.0837023807 -0.4195224824
-0.0122803569 -0.1029452683 -0.3895415452
-0.0665118047 -0.0497695094 -0.3871069180
0.0391062233 -0.0813558888 -0.4337643668
-0.0346314998 -0.1509815579 -0.3963105231
-0.0669389398 -0.1084091111 -0.3848393659
-0.0228568034 -0.0748654921 -0.4107956970
-0.0386051179 -0.0904055115 -0.3326589174
-0.0261304613 -0.1133962263 -0.3916762646
0.0688383430 -0.0563371518 -0.3769852084
-0.1307147801 -0.2139099973 -0.3293806371
0.0316260960 -0.0884545325 -0.3995108940
0.0172156309 -0.1694218200 -0.3659317309
-0.0371515608 -0.1212810046 -0.3268976156
0.0928688643 -0.1114765094 -0.4029975765
-0.0637393141 -0.1079414682 -0.3711246362
0.0471303535 -0.1217172252 -0.4239987431
-0.0536007536 -0.1277280235 -0.3317492898
0.0385288759 -0.0487461058 -0.3663846368
0.0516457623 -0.0841512145 -0.3561053320
0.0214581570 -0.0878580564 -0.3879468130
0.0104666027 -0.0983560984 -0.4064371663
-0.1048792745 -0.0550693686 -0.4212637933
-0.0543297592 -0.1567018627 -0.3485871322
-0.0157892922 -0.1055184236 -0.3256746991
-0.0198179760 -0.1216774501 -0.4157440186
-0.0312231710 -0.1643909933 -0.3926996264
-0.0389834973 -0.1321153273 -0.3366033051
0.0339063869 -0.0596413730 -0.3586947560
-0.1117305113 -0.1964468427 -0.3123981524
0.0754610139 -0.0710352009 -0.3788499966
0.0027596705 -0.0785784164 -0.4215575220
0.0533472945 -0.1177508443 -0.4423075103
0.0009689846 -0.1520197906 -0.3976329372
0.0364702600 -0.0714787068 -0.3592018769
-0.0275236920 -0.1298790407 -0.3252407372
-0.0408434755 -0.0480573964 -0.3766628148
0.0068563841 -0.1056782905 -0.4009896057
0.0635174541 -0.1514996977 -0.4054590721
-0.1023087198 -0.0302252646 -0.3723192324
0.0359858452 -0.1148736816 -0.4159350890
-0.0491955169 -0.0560716238 -0.3665661512
-0.0272737369 -0.1515813966 -0.4024923521
-0.0188261497 -0.1071458541 -0.3759796767
-0.0028944774 -0.0904785605 -0.3216122402
0.0677214613 -0.1408390496 -0.3504920389
0.0056006547 -0.0752324857 -0.4292564603
-0.0389795461 -0.0504757247 -0.3337155499
0.0636897510 -0.0875600322 -0.3222194685
-0.0157814175 -0.1116761453 -0.3457986116
0.0750027322 -0.1172268118 -0.3838244875
-0.0472023734 -0.0559024323 -0.3668412193
-0.0509829118 -0.0692885987 -0.3500858113
0.0195423827 -0.0910694840 -0.3884577727
-0.0019277107 -0.0873271829 -0.3135185966
-0.0418165490 -0.0949977429 -0.3898955688
0.0645762526 -0.0603831378 -0.3575826895
0.0611165591 -0.0426173046 -0.3910654534
0.0642907754 -0.0512700347 -0.3822591572
-0.0684645681 -0.1244043621 -0.3850698526
0.0650571734 -0.0526256561 -0.3815455735
-0.0723088093 -0.1424478941 -0.3667197767
-0.0390399967 -0.1460570546 -0.3954396819
-0.0383146706 -0.0628332222 -0.4048910373
-0.0586789337 -0.1095291326 -0.3695767889
-0.0136748673 -0.1309128031 -0.3387614191
0.0350909432 -0.0717980557 -0.3496976643
-0.0317816401 -0.0981391647 -0.3890592001
0.0685763279 -0.1245551292 -0.4221340657
-0.0129416527 -0.1345416750 -0.3396585303
-0.0690653626 -0.1036463005 -0.4014560263
0.0505811571 -0.0444764573 -0.3897651084
-0.0316166675 -0.1664509286 -0.3380682299
-0.0323333835 -0.1623248640 -0.3359633709
0.0322289317 -0.0946951879 -0.3780574104
0.0253854106 -0.0550757445 -0.3264991881
-0.0681504585 -0.1679680404 -0.3792485576
-0.0357168639 -0.0686316349 -0.3914174341
0.0010341609 -0.1264774562 -0.3414535481
-0.0788105596 -0.0938440958 -0.3705923412
0.0113900704 -0.1627400953 -0.3314122947
0.0228638634 -0.0454258540 -0.3999230658
0.0132934801 -0.0513536641 -0.3586901251
-0.0613045245 -0.0652239546 -0.3602332771
0.0586688965 -0.1650024834 -0.4060595010
0.0339498849 -0.0466930247 -0.3870613060
-0.1747216328 -0.0939273265 -0.4549175624
0.0408240530 -0.1076997520 -0.3425938394
0.0610031595 -0.1402961512 -0.3552911991
0.0256944913 -0.0768016949 -0.3504076302
0.0404195845 -0.0495717615 -0.4026403365
-0.0325573566 -0.1217611100 -0.3925281214
0.0359970979 -0.1664913943 -0.3680847733
-0.0443893703 -0.0860978887 -0.4114689746
0.0262542199 -0.1141678318 -0.3453022540
-0.0583454900 -0.1647183570 -0.3979444884
0.0764269517 -0.0969896315 -0.4001684275
-0.0356295217 -0.1543143479 -0.4201201159
0.0306009773 -0.1447093700 -0.3976501170
-0.0234655898 -0.0948635333 -0.3915760557
0.0413604444 -0.1436597866 -0.4068713173
0.0639979836 -0.1477806356 -0.4071655079
0.0257405653 -0.1074068434 -0.3884193393
-0.0051408716 -0.1500184112 -0.3357904093
0.0343744120 -0.1030777061 -0.4173424155
0.0766685257 -0.1055443731 -0.3611267108
-0.0617510692 -0.0966802029 -0.3635106430
0.0585875064 -0.1435815168 -0.4143810024
-0.1210235512 -0.0990933380 -0.4394516536
-0.0092790598 -0.0893016217 -0.3491144441
0.0601665698 -0.0516098231 -0.3723746513
0.0802552698 -0.0866068174 -0.3506138926
-0.1263347285 -0.1706138406 -0.2946999536
0.0240331696 -0.0438648142 -0.3897010242
0.0025576149 -0.1704297202 -0.3725382319
-0.0337531841 -0.1191726776 -0.3429735235
0.1243248575 -0.1216795139 -0.3671701214
0.0667375847 -0.1471257607 -0.4681860851
-0.0630065210 -0.1143464625 -0.3970820945
-0.1659192648 -0.0543428197 -0.4508902126
0.0285975879 -0.0930431489 -0.4223052824
0.0210300256 -0.1296246145 -0.3421983125
0.0033464311 -0.1562892387 -0.3743413984
-0.0212991734 -0.1073371072 -0.3800484835
-0.0182878978 -0.0548734103 -0.3522050612
0.0266416754 -0.1435367631 -0.4073927574
-0.0655944423 -0.1032920056 -0.3931169159
-0.0362741526 -0.0539022375 -0.3719066597
-0.0224810743 -0.1475856291 -0.3354992054
0.0489690931 -0.1240866888 -0.3477595563
-0.0630712077 -0.1590802209 -0.3682819788
-0.0172818736 -0.0952415527 -0.3203356448
0.0664888798 -0.1614476072 -0.3711774788
0.0751235635 -0.0598402833 -0.3850919101
-0.0389965482 -0.0593640259 -0.3856967153
0.0121363844 -0.1207999529 -0.3333327770
-0.1710856304 -0.1603490194 -0.4288681833
0.0259328986 -0.0675761761 -0.3345546676
-0.0215699465 -0.0893710195 -0.3476836712
-0.0155056938 -0.1042025523 -0.3821415885
0.0164096466 -0.1000678750 -0.4079381004
-0.0371272898 -0.1335664608 -0.3357001241
-0.0965260941 -0.2245640269 -0.3464855822
0.0639119837 -0.1389108352 -0.3514620292
-0.0308369054 -0.1058595922 -0.4018814063
-0.0197498856 -0.1012792611 -0.3439183969
0.0234712295 -0.1319965085 -0.3442565889
0.0870173277 -0.0609479971 -0.3653949449
-0.0421377393 -0.0558300524 -0.3638204326
-0.0573867109 -0.1490492773 -0.3414463925
-0.0142288619 -0.0765415578 -0.3502484280
-0.0414220416 -0.0548999300 -0.3671954991
0.0252525397 -0.0731500932 -0.3285627501
0.0752410592 -0.1577665006 -0.3789619201
0.0029125788 -0.0700929713 -0.3268197889
0.0008249916 -0.0944567187 -0.3488135215
-0.0730193693 -0.1298338095 -0.3414239440
-0.0219748171 -0.0538310294 -0.3859888379
-0.0818611639 -0.1518215057 -0.2853352289
-0.0335915127 -0.0869028557 -0.3475279919
0.0205968468 -0.0507277122 -0.3617928356
-0.0093396977 -0.1093275497 -0.4088310804
-0.0601436551 -0.1133037071 -0.3321887962
0.0749177941 -0.0827683735 -0.3706432857
0.0464276216 -0.0467019968 -0.3872351011
-0.1092291671 -0.1029686940 -0.4086831500
-0.0197172598 -0.1053112195 -0.3181113193
0.0196750823 -0.0496263787 -0.3740038271
0.0137443776 -0.0762177784 -0.4177515891
0.0346997744 -0.0972326114 -0.4243468985
-0.0364365729 -0.1141505453 -0.3426871838
-0.1029663985 -0.2237164351 -0.3131487078
-0.0651158812 -0.1469048566 -0.3985011834
0.0637158281 -0.1244471286 -0.3512412325
0.0552769071 -0.1411786753 -0.4203614319
0.0186046033 -0.0910991093 -0.4081807708
-0.0752383323 -0.0979947881 -0.3306165773
-0.0364867045 -0.1447537959 -0.3286913728
0.0405546541 -0.0495879440 -0.3697435800
0.0389437014 -0.1501323140 -0.4046736349
-0.0609909836 -0.1112518199 -0.3696394563
-0.0286687452 -0.0970722601 -0.3862160309
-0.0610432933 -0.1119760791 -0.3674012562
0.0839752474 -0.1315838520 -0.3959336991
-0.0437219432 -0.0969796168 -0.3463542659
0.0332076330 -0.0813551819 -0.3544139116
0.0236113186 -0.1513604522 -0.4230366849
-0.0514876678 -0.0519342957 -0.3795717551
0.0770958713 -0.0783112133 -0.3719262683
-0.0345969853 -0.0599465375 -0.4032416293
0.0134610053 -0.1191303333 -0.3467667699
0.0807005506 -0.0838760853 -0.3543943868
0.0481727617 -0.0483378448 -0.3716928312
-0.0281296562 -0.0863873340 -0.3912871278
-0.0133329789 -0.1028554714 -0.3542356639
0.0762066036 -0.1002563207 -0.3980977166
0.0235222154 -0.1539640447 -0.4053931623
0.0539435821 -0.1462343617 -0.3561071344
-0.0579257214 -0.0791989204 -0.4047799750
0.0134692119 -0.1195185498 -0.3446054347
0.0067516421 -0.0967572229 -0.3469650136
-0.0646374661 -0.0528183944 -0.3827754881
-0.0467421208 -0.1187636657 -0.3447059371
-0.0335311576 -0.0644235388 -0.3514402024
-0.0209044164 -0.0515071135 -0.3794846068
0.0733520091 -0.1259433470 -0.4232174676
-0.0928383717 -0.2081835524 -0.3306171042
-0.0780095200 -0.1343920171 -0.3696395735
0.0625908509 -0.0474348400 -0.3704116731
0.0487327181 -0.1580395989 -0.3959837381
0.0210502995 -0.0866293060 -0.3524002153
0.0104071083 -0.1067684453 -0.3948559509
0.0321264712 -0.0796316726 -0.3564587296
-0.0403457029 -0.1617711326 -0.3551752048
0.1204532136 -0.1236195263 -0.3668076405
-0.0368570767 -0.1094005893 -0.3928266989
0.0789799731 -0.1309133622 -0.3633141993
0.0270803030 -0.0909244514 -0.3353711461
0.0039284579 -0.1127479989 -0.3314948531
-0.0108207898 -0.1231291705 -0.3290183299
0.0152815899 -0.1636968175 -0.4001096199
-0.0268575522 -0.0732603060 -0.4006451119
-0.0751473401 -0.1391365873 -0.3762324405
0.0275661553 -0.1280837806 -0.4070514056
-0.0734657775 -0.1325062767 -0.3730122750
-0.0209428792 -0.1026957276 -0.3620807936
-0.0010040721 -0.1118361814 -0.3447127304
0.0619433485 -0.1292513907 -0.3514137268
0.0261490948 -0.0650027975 -0.3476474094
0.0345310191 -0.1040956764 -0.3927248042
0.0500440721 -0.1440900302 -0.4202473461
-0.0328979328 -0.1208758627 -0.4181833580
-0.0267250560 -0.1620686953 -0.3942622559
-0.0363849564 -0.0925851154 -0.4108194463
0.0713483595 -0.1073940148 -0.4101295989
0.0482725682 -0.0480149703 -0.3799952971
-0.0298334973 -0.1043107337 -0.4136342408
-0.0255542007 -0.1194710777 -0.3449342125
-0.0729974568 -0.1053619951 -0.3745829044
-0.0040089967 -0.0816624774 -0.3516032859
0.0271599784 -0.1082283094 -0.4172530368
-0.0147898793 -0.1001615341 -0.3712286468
0.0469422735 -0.1460045214 -0.4239261418
-0.0549162355 -0.0961825153 -0.3113230968
-0.0120849102 -0.1063277936 -0.3925062608
-0.0005170671 -0.1321405281 -0.4268123848
0.0154679646 -0.1194895644 -0.3430575430
0.0279612712 -0.0877279887 -0.4122227247
0.0282281379 -0.0703043714 -0.3305068691
0.0063044179 -0.1546041562 -0.4074612146
-0.0054764716 -0.1079151578 -0.4210720859
0.0385220745 -0.0971931373 -0.3663148226
0.0206375824 -0.1574259614 -0.3904609893
0.0865205929 -0.0991894864 -0.4153885176
-0.0027897842 -0.1116007888 -0.3472939811
-0.0751194191 -0.0777644034 -0.3936569831
-0.0207179288 -0.1486276148 -0.3970636417
-0.0587666091 -0.0880260791 -0.3389938409
-0.0155182007 -0.1373243697 -0.4146201392
0.0878661533 -0.1283980002 -0.3972598814
0.0033018880 -0.0771097347 -0.3519902448
0.0588207333 -0.0523875630 -0.4121705012
0.0382652544 -0.0685438421 -0.4266657610
-0.0295157885 -0.0542286018 -0.3835304413
0.0223580788 -0.1077457624 -0.4170714992
0.0629347295 -0.1093351771 -0.4303761164
0.0435838937 -0.1549927365 -0.3565532697
0.0082022093 -0.0504345231 -0.3670005006
0.0107496605 -0.0502695038 -0.3763769128
0.0358071048 -0.0931783194 -0.3376812935
-0.0413487150 -0.1162664265 -0.3346620872
0.0207847640 -0.1093815455 -0.3473999306
-0.0359003477 -0.1201078875 -0.3329242788
0.0359793868 -0.1361034381 -0.3446522475
-0.0257858611 -0.1377246654 -0.3973424127
-0.0230644856 -0.1185387083 -0.3443596366
-0.0566286706 -0.1134238936 -0.3587987177
0.0194722928 -0.0644445768 -0.3561532812
0.0529793694 -0.1278437348 -0.4391262492
-0.0943277068 -0.1852738693 -0.3424856267
-0.0410044295 -0.1001115797 -0.3430297859
0.0405539090 -0.0520481293 -0.3597211925
-0.0668969143 -0.0891229653 -0.4072479096
0.0458121074 -0.0793527681 -0.3568282429
0.0482679811 -0.1496646105 -0.3685142612
0.0929671180 -0.0718163813 -0.3885090966
0.0849772224 -0.0650724734 -0.3762090912
0.0233338967 -0.1089563509 -0.3469049268
0.0726905463 -0.1418125604 -0.4067950489
-0.0087106660 -0.0514508100 -0.3765680955
0.0185859123 -0.1501514911 -0.4093716000
-0.0323541344 -0.1076377671 -0.3626847610
-0.0547937360 -0.0925533103 -0.4106788496
-0.1374259647 -0.2249741264 -0.3459192048
0.0304332773 -0.0582633146 -0.4233721861
0.0090613808 -0.1635188109 -0.3429750255
-0.0567250346 -0.1140059910 -0.3573975123
-0.0272624409 -0.1056096233 -0.3964190063
0.0979249316 -0.1087647023 -0.3797460244
-0.0031918635 -0.0920448835 -0.3270126085
-0.0412422340 -0.1292274449 -0.4145337164
-0.0181966821 -0.1134152094 -0.4148297665
-0.0572708412 -0.1638109191 -0.3748550885
0.0105241819 -0.1045908376 -0.3918595380
0.0293478227 -0.1115326615 -0.3492096448
-0.0310633336 -0.0942157296 -0.3062706885
-0.0113647969 -0.0992899478 -0.3475170494
0.0285109353 -0.1112681090 -0.3517362412
0.0797454665 -0.1304211341 -0.3668082698
0.0627512922 -0.1507028172 -0.3552587952
0.0371224974 -0.1457772569 -0.3946749127
0.0147030549 -0.1363430610 -0.3435015222
-0.0202626001 -0.1340355303 -0.3363290943
-0.0514954294 -0.1373630455 -0.3384664725
-0.0750158895 -0.1231820237 -0.3854305185
0.0007643002 -0.1173110062 -0.3443409230
0.0110610669 -0.1031158307 -0.4135562742
-0.0653741379 -0.1400042669 -0.3947378876
0.0149142762 -0.0972903063 -0.3819937351
-0.0111780903 -0.1423154329 -0.4150445985
-0.0487459384 -0.1116747890 -0.3370556497
0.0363260978 -0.0868434081 -0.3212798396
0.0394254502 -0.0807862100 -0.3259952720
0.0873106102 -0.0701725108 -0.4026752376
0.0075086643 -0.1543138176 -0.3542047647
0.0330529517 -0.0951829369 -0.3619344198
0.0272010774 -0.1614907296 -0.3502838717
0.0439886563 -0.0539847730 -0.3598525914
0.0351885283 -0.1423499230 -0.3883798126
-0.0672374116 -0.1270008636 -0.3609628445
0.0021579533 -0.0736188114 -0.3579008900
-0.0647043476 -0.0750305987 -0.4065286471
0.0803923071 -0.1214312375 -0.3829431143
-0.0023583849 -0.1458757801 -0.3416402290
0.0467439224 -0.0456939822 -0.3913504316
0.0234300979 -0.1476842957 -0.4112908215
0.0836615866 -0.0974854993 -0.3420699553
0.0219775386 -0.0783703461 -0.3430335927
-0.0591866336 -0.1598176104 -0.3782572567
0.0143093371 -0.1043051815 -0.3486527161
0.0238158023 -0.0546978238 -0.3540413470
0.0187433102 -0.1599997985 -0.3692261295
0.1101955222 -0.1112625161 -0.3801443655
0.0630347504 -0.1283181695 -0.4266245008
0.0187614019 -0.0845667912 -0.3515982306
0.0434821945 -0.0526463265 -0.4074063602
0.0698062418 -0.1195747835 -0.4207676677
0.0116816798 -0.0793290986 -0.3511608573
0.0043249543 -0.0504675731 -0.3696586788
-0.0497654508 -0.1395412566 -0.3921279239
-0.0468940227 -0.1185021847 -0.4038911841
