-0.1130779125 -0.0661116503 -0.4154157937
-0.1288311572 -0.0313059230 -0.4278614555
-0.0484317042 -0.0576779459 -0.4582546768
-0.0905980668 -0.0574980994 -0.4311946289
-0.0393454490 -0.0661101100 -0.4590146471
-0.1033050868 -0.0922637950 -0.4183324631
-0.0759131929 -0.0598923596 -0.4407793412
-0.1056793474 -0.0819981752 -0.4109010206
-0.1170611804 -0.0750498060 -0.4063235965
-0.0350441599 -0.0798659768 -0.4564427236
-0.0538150885 -0.0738995166 -0.4432632030
-0.0620541207 -0.1026899920 -0.4381723448
-0.1031536534 -0.0917126685 -0.4174113274
-0.0445322865 -0.0751489341 -0.4459278033
-0.0832002273 -0.0794240871 -0.4260700079
-0.1231386600 -0.0376659916 -0.4245641506
-0.0836495048 -0.0626390496 -0.4352235268
-0.1260367738 -0.0875643113 -0.4109434730
-0.1408225737 -0.0194791765 -0.4289248124
-0.0473723511 -0.0922661394 -0.4347047420
-0.1305765776 -0.0747157226 -0.4038944365
-0.0546578418 -0.0761587336 -0.4427892893
-0.0952377996 -0.0625862810 -0.4261303425
-0.0300515574 -0.0681101857 -0.4623615577
-0.0579151288 -0.0913306400 -0.4330729544
-0.0885371449 -0.0970832970 -0.4269427284
-0.0734507897 -0.0866267414 -0.4279475085
-0.1471611795 -0.0259267165 -0.4309108130
-0.0706186401 -0.0824477020 -0.4340787263
-0.0379733573 -0.0577892256 -0.4750207521
-0.1237569690 -0.0368956362 -0.4211853544
-0.0452935030 -0.0847026545 -0.4374765765
-0.0904029874 -0.0671044501 -0.4263398954
-0.0757898652 -0.1035584258 -0.4374862865
-0.0420544860 -0.0914982766 -0.4523944596
-0.0481993902 -0.0639497783 -0.4536250086
-0.0936634062 -0.0980823789 -0.4271624629
-0.1316089652 -0.0570090466 -0.4128277864
-0.0699321198 -0.0923428848 -0.4278691391
-0.1006754996 -0.0195646818 -0.4404361541
-0.0648391341 -0.0353413524 -0.4531354636
-0.1026890991 -0.0567022284 -0.4258245944
-0.1065251137 -0.0926556686 -0.4183124615
-0.0554225972 -0.0512385762 -0.4527663640
-0.0953330807 -0.0924827345 -0.4165347666
-0.0884705028 -0.0511933119 -0.4378594600
-0.0684660424 -0.0693088765 -0.4389870334
-0.0614679773 -0.0847973108 -0.4351624964
-0.1408341974 -0.0249503991 -0.4267757088
-0.0485927477 -0.0495486450 -0.4694329737
-0.0395718194 -0.0533610964 -0.4677946552
-0.1264460623 -0.0144124470 -0.4291904187
-0.0527404762 -0.0920766886 -0.4382862694
-0.0975373144 -0.0790264756 -0.4215659251
-0.0433906099 -0.0826896886 -0.4411782655
-0.0517969417 -0.0887517311 -0.4373480696
-0.1131474959 -0.0177667657 -0.4528066765
-0.0888671781 -0.0358213880 -0.4414563187
-0.1030401707 -0.0223320754 -0.4544262079
-0.1296900217 -0.0913598302 -0.4147386301
-0.1535575469 -0.0770372931 -0.4121412062
-0.0931650167 -0.0638161227 -0.4260508013
-0.1411122890 -0.0560301222 -0.4151489003
-0.0907884112 -0.0545846181 -0.4294241797
-0.0787874188 -0.0436869745 -0.4442142791
-0.0984817792 -0.0853137636 -0.4158338071
-0.0978791955 -0.0323825480 -0.4370390640
-0.1106272774 -0.0492243737 -0.4231859173
-0.1112321044 -0.0608444574 -0.4226714825
-0.0989874867 -0.0778517181 -0.4200355808
-0.0349507361 -0.0581710632 -0.4647221962
-0.0383732365 -0.0687703128 -0.4590860017
-0.1300981088 -0.0249206353 -0.4268478806
-0.0951512334 -0.0683193853 -0.4182099546
-0.1405134689 -0.0452993068 -0.4256503580
-0.0922267113 -0.0424281920 -0.4383768735
-0.0573312103 -0.0905813732 -0.4355589491
-0.0993849248 -0.0803497157 -0.4193173741
-0.1003210127 -0.0321125565 -0.4366339602
-0.0429951355 -0.0869404721 -0.4511363552
-0.0494196236 -0.0934639802 -0.4353885963
-0.1157925728 -0.0553316177 -0.4188243090
-0.0601924640 -0.0797041801 -0.4355053669
-0.1057309484 -0.0877454676 -0.4135548611
-0.1184811488 -0.0305015517 -0.4267476518
-0.0926592298 -0.0510634778 -0.4331885690
-0.0962440325 -0.0603077260 -0.4277295532
-0.1287688923 -0.0841388855 -0.4070386810
-0.0839604519 -0.0488303605 -0.4348433509
-0.1032713279 -0.0696670264 -0.4174440205
-0.0635454478 -0.0873895251 -0.4330300089
-0.0730395634 -0.0892769310 -0.4254031571
-0.1133287959 -0.0724436690 -0.4109752053
-0.0871292070 -0.0991175787 -0.4310665218
-0.0920004562 -0.0244951932 -0.4534351493
-0.0506160819 -0.0520898919 -0.4575003202
-0.0807811103 -0.0334231928 -0.4641635878
-0.0393367997 -0.0718037194 -0.4515809366
-0.0888303062 -0.0422713294 -0.4396897968
-0.1008276177 -0.0577373135 -0.4255796164
-0.0670810774 -0.0291537781 -0.4473899697
-0.1079710975 -0.0474989100 -0.4240899047
-0.0841136240 -0.0428335174 -0.4411973835
-0.0661566205 -0.0856652622 -0.4311904944
-0.1207797215 -0.0575502515 -0.4146888889
-0.1135921273 -0.0271616283 -0.4315795059
-0.0558966767 -0.0703247077 -0.4411324314
-0.1331769526 -0.0346377790 -0.4232554734
-0.0818341333 -0.0992058557 -0.4313327933
-0.1155814597 -0.0525573345 -0.4206046526
-0.1271658822 -0.0389361852 -0.4199560911
-0.1161117808 -0.0504589751 -0.4186514816
-0.0506702717 -0.1025983973 -0.4381530975
-0.0367172457 -0.0580926960 -0.4524167094
-0.1181646958 -0.0376833101 -0.4238622930
-0.1152024146 -0.0443600436 -0.4229221360
-0.0858215190 -0.0917468520 -0.4213516789
-0.1116735844 -0.0687185635 -0.4189613692
-0.0629477214 -0.1006741833 -0.4348586912
-0.0853912915 -0.0368834718 -0.4394953595
-0.0532502918 -0.0745114042 -0.4414593836
-0.0612464762 -0.0670898986 -0.4414442366
-0.0293311385 -0.0723842322 -0.4623102119
-0.0673763944 -0.0371000387 -0.4630322421
-0.0491792526 -0.0449615615 -0.4560020080
-0.1280995227 -0.0513900597 -0.4185202336
-0.1332021445 -0.0292002642 -0.4249749563
-0.1140899226 -0.0452613194 -0.4273498014
-0.0854420661 -0.0261849648 -0.4545310306
-0.1054981833 -0.0473582930 -0.4261176315
-0.0794297159 -0.0601700060 -0.4370125234
-0.0883601196 -0.0274667181 -0.4463289902
-0.1136725904 -0.0141627194 -0.4383348223
-0.1255457724 -0.0502105145 -0.4167864052
-0.0979407103 -0.0757632762 -0.4213259376
-0.0805904423 -0.0347020232 -0.4410064480
-0.0627802974 -0.0493697750 -0.4507570397
-0.1008048163 -0.0791853038 -0.4161178208
-0.0602572318 -0.0599357166 -0.4436435905
-0.0807779787 -0.0827076569 -0.4238218861
-0.0837302845 -0.0793618956 -0.4283514786
-0.0810753337 -0.0903589583 -0.4216725236
-0.0558144016 -0.0843490634 -0.4330240430
-0.1128703489 -0.0323503767 -0.4274739902
-0.1052938472 -0.0268130253 -0.4355524515
-0.0955903507 -0.0327782527 -0.4388998540
-0.0414795916 -0.0955993438 -0.4472708356
-0.1381338634 -0.0849715662 -0.4087954795
-0.0730983512 -0.0404840710 -0.4483832679
-0.1362536162 -0.0681132746 -0.4048833276
-0.0757430477 -0.0573536798 -0.4414575957
-0.1024459231 -0.0693989766 -0.4202804538
-0.0434720796 -0.0832567832 -0.4590192840
-0.1370907277 -0.0411906466 -0.4229082763
-0.1495084712 -0.0850156201 -0.4147593677
-0.1126202885 -0.0126904613 -0.4335484503
-0.0572213160 -0.0463524259 -0.4684127322
-0.1132243932 -0.0192813119 -0.4334795265
-0.1258939409 -0.0426148407 -0.4192814928
-0.0705814603 -0.0753134117 -0.4344423659
-0.0377160572 -0.0806667035 -0.4472722222
-0.0467892877 -0.0804243920 -0.4428369453
-0.1156633887 -0.0480902610 -0.4195355454
-0.1147547313 -0.0654216033 -0.4150488155
-0.0325639644 -0.0737443542 -0.4605309302
-0.1027076978 -0.0245400423 -0.4392629888
-0.1305686533 -0.0325290151 -0.4216493964
-0.0332040300 -0.0622493569 -0.4713669888
-0.0539571056 -0.0587112335 -0.4466284385
-0.1536073816 -0.0698645141 -0.4107945282
-0.0448019448 -0.0989087632 -0.4413105295
-0.1090809773 -0.0239338197 -0.4398326732
-0.0491446623 -0.0677119933 -0.4461264712
-0.0711503177 -0.1000143360 -0.4334265695
-0.0478378965 -0.0899134274 -0.4387225094
-0.0597350709 -0.1028586017 -0.4386482305
-0.0448356523 -0.0621400956 -0.4575432058
-0.0695441164 -0.0321879118 -0.4516771251
-0.1031261980 -0.0697396467 -0.4189114521
-0.1250992467 -0.0401271420 -0.4219286839
-0.1228977478 -0.0847323337 -0.4086647172
-0.1239760353 -0.0896000524 -0.4142890799
-0.0313168549 -0.0654014571 -0.4709240710
-0.1062300899 -0.0202963976 -0.4369583465
-0.1050912262 -0.0644953445 -0.4229738499
-0.1325369239 -0.0667249660 -0.4080133431
-0.0711307079 -0.0552193353 -0.4445624626
-0.1354645343 -0.0675609871 -0.4058843548
-0.1046478862 -0.0984108189 -0.4281320732
-0.0653970153 -0.0963247940 -0.4297267609
-0.0733411621 -0.0966509127 -0.4297535667
-0.0960848175 -0.0791913615 -0.4191294470
-0.1276058459 -0.0773341653 -0.4035887536
-0.1182059365 -0.0352700476 -0.4232286114
-0.0552327636 -0.0647136968 -0.4457248296
-0.0959583968 -0.0592971159 -0.4251681169
-0.1027635753 -0.0347002123 -0.4362073686
-0.0332442774 -0.0709333562 -0.4630147590
-0.0563290324 -0.0846261709 -0.4368846205
-0.1181744328 -0.0591756314 -0.4165262200
-0.0503755269 -0.0696916460 -0.4422817666
-0.1185584905 -0.0870039006 -0.4108783211
-0.1026770898 -0.0600617320 -0.4230036103
-0.0906502977 -0.0396046601 -0.4388158023
-0.0604167803 -0.0966843802 -0.4324214011
-0.0732037027 -0.0768917639 -0.4331792494
-0.1409712502 -0.0881881602 -0.4128722819
-0.1200151456 -0.0134851842 -0.4325802493
-0.0586060876 -0.0898967750 -0.4329007589
-0.1152891144 -0.0297237970 -0.4302003682
-0.0582870530 -0.0820934984 -0.4387692962
-0.0513802713 -0.0865046754 -0.4363570126
-0.1352574984 -0.0138055147 -0.4292001605
-0.1355242372 -0.0748541425 -0.4031446534
-0.0559721837 -0.0667512597 -0.4439352187
-0.1005778611 -0.0747619234 -0.4158812761
-0.1259104701 -0.0524744144 -0.4117742124
-0.1184780526 -0.0745570965 -0.4088165932
-0.1088198789 -0.0599755364 -0.4184702996
-0.0832644000 -0.0277051825 -0.4535448251
-0.0433641000 -0.0517287407 -0.4577680745
-0.0822614224 -0.0693887930 -0.4284793682
-0.1080268330 -0.0398113735 -0.4286862622
-0.0303565124 -0.0528049253 -0.4606252444
-0.1508027187 -0.0664582658 -0.4093313969
-0.0747974431 -0.0996950094 -0.4322322310
-0.1320192814 -0.0650795698 -0.4101657569
-0.1379153486 -0.0524998453 -0.4164927444
-0.0460983852 -0.0649685413 -0.4513119433
-0.0810929074 -0.0650267028 -0.4336696471
-0.0453620234 -0.0636657989 -0.4540791019
-0.0876595895 -0.0843775928 -0.4192294409
-0.0635542111 -0.0849842746 -0.4359672135
-0.0399681264 -0.0842351727 -0.4457369667
-0.0425188244 -0.0980437295 -0.4436891107
-0.0656286722 -0.0820291103 -0.4314392089
-0.0683879124 -0.0945584616 -0.4288355940
-0.1049811754 -0.0302552194 -0.4350238789
-0.1330857310 -0.0496870697 -0.4164972311
-0.0529111288 -0.0851290897 -0.4402089417
-0.1412684965 -0.0536170185 -0.4142932707
-0.1316345016 -0.0707398770 -0.4035922084
-0.1260913014 -0.0444341712 -0.4207265228
-0.0301227053 -0.0541535060 -0.4640619216
-0.0952877909 -0.0676748476 -0.4212129894
-0.0441540057 -0.0590834976 -0.4549978431
-0.0808599976 -0.0927711967 -0.4236114977
-0.0927839652 -0.0647318140 -0.4237793088
-0.0910954898 -0.0575674387 -0.4289706647
-0.1006196961 -0.0287939943 -0.4404806495
-0.1084681943 -0.0177168723 -0.4512646807
-0.1028087190 -0.0273059601 -0.4380420892
-0.1181485571 -0.0399424466 -0.4238478951
-0.1208659793 -0.0774129074 -0.4059816552
-0.0357684730 -0.0579770920 -0.4617258797
-0.0781920444 -0.0772952693 -0.4306650427
-0.0811609812 -0.0798121691 -0.4234880507
-0.1043895407 -0.0378045539 -0.4291504665
-0.0785351272 -0.0533238507 -0.4396624639
-0.0939229772 -0.0385056908 -0.4400232573
-0.0598524057 -0.0415327490 -0.4620216271
-0.1546458469 -0.0593226457 -0.4175887416
-0.1048043674 -0.0352891526 -0.4358379275
-0.0957762562 -0.0567592066 -0.4266775846
-0.1081276279 -0.0524307682 -0.4216249891
-0.1458209416 -0.0741314588 -0.4090676046
-0.0793494544 -0.0381585712 -0.4436740460
-0.0931545913 -0.0756994345 -0.4264154128
-0.1446932564 -0.0510609972 -0.4251293336
-0.0683370847 -0.0624731618 -0.4434505872
-0.1096888143 -0.0440249808 -0.4263430082
-0.1311000139 -0.0198242124 -0.4292184114
-0.1224384406 -0.0296007765 -0.4260011499
-0.0694295645 -0.0693109079 -0.4338127625
-0.1213158528 -0.0328307157 -0.4238932974
-0.0657434846 -0.0903776697 -0.4287196448
-0.1307654679 -0.0717168897 -0.4057733715
-0.0679975077 -0.0651834743 -0.4382830531
-0.1222741082 -0.0835488439 -0.4071005583
-0.1380082512 -0.0296319288 -0.4266933147
-0.0648836242 -0.0363603156 -0.4556394541
-0.1105151306 -0.0893228711 -0.4136239455
-0.1203367796 -0.0246765325 -0.4291284314
-0.0885817553 -0.0539602859 -0.4361541191
-0.0953864847 -0.0474982393 -0.4352632109
-0.0804900676 -0.0724647194 -0.4333406091
-0.0463931543 -0.1035195488 -0.4427141008
-0.0831542393 -0.0651229981 -0.4342128504
-0.0889251639 -0.0771425778 -0.4211520117
-0.1406911856 -0.0314633498 -0.4278657747
-0.0761598718 -0.0806614679 -0.4281512593
-0.0681275411 -0.0901293770 -0.4287758714
-0.0729193760 -0.0551360370 -0.4437258208
-0.1008110043 -0.0617115014 -0.4251186044
-0.0458151706 -0.0922987416 -0.4372805400
-0.1112116600 -0.0340424079 -0.4295730674
-0.1272566078 -0.0179086358 -0.4274443571
-0.1204299530 -0.0084681251 -0.4370042432
-0.0885120978 -0.0544472635 -0.4316405157
-0.0914112406 -0.0721237992 -0.4208395834
-0.0726808013 -0.0328699363 -0.4525317975
-0.1152823269 -0.0239961213 -0.4333357066
-0.0781798423 -0.0920504429 -0.4246679324
-0.0960930036 -0.0886603119 -0.4130718247
-0.0804945977 -0.0552781855 -0.4344299344
-0.0453663124 -0.0791453585 -0.4528143796
-0.1154360196 -0.0621396941 -0.4139514504
-0.1382641200 -0.0366687631 -0.4290346579
-0.1357827622 -0.0317261002 -0.4256645508
-0.0693662723 -0.0335217360 -0.4541926310
-0.0884359512 -0.0399023333 -0.4366372328
-0.0951395987 -0.0844109247 -0.4161590177
-0.1038809471 -0.0647043762 -0.4197360973
-0.0428127161 -0.0666018833 -0.4586852304
-0.1133548044 -0.0625559228 -0.4162087398
-0.0404966365 -0.0771892722 -0.4566169440
-0.0930854213 -0.0827801639 -0.4170126035
-0.0550774720 -0.0550344002 -0.4486697161
-0.1089027443 -0.0120448172 -0.4349704161
-0.0703027392 -0.0895630098 -0.4290963530
-0.1250498405 -0.0091084296 -0.4372535674
-0.1051444302 -0.0444879005 -0.4281712589
-0.0564702177 -0.0658007657 -0.4449101845
-0.0621897188 -0.0623271810 -0.4460400435
-0.0918995690 -0.0694530653 -0.4245163784
-0.0428424111 -0.0709772983 -0.4434545311
-0.0733188118 -0.0985288228 -0.4264638756
-0.1086208825 -0.0848787232 -0.4115311692
-0.0901453823 -0.0713443570 -0.4295567274
-0.1229265698 -0.0269413696 -0.4266239950
-0.0343234861 -0.0765788110 -0.4593599340
-0.1211695892 -0.0291648565 -0.4239721046
-0.1234452666 -0.0544424334 -0.4137907052
-0.0498775149 -0.0694313098 -0.4521865534
-0.1230315775 -0.0220815231 -0.4289324556
-0.0542650968 -0.0847416520 -0.4389484823
-0.1165735769 -0.0772969288 -0.4070088227
-0.0828425012 -0.0566199406 -0.4360558364
-0.0657277021 -0.0821185584 -0.4364791268
-0.0769122383 -0.0708344755 -0.4345781557
-0.0934021398 -0.0614576079 -0.4286699295
-0.0534002680 -0.0719313365 -0.4443211847
-0.0927768390 -0.0539711200 -0.4327398914
-0.0731170008 -0.0953981401 -0.4243107011
-0.1189842676 -0.0545465190 -0.4161473894
-0.0676574744 -0.0668453798 -0.4413342923
-0.0960394257 -0.0925630918 -0.4206996686
-0.0843563356 -0.0408789867 -0.4422508314
-0.0742564754 -0.0448414428 -0.4447991866
-0.0561323683 -0.0426240636 -0.4616726933
-0.1316959818 -0.0731856697 -0.4020935185
-0.0539083357 -0.0770213635 -0.4393731191
-0.1231827156 -0.0062623679 -0.4408032915
-0.0932454318 -0.0847157687 -0.4167206138
-0.0606057595 -0.0804457104 -0.4390125789
-0.0685081337 -0.0848457087 -0.4318000688
-0.1402770682 -0.0868532420 -0.4112021202
-0.1532740479 -0.0677120528 -0.4115971015
-0.1210142975 -0.0543551327 -0.4162547703
-0.1112496103 -0.0138756081 -0.4362672498
-0.1183202279 -0.0497076502 -0.4191705214
-0.0930138208 -0.0361002005 -0.4411484198
-0.0633232307 -0.0825144480 -0.4320655363
-0.0940315879 -0.0218177537 -0.4445993161
-0.0678517130 -0.0443251881 -0.4468433963
-0.1499737830 -0.0574786050 -0.4150228023
-0.1095178053 -0.0788690299 -0.4100168645
-0.1159179881 -0.0199741060 -0.4334963262
-0.0637752455 -0.0541308260 -0.4458702384
-0.1116202342 -0.0934783770 -0.4186535987
-0.1240601517 -0.0932078159 -0.4200614250
-0.1277311447 -0.0263538054 -0.4262910277
-0.1368972780 -0.0626612956 -0.4100004058
-0.1204886701 -0.0300945112 -0.4258643437
-0.0732261007 -0.0463210562 -0.4392909001
-0.1364309012 -0.0161892028 -0.4326253110
-0.1454268094 -0.0785372200 -0.4090299391
-0.1036011353 -0.0505353473 -0.4241903573
-0.1393668812 -0.0797765988 -0.4073601793
-0.1435308649 -0.0153321493 -0.4319992353
-0.0449857153 -0.0878211848 -0.4535119210
-0.0859828741 -0.1026506707 -0.4360296894
-0.1391449124 -0.0476755723 -0.4221934676
-0.1041130256 -0.0938477926 -0.4207122239
-0.0938459174 -0.0773834326 -0.4221841574
-0.0928519734 -0.0671960081 -0.4236262987
-0.0936478558 -0.0927828396 -0.4209568419
-0.1404844316 -0.0475493455 -0.4248346106
-0.1233933480 -0.0718054596 -0.4067022686
-0.1059505095 -0.0666630151 -0.4186541580
-0.0930688799 -0.0698103900 -0.4215265136
-0.0916823749 -0.0236847855 -0.4447532659
-0.0802390436 -0.0486900269 -0.4406088012
-0.1155349282 -0.0158252601 -0.4509178972
-0.1424921526 -0.0509111677 -0.4238932177
-0.0292718214 -0.0741147536 -0.4658877115
-0.1187240705 -0.0816608295 -0.4071753323
-0.0957324291 -0.0715952085 -0.4221801559
-0.1026911333 -0.0838606206 -0.4101333016
-0.1268840131 -0.0092918729 -0.4477919199
-0.1052342092 -0.0844499168 -0.4116268299
-0.0382603850 -0.0601671437 -0.4666994640
-0.0607360073 -0.0818876391 -0.4330010343
-0.0704928160 -0.0921419024 -0.4261569342
-0.0854821179 -0.0646403654 -0.4310449473
-0.0511948965 -0.0637480526 -0.4486785557
-0.0882746459 -0.0491385820 -0.4357811327
-0.0310199184 -0.0706393740 -0.4601995824
-0.1249994205 -0.0420193097 -0.4174217515
-0.1058768754 -0.0624122346 -0.4184110661
-0.0396092983 -0.0515565299 -0.4623365407
-0.1403421837 -0.0523313649 -0.4184180532
-0.0430965120 -0.0870402796 -0.4409074878
-0.0625036455 -0.0600916483 -0.4461339728
-0.0879738458 -0.0520231926 -0.4342285030
-0.0456340206 -0.0849652571 -0.4398072770
-0.0902930193 -0.0318110131 -0.4391678952
-0.0417146998 -0.0600024599 -0.4580506516
-0.0563462765 -0.0877237398 -0.4331245313
-0.1170832818 -0.0097811523 -0.4441761234
-0.0610351256 -0.0997480190 -0.4342149250
-0.0705704320 -0.0410054566 -0.4464805820
-0.1355223926 -0.0221388495 -0.4289253318
-0.1224155979 -0.0773968823 -0.4042837562
-0.1377102892 -0.0503628757 -0.4185462050
-0.1285570645 -0.0219494688 -0.4268149638
-0.0526914165 -0.0998144965 -0.4364630173
-0.1249660030 -0.0738176033 -0.4076658785
-0.0878013404 -0.0898428052 -0.4209502080
-0.1057813755 -0.0564991939 -0.4252592678
-0.0331315072 -0.0653243027 -0.4558450689
-0.1429800300 -0.0647224154 -0.4058682764
-0.1259808391 -0.0420395620 -0.4209521413
-0.0317883103 -0.0702744794 -0.4671741281
-0.0594494145 -0.0749796726 -0.4396622959
-0.1110258919 -0.0195321818 -0.4378679487
-0.1045688565 -0.0693761380 -0.4202277550
-0.1121782932 -0.0684931013 -0.4153045641
-0.0908378972 -0.0516770775 -0.4319212278
-0.0882195924 -0.0866087137 -0.4208314147
-0.1263087740 -0.0720044201 -0.4085671604
-0.1383701190 -0.0195530718 -0.4281544983
-0.0682472666 -0.0722569207 -0.4385087110
-0.0773773326 -0.0339700668 -0.4634585873
-0.0484071573 -0.0745679187 -0.4460330767
-0.0588400897 -0.0586941307 -0.4458453282
-0.0812750751 -0.0563136808 -0.4407013278
-0.0328345974 -0.0667810075 -0.4533632809
-0.1265121465 -0.0722462802 -0.4057313294
-0.1233388143 -0.0323375908 -0.4239170694
-0.0370965619 -0.0618823593 -0.4686034026
-0.0431434021 -0.0853157846 -0.4407524547
-0.1183867032 -0.0371602140 -0.4253521462
-0.1243146204 -0.0325368256 -0.4213487498
-0.0856574826 -0.0445656018 -0.4396325192
-0.1284064767 -0.0319230799 -0.4227659789
-0.0583056143 -0.1080719982 -0.4457468540
-0.0842660254 -0.1000708231 -0.4319732760
-0.0857516858 -0.0771382219 -0.4241439445
-0.1455893150 -0.0683837849 -0.4079387527
-0.0439671766 -0.0796316042 -0.4487046718
-0.0702062763 -0.1022295386 -0.4369943063
-0.1262313870 -0.0170964035 -0.4280750978
-0.0264907287 -0.0740485622 -0.4711561973
-0.1184173131 -0.0525411063 -0.4164901007
-0.0533038209 -0.0567624650 -0.4489084941
-0.0942110327 -0.0232350507 -0.4531629200
-0.0958964365 -0.0453698210 -0.4366605309
-0.0575511315 -0.0756258708 -0.4402370544
-0.1062541716 -0.0375057946 -0.4295799903
-0.0524612423 -0.0561031559 -0.4536086947
-0.0908572066 -0.0671186400 -0.4284822452
-0.0826412700 -0.0768240978 -0.4308951744
-0.0858473861 -0.0521896809 -0.4359068346
-0.1233614486 -0.0201483937 -0.4301408172
-0.1168527738 -0.0355505574 -0.4248845544
-0.0467244350 -0.0757607635 -0.4425023235
-0.1301429014 -0.0639438025 -0.4079156590
-0.1453254143 -0.0806872564 -0.4102168694
-0.1181895994 -0.0196656985 -0.4331324112
-0.1257169143 -0.0676183015 -0.4072197594
-0.0546168462 -0.0424148416 -0.4575729110
-0.1059215424 -0.0403768890 -0.4294501862
-0.0648669641 -0.0637553188 -0.4406849853
-0.1335122322 -0.0718350532 -0.4033629165
-0.1095964105 -0.0962514808 -0.4238585293
-0.0368376980 -0.0564382276 -0.4570963843
-0.0405850668 -0.0986397304 -0.4473329400
-0.1125153506 -0.0822979281 -0.4093728460
-0.0766215516 -0.0338229120 -0.4470199213
-0.1276503455 -0.0293189499 -0.4262361894
-0.0344851276 -0.0583586704 -0.4719987072
-0.0781305629 -0.0722467173 -0.4338485037
-0.0831300983 -0.0278750448 -0.4458342965
-0.0880495661 -0.0671841824 -0.4285871956
-0.0800104162 -0.0896261162 -0.4232492641
-0.0685910646 -0.0677171311 -0.4386117996
-0.0595515130 -0.0559755080 -0.4473919206
-0.0931437283 -0.0864046286 -0.4181242553
-0.0908982530 -0.0886637196 -0.4163993597
-0.1307895692 -0.0363409007 -0.4250792010
-0.0913696033 -0.0788001410 -0.4197599076
-0.0450833639 -0.0481464070 -0.4563659254
-0.1186201651 -0.0172208127 -0.4338903837
-0.0836222226 -0.0669165994 -0.4253737831
-0.1128509154 -0.0649584445 -0.4159013995
-0.0587455206 -0.0678037483 -0.4404722471
-0.0901405963 -0.0938060196 -0.4157221149
-0.0708714531 -0.0721874246 -0.4365722459
-0.1175891086 -0.0852685794 -0.4119847715
-0.1031272306 -0.0700631602 -0.4145520098
-0.0859991780 -0.0397173764 -0.4408849028
-0.0802411394 -0.0332084767 -0.4446250113
-0.1103406401 -0.0670346617 -0.4161936360
-0.0981987602 -0.0693655994 -0.4210245055
-0.0554363075 -0.0819926577 -0.4404129166
-0.0431115546 -0.0771528589 -0.4590332622
-0.0480355497 -0.0975703132 -0.4366158573
-0.1160751674 -0.0292794884 -0.4288274530
-0.1563627535 -0.0698210074 -0.4135479028
-0.1366374940 -0.0200020242 -0.4299990833
-0.0668192759 -0.0363605167 -0.4480142730
-0.1310698688 -0.0446519330 -0.4183667898
-0.0953369470 -0.0362625657 -0.4386843241
-0.1206482124 -0.0813864880 -0.4060176006
-0.0891117230 -0.0524189658 -0.4321106374
-0.1131665185 -0.0475715768 -0.4207460309
-0.0433065939 -0.0801802427 -0.4399327683
-0.1072748996 -0.0137363467 -0.4463251594
-0.0706013783 -0.0884976204 -0.4249309698
-0.1158695133 -0.0695784957 -0.4115114167
-0.0904522457 -0.0466160197 -0.4381257407
-0.1349977404 -0.0523947123 -0.4139297158
-0.0562102624 -0.0620278772 -0.4462525478
-0.0418533407 -0.0553463489 -0.4748576414
-0.0913420320 -0.0656902716 -0.4267352819
-0.1308508143 -0.0220302213 -0.4282346666
-0.1084097037 -0.0719904124 -0.4142511164
-0.1447314247 -0.0596398041 -0.4052155763
-0.1284745657 -0.0671132515 -0.4089269849
-0.1265369849 -0.0912988969 -0.4154641042
-0.1348675908 -0.0247633161 -0.4271528510
-0.1306747943 -0.0418560952 -0.4200000465
-0.1301316175 -0.0267987167 -0.4258897238
-0.0603896007 -0.1013548569 -0.4374709942
-0.1084276902 -0.0493518195 -0.4270099387
-0.1037592111 -0.0216435156 -0.4383255992
-0.0530409340 -0.0772894507 -0.4427124526
-0.1167541863 -0.0227304236 -0.4354392215
-0.0359998369 -0.0699795141 -0.4572335238
-0.0334803467 -0.0719943856 -0.4549644083
-0.1366637021 -0.0104262602 -0.4361664330
-0.0761052497 -0.0300749985 -0.4468566398
-0.0828693439 -0.0698389095 -0.4251242726
-0.0484510552 -0.1007441572 -0.4369916265
-0.0427406344 -0.0882218622 -0.4557868465
-0.0475090317 -0.0798961397 -0.4412987090
-0.1332360096 -0.0694500115 -0.4060775712
-0.0942969508 -0.0599865112 -0.4266390055
-0.1005581234 -0.0190279174 -0.4459510443
-0.1430652905 -0.0598125636 -0.4062618355
-0.0463218740 -0.0460739450 -0.4576782099
-0.0458537028 -0.0989006321 -0.4371086596
-0.0958831749 -0.0254108205 -0.4434256215
-0.0800933573 -0.0274440375 -0.4439284087
-0.1059214324 -0.0572567160 -0.4210038284
-0.0739351699 -0.0841312425 -0.4329463928
-0.1343505846 -0.0109260473 -0.4340709098
-0.0503662853 -0.0940696555 -0.4365405898
-0.1160397750 -0.0748274229 -0.4084842637
-0.1083734706 -0.0197362706 -0.4381874253
-0.0685442170 -0.0516868083 -0.4448958411
-0.1256273237 -0.0814406999 -0.4035798816
-0.1182587837 -0.0163282846 -0.4349902607
-0.1202294448 -0.0795626988 -0.4059260744
-0.0747075640 -0.0365070178 -0.4463673948
-0.1299292578 -0.0095157527 -0.4426924271
-0.1031923470 -0.0392968476 -0.4335644960
-0.0835819766 -0.0919544883 -0.4214462340
-0.0577190030 -0.0435515586 -0.4639310645
-0.1434158189 -0.0545918320 -0.4169546479
-0.0659393427 -0.0401338361 -0.4657602866
-0.0421404217 -0.0478027902 -0.4634631405
-0.0502612536 -0.0936760501 -0.4325579727
-0.1267908976 -0.0119198078 -0.4290779607
-0.0345924455 -0.0515107213 -0.4539490978
-0.1353230309 -0.0430260343 -0.4229399814
-0.0636642929 -0.1070882825 -0.4452103003
-0.1425121069 -0.0237227962 -0.4288260822
-0.1003575025 -0.0649943294 -0.4234722566
-0.0768101236 -0.0605470215 -0.4362084272
-0.0692375302 -0.0769967884 -0.4337863326
-0.0775995711 -0.0891714441 -0.4240455573
-0.0818160549 -0.0826310739 -0.4198344946
-0.1230976468 -0.0697012386 -0.4090409505
-0.0516640319 -0.0483952805 -0.4579150643
-0.0701529684 -0.0396985957 -0.4487914631
-0.0586029167 -0.1003027024 -0.4353666145
-0.0479734676 -0.0721576584 -0.4431875639
-0.1207660334 -0.0650097258 -0.4086877511
-0.1184932831 -0.0503331104 -0.4170422628
-0.1007846647 -0.0345214471 -0.4342427861
-0.0880864686 -0.0792083331 -0.4265679716
-0.0719267631 -0.0591640921 -0.4369181010
-0.0533020518 -0.0837812741 -0.4374042830
-0.0914815751 -0.0289921782 -0.4397753483
-0.1407829374 -0.0272719357 -0.4262024164
-0.1206603539 -0.0834602712 -0.4075779803
-0.0299579360 -0.0732799395 -0.4594801845
-0.1229505963 -0.0398279503 -0.4209811654
-0.0892529562 -0.0203516837 -0.4474697709
-0.1114448685 -0.0164058795 -0.4376262669
-0.1072388980 -0.0135976008 -0.4412001286
-0.0966271233 -0.0423289739 -0.4358242989
-0.0604392745 -0.0393701049 -0.4521879097
-0.1273092453 -0.0357416248 -0.4231390901
-0.0709761222 -0.0697419835 -0.4370812339
-0.0885317467 -0.0774685751 -0.4241732695
-0.0429920221 -0.1005773825 -0.4456873272
-0.0929237281 -0.0719794109 -0.4237937530
-0.0974973429 -0.0268969308 -0.4615283458
-0.0410851469 -0.0536798110 -0.4710463151
-0.0785402786 -0.0802370826 -0.4272607603
-0.0904828906 -0.0545875896 -0.4309306294
-0.1190504375 -0.0921033184 -0.4169096904
-0.1383906935 -0.0416762129 -0.4267734636
-0.0808545531 -0.0875302352 -0.4237290481
-0.1514951995 -0.0710917583 -0.4108520280
-0.0856488629 -0.0600664878 -0.4340871862
-0.0946844173 -0.0893975735 -0.4188035843
-0.1149377901 -0.0300239249 -0.4336626859
-0.1132171554 -0.0798568978 -0.4084695504
-0.0468745898 -0.0737593086 -0.4511030236
-0.1278585345 -0.0698996062 -0.4086890817
-0.1350799043 -0.0366826642 -0.4259137486
-0.1186338268 -0.0478242234 -0.4173394293
-0.0425159548 -0.0617532862 -0.4497306217
-0.1406283187 -0.0697182133 -0.4065225027
-0.0442611607 -0.0823092636 -0.4470338486
-0.1063954171 -0.0151576109 -0.4405495056
-0.0337633504 -0.0620730101 -0.4738945190
-0.0942373946 -0.0449050553 -0.4338366389
-0.0997306947 -0.0499102706 -0.4306042781
-0.1133567113 -0.0245236176 -0.4333422568
-0.0776283180 -0.0425090605 -0.4415794771
-0.0605805839 -0.0922906596 -0.4357917552
-0.0890758445 -0.0639580171 -0.4266798607
-0.0388997352 -0.0739767190 -0.4543513537
-0.0882661901 -0.0602628496 -0.4308463633
-0.1154555875 -0.0139370976 -0.4360770492
-0.0676079270 -0.1014496426 -0.4347361139
-0.0670759752 -0.0925817341 -0.4301293492
-0.0896802764 -0.0262471728 -0.4421000311
-0.0335241558 -0.0669014337 -0.4643446246
-0.0653800669 -0.0769423730 -0.4315605348
-0.0457026551 -0.0905340073 -0.4560751456
-0.0909593478 -0.0913267769 -0.4186372012
-0.0495106634 -0.0553410433 -0.4556927988
-0.0870050564 -0.0581832007 -0.4297697842
-0.1255293518 -0.0371870449 -0.4222192040
-0.0766609742 -0.0576178535 -0.4365312451
-0.1435239707 -0.0687795772 -0.4093112232
-0.0705891194 -0.0844575284 -0.4335262029
-0.0545612760 -0.1018094484 -0.4385381027
-0.0780718663 -0.0508731454 -0.4416701069
-0.0781934954 -0.0642199587 -0.4362604705
-0.0538180161 -0.1040560125 -0.4410397039
-0.1153507267 -0.0317696978 -0.4282705286
-0.0933003393 -0.0734865265 -0.4215892083
-0.1254332589 -0.0813658623 -0.4075617003
-0.1276721038 -0.0248052143 -0.4282033092
-0.0428870017 -0.0753162691 -0.4608307280
-0.1068047067 -0.0222122986 -0.4589670833
-0.0423632717 -0.0505990222 -0.4607123592
-0.0960226767 -0.0624901727 -0.4240024015
-0.0742045261 -0.0485691784 -0.4428944869
-0.1464044375 -0.0566102132 -0.4135921571
-0.0773942830 -0.0938492291 -0.4220842264
-0.0995971337 -0.0244554300 -0.4430144131
-0.0998614413 -0.0763803347 -0.4196000641
-0.1342988558 -0.0886792186 -0.4132117891
-0.0638206914 -0.0440777112 -0.4513551118
-0.1027501607 -0.0731373396 -0.4143071907
-0.1317940880 -0.0488266202 -0.4107677433
-0.0403414348 -0.0641961010 -0.4601849243
-0.1397092162 -0.0571455906 -0.4133444774
-0.0954391114 -0.0842831063 -0.4139807014
-0.0559913796 -0.0652919642 -0.4509441442
-0.0898384843 -0.0626222146 -0.4262016353
-0.1307432804 -0.0674634772 -0.4056003850
-0.0927627741 -0.0473570926 -0.4384351519
-0.0934791118 -0.0749434493 -0.4241275042
-0.1448144363 -0.0522010590 -0.4236838987
-0.0960037087 -0.0653360715 -0.4216600971
-0.1410620529 -0.0675759375 -0.4060278822
-0.0588245301 -0.1045131796 -0.4405434040
-0.1074062829 -0.0870182800 -0.4127208991
-0.0418669401 -0.0804665975 -0.4500409103
-0.0854992382 -0.0793970525 -0.4216731340
-0.0880429315 -0.0926134588 -0.4218754069
-0.1245291412 -0.0565664306 -0.4119608484
-0.1241781452 -0.0154670117 -0.4293256336
-0.0917497809 -0.0254241474 -0.4585496734
-0.0894614201 -0.0207175619 -0.4447309348
-0.1167181170 -0.0469863101 -0.4173815539
-0.1016322881 -0.0889536330 -0.4136442242
-0.0777603170 -0.0661874120 -0.4385123727
-0.1438958829 -0.0429536065 -0.4307971045
-0.0954443797 -0.0220724908 -0.4501434848
-0.1120061076 -0.0449388551 -0.4283614387
-0.0328037380 -0.0698507464 -0.4523812063
-0.1114152744 -0.0451444723 -0.4217126667
-0.1071839104 -0.0642039900 -0.4206969319
-0.0855059366 -0.0283268239 -0.4580140049
-0.0782368331 -0.0823561031 -0.4285784576
-0.0588572579 -0.0475741472 -0.4549278138
-0.0678743701 -0.0417967256 -0.4476831059
-0.0827032185 -0.1012107412 -0.4340750445
-0.0382977577 -0.0608142794 -0.4633232821
-0.1282614817 -0.0873588943 -0.4108742925
-0.1018666252 -0.0253706761 -0.4397986829
-0.1178268619 -0.0243587377 -0.4309292292
-0.1491100341 -0.0760410652 -0.4101887047
-0.1377507746 -0.0337750725 -0.4259022474
-0.0373799305 -0.0664336018 -0.4615003579
-0.1454836577 -0.0670653507 -0.4049410522
-0.1076789004 -0.0833115985 -0.4090460059
-0.0462192988 -0.0708352141 -0.4525082757
-0.1358558506 -0.0725883464 -0.4041414142
-0.0530515908 -0.0509090636 -0.4547683470
-0.1321567446 -0.0401910357 -0.4198156893
-0.0528177861 -0.0612536318 -0.4516143003
-0.1036741153 -0.0961153199 -0.4227907983
-0.1062607548 -0.0748653664 -0.4138689176
-0.1097991396 -0.0284214583 -0.4297906161
-0.0756951028 -0.0477340871 -0.4410086389
-0.0374104459 -0.0601482526 -0.4782541575
-0.1153547460 -0.0181550062 -0.4319873134
-0.0923244080 -0.0192827012 -0.4447336658
-0.1149913371 -0.0547014736 -0.4204725325
-0.1385732897 -0.0860118540 -0.4102659948
-0.0738434029 -0.1041731874 -0.4389594571
-0.0856095142 -0.0670105373 -0.4291336802
-0.1129131628 -0.0271935039 -0.4332706968
-0.1275947009 -0.0617977407 -0.4094590401
-0.0964755304 -0.0699806251 -0.4215955585
-0.1327449179 -0.0195594321 -0.4301831126
-0.1046371711 -0.0628720990 -0.4164760380
-0.1439422946 -0.0863616303 -0.4124567370
-0.1435678126 -0.0888473913 -0.4149320679
-0.0823861034 -0.0885868931 -0.4234242413
-0.1408158730 -0.0599480434 -0.4065468425
-0.0941864739 -0.0604371651 -0.4302391426
-0.0983977020 -0.0772812441 -0.4162518084
-0.1430786297 -0.0537859054 -0.4190639351
-0.0828975741 -0.0975063529 -0.4288425378
-0.1105239677 -0.0250486165 -0.4370378908
-0.1242521256 -0.0058843646 -0.4374472647
-0.0708652576 -0.0346049751 -0.4507791563
-0.0561129563 -0.0630321445 -0.4442681103
-0.1011659496 -0.0359084718 -0.4365527966
-0.1006195652 -0.0368267463 -0.4340870579
-0.0496416160 -0.0749177405 -0.4396930214
-0.0925364870 -0.0729868270 -0.4264819777
-0.0461908511 -0.0829125298 -0.4413002715
-0.0770652369 -0.0774385014 -0.4336499108
-0.1282615079 -0.0244939839 -0.4261293759
-0.0695486653 -0.0438418961 -0.4502791027
-0.1227680230 -0.0073234730 -0.4337863840
-0.1039454197 -0.0271098367 -0.4363494600
-0.0984263644 -0.0247690845 -0.4444366097
-0.1277013688 -0.0218983130 -0.4281455499
-0.0600532220 -0.0452014202 -0.4532144327
-0.1236600131 -0.0248911735 -0.4267967492
-0.0393701553 -0.0600422587 -0.4549944960
-0.1150214150 -0.0266154077 -0.4325701255
-0.1171981675 -0.0209726673 -0.4351660086
-0.0829635864 -0.0573384066 -0.4402874526
-0.1551129951 -0.0670822215 -0.4133371059
-0.0313635556 -0.0535882356 -0.4682396195
-0.1018662890 -0.0191308144 -0.4491558837
-0.0379501493 -0.0560436244 -0.4617866963
-0.1294761366 -0.0137759633 -0.4308429164
-0.0912021728 -0.0798041436 -0.4237428515
-0.0788759574 -0.0825265425 -0.4264566985
-0.1358605474 -0.0718919635 -0.4055643380
-0.1225237139 -0.0921309179 -0.4176025265
-0.0520153867 -0.0612413802 -0.4476006682
-0.1232944155 -0.0736561009 -0.4075321432
-0.1114673535 -0.0588132804 -0.4169018114
-0.1400167821 -0.0593298133 -0.4092435859
-0.0442252914 -0.0868181721 -0.4363840377
-0.1212086677 -0.0090393363 -0.4442739547
-0.0339159132 -0.0626008862 -0.4583667809
-0.0480456735 -0.0928822465 -0.4385731642
-0.1054752371 -0.0645592511 -0.4187805584
-0.0593272685 -0.0625562424 -0.4435601561
-0.0544857545 -0.0474394309 -0.4578561224
-0.1017628262 -0.0950618710 -0.4196401138
-0.0428687510 -0.0883724123 -0.4601599202
-0.0931687728 -0.0341189591 -0.4405846099
-0.1154284840 -0.0810533079 -0.4056910803
-0.0747755754 -0.0620058043 -0.4345194202
-0.1128674820 -0.0261148103 -0.4354356229
-0.1252638147 -0.0771776433 -0.4041399808
-0.0759038766 -0.0796381840 -0.4315958803
-0.0578654833 -0.0652724103 -0.4437759150
-0.1228252990 -0.0511197817 -0.4181862108
-0.0903906600 -0.0377207274 -0.4408686822
-0.0824877198 -0.0482020956 -0.4399306731
-0.0631434933 -0.0819385708 -0.4383861056
-0.0868961290 -0.0773291253 -0.4217641806
-0.1241443715 -0.0888183377 -0.4117255757
-0.1324991319 -0.0243633919 -0.4280783925
-0.1062877106 -0.0781229770 -0.4117986680
-0.0949672380 -0.0783681007 -0.4232739763
-0.0909791550 -0.0508721389 -0.4354317696
-0.1071441742 -0.0465981956 -0.4214153184
-0.1317195921 -0.0324472340 -0.4256009725
-0.0738207508 -0.0815030276 -0.4306233215
-0.1033975516 -0.0370275457 -0.4306721963
-0.0938030008 -0.0457501519 -0.4389573937
-0.1107183384 -0.0419945487 -0.4241759603
-0.1033122939 -0.0477744024 -0.4254272965
-0.0880902693 -0.0574604855 -0.4329331986
-0.1076719584 -0.0626301888 -0.4220651765
-0.1106149963 -0.0643559417 -0.4177017731
-0.0933326755 -0.0704234869 -0.4282425831
-0.0456210595 -0.0798384537 -0.4395876740
-0.0946914991 -0.0748852507 -0.4250633519
-0.1309874559 -0.0630331985 -0.4063151930
-0.0779537112 -0.0944948792 -0.4243866503
-0.0612891008 -0.0839932472 -0.4325837758
-0.1115448102 -0.0336296447 -0.4328773916
-0.0459785648 -0.0882959729 -0.4388101627
-0.1326587795 -0.0660375291 -0.4040261916
-0.0878898725 -0.0415562466 -0.4402518272
-0.0705042725 -0.0869396722 -0.4313547922
-0.0960871653 -0.0816722830 -0.4190613770
-0.1154591550 -0.0112551766 -0.4348620128
-0.1143605547 -0.0117188857 -0.4362663761
-0.1182943312 -0.0134753618 -0.4339901742
-0.1157347061 -0.0160259627 -0.4365699875
-0.1401840001 -0.0622410960 -0.4060062170
-0.1134880573 -0.0152140854 -0.4368802042
-0.1001444981 -0.0221479516 -0.4401094615
-0.1136860841 -0.0175264074 -0.4367148724
-0.1266486952 -0.0147012486 -0.4273725578
-0.1135827076 -0.0193246890 -0.4357778331
-0.1248947679 -0.0198463222 -0.4287642973
-0.1261077899 -0.0219162438 -0.4269055876
-0.1229344760 -0.0229727185 -0.4268328588
-0.1200280339 -0.0252414090 -0.4299977213
-0.0963011066 -0.0326788982 -0.4361860490
-0.1286153629 -0.0319911247 -0.4220650031
-0.1325495942 -0.0366927505 -0.4233231214
-0.0891734001 -0.0447432860 -0.4364600492
-0.0858066174 -0.0820208606 -0.4207255200
-0.1005725805 -0.0699183402 -0.4192114716
-0.1269771954 -0.0408867196 -0.4176299931
-0.1203554635 -0.0425503598 -0.4214348434
-0.1125794483 -0.0463211448 -0.4234330011
-0.1280809551 -0.0448785875 -0.4141161657
-0.1078601235 -0.0493721671 -0.4236492409
-0.0957458827 -0.0529398681 -0.4289005788
-0.1037025130 -0.0527226150 -0.4248321712
-0.1288015154 -0.0557055617 -0.4120651022
-0.0982279916 -0.0547949879 -0.4269114339
-0.1282894381 -0.0488412118 -0.4126618788
-0.1231401788 -0.0496636702 -0.4140417866
-0.0889033658 -0.0623520260 -0.4296443200
-0.0859368518 -0.0618773252 -0.4310487509
-0.1219513990 -0.0550140646 -0.4149118758
-0.0879567377 -0.0915080495 -0.4196016043
-0.1061843305 -0.0595848430 -0.4195019846
-0.1325962364 -0.0575266968 -0.4109747179
-0.0986149555 -0.0672199484 -0.4214907620
-0.0958213479 -0.0707394158 -0.4199304400
-0.0857578083 -0.0725334400 -0.4264815893
-0.1256291535 -0.0697505805 -0.4082906079
-0.1236578450 -0.0424625377 -0.4207220177
-0.0734464604 -0.0803949121 -0.4289286464
-0.0991145744 -0.0816633810 -0.4198755571
-0.0772911636 -0.0874730820 -0.4276087560
-0.1059595048 -0.0177754555 -0.4384500533
-0.1112381443 -0.0182770947 -0.4368613958
-0.0988158882 -0.0197143015 -0.4438621104
-0.0877497122 -0.0204237737 -0.4479335546
-0.0981709957 -0.0222071176 -0.4440509230
-0.0884778698 -0.0228331536 -0.4464243352
-0.1446587443 -0.0196039975 -0.4285033345
-0.1432258040 -0.0197731871 -0.4291667640
-0.1206215099 -0.0205828398 -0.4325109422
-0.1082000931 -0.0227885240 -0.4377051592
-0.1016207486 -0.0220528413 -0.4396008551
-0.1305070966 -0.0667151883 -0.4102585912
-0.0954751298 -0.0233801808 -0.4457856417
-0.0927362417 -0.0244100429 -0.4457374215
-0.1409111321 -0.0210735817 -0.4277039766
-0.1376264244 -0.0211837646 -0.4281162620
-0.1187619492 -0.0220359657 -0.4318304062
-0.1010182425 -0.0244759141 -0.4406864941
-0.1090134159 -0.0426736549 -0.4245722294
-0.0972463340 -0.0250805393 -0.4458559155
-0.0905433521 -0.0272978684 -0.4453952909
-0.1445738226 -0.0242803544 -0.4273979962
-0.1426938027 -0.0250059618 -0.4269960374
-0.1394177824 -0.0243404787 -0.4276148379
-0.1381593446 -0.0253319653 -0.4272057613
-0.1006675884 -0.0272441301 -0.4408561289
-0.1251011044 -0.0647345856 -0.4100562930
-0.0958826020 -0.0272864550 -0.4414381385
-0.1451736167 -0.0269532055 -0.4281337559
-0.1107267663 -0.0361822285 -0.4302675426
-0.1059114672 -0.0274078595 -0.4344993681
-0.0952447876 -0.0289934091 -0.4417683631
-0.0932094951 -0.0299250130 -0.4413152138
-0.1430721730 -0.0275611542 -0.4272951484
-0.1382123381 -0.0272888029 -0.4262960106
-0.1278681681 -0.0275132591 -0.4242471457
-0.1052609707 -0.0292295534 -0.4331731598
-0.1031344831 -0.0295041855 -0.4333503395
-0.0962076411 -0.0300955512 -0.4395191371
-0.0887626186 -0.0326428985 -0.4460507631
-0.1457693577 -0.0296379533 -0.4288539290
-0.1364350617 -0.0293067731 -0.4277468622
-0.1339449212 -0.0296457196 -0.4259827286
-0.1260244101 -0.0281830579 -0.4237718582
-0.1203508787 -0.0292761838 -0.4282038808
-0.1058563814 -0.0299361292 -0.4316604733
-0.0909586139 -0.0325757097 -0.4433665723
-0.0758269504 -0.0823279247 -0.4330976307
-0.0857757106 -0.0345073119 -0.4450653791
-0.1373758465 -0.0319926627 -0.4254338741
-0.1220370531 -0.0318791345 -0.4256547987
-0.1020189375 -0.0345475860 -0.4340557754
-0.0860062912 -0.0363074876 -0.4455893934
-0.1205273718 -0.0342909768 -0.4256343395
-0.1158276834 -0.0344309844 -0.4264588058
-0.1122369766 -0.0345420912 -0.4301260710
-0.1053182408 -0.0347985998 -0.4316475540
-0.0969226956 -0.0350938961 -0.4335518777
-0.0880794525 -0.0369489715 -0.4414967895
-0.1255270876 -0.0345618166 -0.4233678132
-0.0791609958 -0.0695315823 -0.4348527491
-0.1081571629 -0.0367933748 -0.4307316442
-0.0533055228 -0.0826393714 -0.4396542410
-0.1057179471 -0.0369767435 -0.4316191773
-0.0779677182 -0.0523493625 -0.4444062412
-0.1031212037 -0.0374446151 -0.4335704545
-0.0933845118 -0.0376497507 -0.4373554289
-0.0855913982 -0.0391489007 -0.4438499510
-0.0833396738 -0.0400935449 -0.4435611367
-0.0855551064 -0.0630482659 -0.4296454191
-0.1327190548 -0.0359077342 -0.4219645560
-0.0936722979 -0.0400782128 -0.4361966252
-0.1108628549 -0.0372564401 -0.4282352179
-0.0968065411 -0.0381264314 -0.4327370524
-0.0957841203 -0.0393701345 -0.4343879968
-0.0918354318 -0.0392612666 -0.4374238551
-0.0882571414 -0.0395906009 -0.4390623420
-0.0779395252 -0.0410097800 -0.4456497133
-0.1326701194 -0.0374255478 -0.4215449095
-0.1279731244 -0.0376263782 -0.4225152433
-0.0648075677 -0.0672498867 -0.4430371672
-0.1203991696 -0.0380771905 -0.4246018529
-0.1285103038 -0.0397537658 -0.4213514999
-0.1207264736 -0.0398524106 -0.4250644445
-0.1156403199 -0.0397185944 -0.4250068963
-0.1291876882 -0.0435174331 -0.4201735556
-0.1127472743 -0.0399681106 -0.4261240363
-0.1010032694 -0.0422599427 -0.4314758281
-0.1303227246 -0.0400819704 -0.4195614755
-0.1221143454 -0.0412281044 -0.4240498245
-0.1009634510 -0.0438777842 -0.4295254946
-0.1103848442 -0.0828664526 -0.4114303887
-0.0992979445 -0.0445931479 -0.4293641448
-0.0849639401 -0.0465715043 -0.4407908618
-0.1311276555 -0.0431487057 -0.4188133031
-0.1205749959 -0.0445873085 -0.4216986299
-0.1070978567 -0.0452333391 -0.4278913140
-0.0956828222 -0.0472276229 -0.4304019064
-0.0937845632 -0.0476479419 -0.4320431650
-0.0808289126 -0.0504035391 -0.4430732131
-0.1302666962 -0.0469826218 -0.4179946184
-0.1281481038 -0.0472958249 -0.4183002015
-0.1261667311 -0.0475800708 -0.4202591628
-0.1236168556 -0.0475157592 -0.4202801585
-0.1070690975 -0.0780415386 -0.4125368297
-0.1205829531 -0.0477403800 -0.4204043945
-0.1185346432 -0.0473663807 -0.4202759266
-0.1114990003 -0.0475205276 -0.4214821309
-0.0986855701 -0.0494351815 -0.4291747510
-0.0827549025 -0.0515508708 -0.4410299808
-0.1010908186 -0.0495474245 -0.4265812039
-0.0878477655 -0.0519113448 -0.4360002577
-0.0816364735 -0.0528201945 -0.4398773611
-0.1350430399 -0.0499265362 -0.4164887220
-0.1231304854 -0.0494734365 -0.4187140614
-0.1205579303 -0.0501414873 -0.4184867740
-0.1123040542 -0.0504803918 -0.4230094552
-0.0983303264 -0.0521771871 -0.4300841391
-0.0928251706 -0.0522069372 -0.4309141785
-0.0856803693 -0.0529099088 -0.4341815263
-0.0828575442 -0.0545682212 -0.4363698562
-0.0931766480 -0.0533648767 -0.4293022454
-0.1236442924 -0.0517157428 -0.4154383242
-0.1052918583 -0.0530423671 -0.4215770066
-0.1038404778 -0.0531541370 -0.4221034348
-0.1034744009 -0.0600135649 -0.4213565787
-0.0957328156 -0.0543732271 -0.4269487858
-0.0930995271 -0.0548602678 -0.4288291037
-0.0833780989 -0.0569327138 -0.4341347665
-0.0804948956 -0.0572645441 -0.4382216632
-0.1368841380 -0.0527386740 -0.4123047292
-0.1232524887 -0.0535698123 -0.4161288440
-0.0883533185 -0.0574434499 -0.4306823313
-0.0819763020 -0.0579095744 -0.4347975254
-0.0770170093 -0.0593970902 -0.4401950240
-0.1006791182 -0.0577407712 -0.4239766374
-0.0944198444 -0.0577537343 -0.4273770154
-0.0837350339 -0.0580242015 -0.4297858477
-0.0832107700 -0.0599385872 -0.4331597686
-0.0806655809 -0.0597930141 -0.4356626868
-0.0766616091 -0.0606039651 -0.4387915730
-0.0607127994 -0.0623289049 -0.4468789399
-0.0983965136 -0.0593800861 -0.4242502749
-0.0857277066 -0.0600663908 -0.4306447804
-0.0561601371 -0.0642464235 -0.4483980238
-0.1441713125 -0.0566003285 -0.4084121585
-0.1402773609 -0.0571101171 -0.4086568852
-0.1304662004 -0.0568486676 -0.4104695469
-0.1254961193 -0.0573986173 -0.4126042128
-0.1136717759 -0.0589093938 -0.4184069484
-0.1007464007 -0.0601755790 -0.4214010090
-0.0754550919 -0.0633375458 -0.4370963126
-0.1356194541 -0.0816107094 -0.4045362920
-0.0731851123 -0.0644067675 -0.4406712204
-0.1432194859 -0.0574627742 -0.4062234759
-0.1333065182 -0.0594353974 -0.4104941785
-0.1288335100 -0.0597679000 -0.4119290560
-0.1132261343 -0.0600697044 -0.4170323312
-0.0990781412 -0.0608586483 -0.4212196469
-0.1370916218 -0.0593434311 -0.4074837267
-0.1188585684 -0.0602902547 -0.4122318327
-0.1095275059 -0.0618585572 -0.4179083407
-0.0556530468 -0.0685045645 -0.4459372163
-0.1310573593 -0.0618938226 -0.4106661677
-0.1280038804 -0.0620550085 -0.4114699364
-0.1116122752 -0.0624265894 -0.4145518243
-0.0837337822 -0.0676233508 -0.4310704842
-0.0706022941 -0.0680071376 -0.4368119985
-0.0597806685 -0.0692900866 -0.4424838424
-0.1079078093 -0.0649203211 -0.4174258113
-0.1166308150 -0.0796274319 -0.4066361189
-0.1006169915 -0.0654908419 -0.4200643301
-0.0776372850 -0.0695945248 -0.4352907836
-0.0754802264 -0.0698508620 -0.4363893867
-0.0674153641 -0.0706273988 -0.4400258660
-0.1447608918 -0.0634722635 -0.4043377340
-0.1330307871 -0.0645845532 -0.4086888134
-0.0869838819 -0.0692450330 -0.4280079007
-0.0756484084 -0.0716924816 -0.4367599487
-0.0734779760 -0.0719455257 -0.4378498793
-0.1460497007 -0.0653331205 -0.4047231972
-0.1182330921 -0.0672684908 -0.4133342505
-0.1061122380 -0.0693556480 -0.4184459820
-0.0952053219 -0.0695129707 -0.4228042364
-0.0831956528 -0.0727285892 -0.4312714785
-0.0737541094 -0.0729104094 -0.4357447624
-0.0660779600 -0.0749652386 -0.4365452131
-0.1357832178 -0.0695317201 -0.4059681296
-0.1060604900 -0.0716441236 -0.4178565443
-0.1371898502 -0.0731715858 -0.4043652117
-0.0953356996 -0.0728018954 -0.4226104915
-0.0944814980 -0.0735930055 -0.4248723090
-0.0769723654 -0.0752346590 -0.4322336912
-0.1107834304 -0.0729089727 -0.4131239355
-0.0982865989 -0.0733186379 -0.4190460891
-0.0635751188 -0.0778735057 -0.4371840358
-0.0583845004 -0.0793167924 -0.4405013422
-0.0930457761 -0.0768662666 -0.4233201345
-0.0882942975 -0.0769092068 -0.4257059097
-0.0804326646 -0.0776757449 -0.4268417954
-0.0514782667 -0.0802838951 -0.4413765967
-0.0467838161 -0.0803110227 -0.4423912168
-0.1472259015 -0.0758923888 -0.4100441039
-0.0828143582 -0.0775457248 -0.4238823652
-0.0756689236 -0.0804746971 -0.4327777326
-0.0559948813 -0.0824781917 -0.4394561201
-0.1082791314 -0.0753278881 -0.4096978605
-0.0829986855 -0.0793714449 -0.4242054224
-0.1249716952 -0.0799738318 -0.4062345028
-0.0735202953 -0.0824141204 -0.4337396175
-0.0583311440 -0.0841198396 -0.4387789667
-0.1258080304 -0.0762002841 -0.4050910771
-0.1243315265 -0.0770800337 -0.4054087996
-0.1092598885 -0.0770643726 -0.4097256064
-0.0830635093 -0.0800618827 -0.4216382504
-0.0682901616 -0.0848105351 -0.4334897598
-0.0607264787 -0.0850107670 -0.4383754432
-0.0558257140 -0.0847209916 -0.4385881722
-0.1404591650 -0.0791405365 -0.4061662555
-0.1313489676 -0.0776990578 -0.4017744064
-0.1350659728 -0.0773504749 -0.4024696350
-0.1332296580 -0.0771669894 -0.4022698104
-0.1055105627 -0.0796103850 -0.4125036299
-0.0775881857 -0.0836929306 -0.4275068343
-0.0665985048 -0.0859860778 -0.4353265166
-0.0634949878 -0.0860655531 -0.4361180663
-0.0582708102 -0.0865492299 -0.4383514076
-0.1426546127 -0.0811418816 -0.4065751433
-0.1399339288 -0.0802443251 -0.4047515094
-0.1372319609 -0.0793411359 -0.4029131234
-0.1302901655 -0.0789529681 -0.4029459953
-0.1281521544 -0.0792034119 -0.4038717002
-0.1209327281 -0.0791848302 -0.4048926532
-0.0964033641 -0.0822665803 -0.4143203646
-0.0850860626 -0.0828479528 -0.4197972715
-0.0833045691 -0.0825538635 -0.4193788767
-0.0808927640 -0.0834549889 -0.4220504463
-0.0716462806 -0.0857774690 -0.4295248091
-0.0653480031 -0.0869314447 -0.4335914552
-0.0584906749 -0.0872755274 -0.4357734621
-0.0528862327 -0.0884950086 -0.4399308562
-0.0631581787 -0.0900913309 -0.4311467558
-0.1158506796 -0.0827638172 -0.4103150368
-0.0927168354 -0.0842283666 -0.4176981151
-0.0867643729 -0.0845910162 -0.4196232259
-0.0834311210 -0.0851003677 -0.4193812609
-0.0807828158 -0.0849078000 -0.4214654267
-0.0835538581 -0.0876529515 -0.4193682075
-0.0482443832 -0.0904058591 -0.4412716329
-0.1358374655 -0.0840803161 -0.4063402116
-0.1277919859 -0.0841928199 -0.4078105688
-0.1256169714 -0.0844345875 -0.4087243974
-0.1109933928 -0.0850664005 -0.4125496149
-0.0934579074 -0.0848192051 -0.4148754478
-0.0711618960 -0.0883356929 -0.4274473786
-0.0591860618 -0.0899841376 -0.4316595346
-0.0509139188 -0.0920469239 -0.4383201748
-0.1237131283 -0.0865043476 -0.4098705947
