0.0699643539 -0.0649797321 -0.2397081594
0.1727782547 -0.0748238858 -0.2645948845
0.1053651877 -0.0878418541 -0.2501407414
0.0924536804 -0.0769586040 -0.2464382065
0.1257096641 -0.1052342535 -0.2512237876
0.0744211333 -0.0852122070 -0.2425273731
0.1851257459 -0.0660267090 -0.2964459067
0.1480121091 -0.0883316983 -0.2607116408
0.0753216402 -0.0543482998 -0.2747503080
0.1178456411 -0.0620875133 -0.2487947280
0.1597240616 -0.0598406986 -0.2571669567
0.0802090846 -0.0874405277 -0.2441201666
0.0577810995 -0.0695097696 -0.2436933848
0.0794549689 -0.0696664599 -0.2444964844
0.1049129376 -0.0557186673 -0.2633692223
0.0456410663 -0.0720868550 -0.2499714258
0.0675883780 -0.0550403784 -0.2716785554
0.0449025456 -0.0918614109 -0.2544463446
0.1634739466 -0.0483405319 -0.2895087236
0.1465507830 -0.0569298669 -0.2732095877
0.0845694467 -0.0575693622 -0.2565628588
0.1741008183 -0.0757750931 -0.2643604295
0.0358416949 -0.0801541074 -0.2576210221
0.0974295648 -0.0725111425 -0.2477968899
0.0726896015 -0.0873327469 -0.2422508992
0.1251855598 -0.1106518260 -0.2496391422
0.0377116610 -0.0730447397 -0.2592537697
0.1613554939 -0.0614943534 -0.2571609523
0.1393078317 -0.0571903979 -0.2684394471
0.1149585267 -0.0823770656 -0.2510676185
0.1250126734 -0.0824029960 -0.2514989662
0.1843123296 -0.0590154465 -0.2943269872
0.0893180971 -0.0579778173 -0.2543208960
0.0430522099 -0.0699371593 -0.2547991581
0.1072912002 -0.0676104349 -0.2506517820
0.1420424643 -0.0654659170 -0.2561950763
0.0999416634 -0.0650601164 -0.2448555306
0.1276261508 -0.0518166944 -0.2959889174
0.0517362015 -0.0820476669 -0.2427458906
0.1247480792 -0.1305337586 -0.2490881180
0.0550635401 -0.0895972074 -0.2466998439
0.0530314670 -0.0746052170 -0.2443069351
0.1477007902 -0.1100616598 -0.2579171970
0.1151259450 -0.0627064132 -0.2450414828
0.1701165678 -0.0679826720 -0.2624946160
0.0648848684 -0.0753296130 -0.2400472344
0.1149355505 -0.0771831646 -0.2508453246
0.0886108162 -0.0722288983 -0.2446122225
0.1385644188 -0.0562419012 -0.2768762205
0.0786636120 -0.0825464081 -0.2425383202
0.1567792446 -0.1197859497 -0.2618652171
0.1507280556 -0.1249375463 -0.2594386517
0.1155589228 -0.1321482741 -0.2498526266
0.0358385138 -0.0817555396 -0.2575043387
0.1245742253 -0.0678538545 -0.2509395236
0.0730174299 -0.0678122256 -0.2442175987
0.1378829376 -0.1075490340 -0.2538679914
0.0976608954 -0.0973455489 -0.2474378583
0.0624067585 -0.0631450295 -0.2427135599
0.1002041920 -0.0997609286 -0.2487215059
0.1099206913 -0.0593989778 -0.2512947562
0.0964849343 -0.0624308882 -0.2470790384
0.1180421977 -0.0753895079 -0.2517825935
0.1018177467 -0.0592034515 -0.2508195946
0.1479756117 -0.0627917798 -0.2585351089
0.1350532403 -0.1102088223 -0.2538405356
0.1299598584 -0.0902617149 -0.2517882814
0.1000909656 -0.0540912896 -0.2885441482
0.1517849905 -0.0730248957 -0.2607070833
0.1351441673 -0.1404612710 -0.2526023095
0.1630467354 -0.0570860090 -0.2717188156
0.1178332311 -0.0722906634 -0.2520828833
0.0456016467 -0.0678771895 -0.2528174722
0.1628073644 -0.0729838760 -0.2610209035
0.1294757575 -0.0501265228 -0.2943916321
0.0672039978 -0.0558570863 -0.2691581022
0.1172318878 -0.0556953347 -0.2750692929
0.0345048268 -0.0871819884 -0.2589853169
0.1324384272 -0.0902247729 -0.2523478254
0.1268894356 -0.0622006811 -0.2517848767
0.0766531342 -0.0695992429 -0.2444069296
0.1251972195 -0.0531835320 -0.2903190676
0.1247757077 -0.0650767035 -0.2514130227
0.0898957522 -0.0696493040 -0.2447832920
0.1302907318 -0.0565183386 -0.2635727823
0.0502973291 -0.0627681029 -0.2523673532
0.1595033854 -0.0787739828 -0.2577666044
0.0465374964 -0.0618796699 -0.2606343355
0.0542701639 -0.0776003411 -0.2440732595
0.0544537864 -0.0916610245 -0.2474622157
0.1273859210 -0.0825316865 -0.2516268814
0.1207450378 -0.0578281419 -0.2541042045
0.1351628470 -0.1048894204 -0.2534210782
0.0481831436 -0.0673048578 -0.2518280595
0.1498592248 -0.1071939220 -0.2575133542
0.1575018641 -0.0558056782 -0.2836276528
0.0825280076 -0.0670424093 -0.2443431473
0.1337644268 -0.1220553910 -0.2544963871
0.1882971273 -0.0693955565 -0.2975794138
0.0492620867 -0.0919726034 -0.2498740551
0.0545514022 -0.0556513050 -0.2675129649
0.1381029395 -0.1274102096 -0.2547706840
0.0972912769 -0.0547556778 -0.2797397905
0.0705541723 -0.0566617453 -0.2633140412
0.1395213940 -0.0648700184 -0.2541190402
0.1600260353 -0.0559719341 -0.2847168277
0.0519025850 -0.0643538645 -0.2491624481
0.1713844508 -0.0572626448 -0.2959180945
0.1622963786 -0.1081338676 -0.2588500263
0.1399367099 -0.0704236313 -0.2552355206
0.1812757006 -0.0731470550 -0.2787641298
0.0717933071 -0.0723446848 -0.2465007152
0.1278064801 -0.0677005599 -0.2517099474
0.1225268891 -0.0825555074 -0.2515761970
0.1498496401 -0.1098410362 -0.2567466878
0.0672545165 -0.0673883188 -0.2399773703
0.1283088448 -0.1276106036 -0.2498446379
0.1654124389 -0.0952244189 -0.2648190476
0.0544321239 -0.0567613767 -0.2657402402
0.1399701238 -0.1104911603 -0.2543122023
0.1154195005 -0.1517466116 -0.2550375370
0.1540012934 -0.0555715638 -0.2844319014
0.1211642876 -0.0627536437 -0.2512734629
0.1417806294 -0.1096851287 -0.2531310673
0.1753245121 -0.0631085860 -0.2814857748
0.1795643180 -0.0874141852 -0.2819015664
0.1441652332 -0.0556615712 -0.2836032413
0.1677525342 -0.0715457685 -0.2621568739
0.0530825723 -0.0601143209 -0.2571079222
0.1268961570 -0.0558316741 -0.2716142337
0.1196614014 -0.0603881173 -0.2465039143
0.1370508569 -0.0651639832 -0.2522343570
0.1175973968 -0.1100012560 -0.2494539684
0.1697039541 -0.0551535341 -0.2941970269
0.1817095415 -0.0659772247 -0.2943205999
0.0717817207 -0.0570791193 -0.2586532083
0.0517288482 -0.0841301636 -0.2427528645
0.1401234269 -0.1326494068 -0.2573398948
0.1126944201 -0.0800397592 -0.2494537745
0.1405678020 -0.0877123143 -0.2566430037
0.0926206596 -0.0629926398 -0.2425603494
0.1598191757 -0.1103057513 -0.2593820359
0.1327416610 -0.0528601210 -0.2921970810
0.1504800129 -0.1224376921 -0.2593744701
0.1595972180 -0.1103421077 -0.2576972842
0.1748302407 -0.0626063147 -0.2835785111
0.1078976803 -0.1507725045 -0.2514528334
0.0701169848 -0.0725308503 -0.2418629875
0.0696777838 -0.0575664210 -0.2536703542
0.1650046435 -0.0575722405 -0.2773053018
0.0852294584 -0.0847702928 -0.2446371746
0.1303785370 -0.1426489512 -0.2515578053
0.1293399334 -0.0517253503 -0.2953272164
0.0604296750 -0.0674504370 -0.2420305208
0.1722176138 -0.0609536915 -0.2844541090
0.1487938334 -0.0822471800 -0.2569616044
0.1224528379 -0.1473824926 -0.2498851975
0.0479404847 -0.0948127616 -0.2542358399
0.1217235901 -0.0556086746 -0.2810003215
0.1477866632 -0.0577939576 -0.2612649154
0.1228239912 -0.0948415050 -0.2517662801
0.1175517814 -0.1349083070 -0.2492491926
0.1454591345 -0.1377411179 -0.2571357268
0.1676594784 -0.0756225873 -0.2620550180
0.1602960902 -0.0725031512 -0.2592497287
0.1816362292 -0.0795286223 -0.2793015540
0.0780027374 -0.0592272230 -0.2492470427
0.1086641863 -0.0533422716 -0.2916920167
0.1092857663 -0.1507083886 -0.2507078351
0.1729721434 -0.0622771450 -0.2764784351
0.1778647307 -0.0804051483 -0.2743110298
0.1678880554 -0.0595910241 -0.2770192423
0.1501138313 -0.1374508665 -0.2574895015
0.0564254288 -0.0597855618 -0.2541910674
0.0953667030 -0.0825840821 -0.2485145086
0.0722073175 -0.0577239457 -0.2550699264
0.1629794913 -0.0650233303 -0.2617066384
0.1451071475 -0.0526470561 -0.2988769065
0.1622682141 -0.0680173622 -0.2618740289
0.1350019756 -0.1274495946 -0.2546478350
0.1394443288 -0.1005254798 -0.2551394999
0.1390039728 -0.1351268408 -0.2554569006
0.1853236352 -0.0634984024 -0.2999409589
0.1328517233 -0.1029002219 -0.2522274523
0.0938125249 -0.0535883613 -0.2871109036
0.1072724975 -0.0700146038 -0.2490573470
0.1251055559 -0.1124950693 -0.2521022410
0.1466772310 -0.1002324176 -0.2582875335
0.0482884487 -0.0687236826 -0.2497333511
0.0865117793 -0.0558204534 -0.2658781175
0.0538122319 -0.0582748124 -0.2609357123
0.1577649888 -0.0825138850 -0.2599372314
0.1176654222 -0.0930293371 -0.2500049386
0.1714518338 -0.0614164514 -0.2759028847
0.1377069503 -0.0576047786 -0.2630336285
0.1572349972 -0.0598062685 -0.2567308016
0.1425767504 -0.0977259651 -0.2570290640
0.1198259120 -0.0979963789 -0.2479245663
0.1379471272 -0.0530593880 -0.3000020981
0.1408232318 -0.1303153111 -0.2567509278
0.1671954445 -0.0528874010 -0.2940263865
0.1276838053 -0.0849590112 -0.2512548502
0.0817172951 -0.0570699751 -0.2621025050
0.0702979349 -0.0875253834 -0.2422295265
0.1351876630 -0.0823057040 -0.2542317158
0.1302946640 -0.1073275218 -0.2517747537
0.1178802661 -0.1024729320 -0.2501461910
0.1327181520 -0.0728966959 -0.2543098448
0.1200015203 -0.1022544068 -0.2494836869
0.1373404852 -0.0829754837 -0.2539551685
0.1226438441 -0.1101682573 -0.2504108480
0.1351596133 -0.0849484872 -0.2519298379
0.1212822623 -0.0526639877 -0.2962955724
0.0703221727 -0.0926058204 -0.2427144765
0.1294912146 -0.0652238338 -0.2518813634
0.1196425898 -0.0548174606 -0.2874553638
0.1028525579 -0.1125892636 -0.2487934349
0.1270785776 -0.0596671026 -0.2516665279
0.0515770775 -0.0816156572 -0.2463485184
0.1156262459 -0.1106937895 -0.2474502331
0.1657362240 -0.1000533765 -0.2720690212
0.0509208880 -0.0837063108 -0.2465032541
0.1425252356 -0.0703292707 -0.2547425706
0.0768100691 -0.0797193774 -0.2464031941
0.0540565415 -0.0644499061 -0.2490889719
0.0999079961 -0.0548978401 -0.2788604127
0.0979061742 -0.0598362171 -0.2491899094
0.0730934100 -0.0648527746 -0.2414990070
0.1723573369 -0.0819010317 -0.2664423714
0.1177387336 -0.0999798578 -0.2491190121
0.0975725514 -0.0872193214 -0.2468943193
0.1428467229 -0.0647885238 -0.2551437961
0.1698791195 -0.0879254161 -0.2698267503
0.0575078349 -0.0673707354 -0.2438504054
0.1250492174 -0.1300090998 -0.2517905260
0.1198000796 -0.1001060605 -0.2491081581
0.1402601451 -0.0844360627 -0.2588962168
0.1651625830 -0.0976590097 -0.2669599362
0.1356674319 -0.1373603085 -0.2539280537
0.0842389145 -0.0580784704 -0.2528699294
0.1640276849 -0.1031219047 -0.2636208864
0.1476783174 -0.1001001801 -0.2564684862
0.1411041152 -0.0828364906 -0.2544726253
0.1771886706 -0.0773719214 -0.2691637532
0.1595745218 -0.0652293300 -0.2611155901
0.1153524736 -0.1373505936 -0.2496501550
0.0801574140 -0.0723420157 -0.2467220473
0.0677974857 -0.0880141929 -0.2425107732
0.1422735304 -0.0626458228 -0.2554286718
0.1344831509 -0.1349939148 -0.2527476988
0.1191871488 -0.0675188907 -0.2487929203
0.0552085475 -0.0922867068 -0.2489840424
0.1336746216 -0.1351473927 -0.2531812787
0.1305397469 -0.1227386893 -0.2535047070
0.1028933302 -0.0653170997 -0.2484955213
0.1548224409 -0.1176747264 -0.2588060924
0.1285625560 -0.1426727833 -0.2511360349
0.0717981665 -0.0566532318 -0.2629063290
0.1705123112 -0.0850739218 -0.2690040469
0.1327232562 -0.0549108962 -0.2816501771
0.0693043172 -0.0597889636 -0.2439151025
0.1601059879 -0.0697749304 -0.2614973123
0.1175877973 -0.0549583547 -0.2853706777
0.1322938353 -0.0569631821 -0.2671977551
0.0667642632 -0.0559405185 -0.2630990061
0.1193751618 -0.1198365241 -0.2495261133
0.1706389512 -0.0976842532 -0.2822962382
0.0800565668 -0.0556402563 -0.2674264994
0.0576221363 -0.0973388293 -0.2490924271
0.1594679852 -0.0586992515 -0.2593828929
0.1735625118 -0.0887571350 -0.2764197588
0.1233854854 -0.1494323267 -0.2537502491
0.1173289978 -0.0599202302 -0.2473367342
0.1283482989 -0.1322718394 -0.2511057977
0.1424851198 -0.0623960466 -0.2561915331
0.1530471690 -0.0876290675 -0.2595080416
0.1098684393 -0.0575643397 -0.2516845782
0.1002759205 -0.0672778171 -0.2468624449
0.1301082162 -0.0926451280 -0.2514989130
0.1121134211 -0.1056133450 -0.2475598137
0.0933398348 -0.0676232760 -0.2465195841
0.1283308268 -0.0812805668 -0.2505463362
0.0745031236 -0.0557136601 -0.2667368163
0.1163094789 -0.0677660331 -0.2510585487
0.0977476169 -0.0674917844 -0.2468291949
0.0874510257 -0.0549311331 -0.2739328436
0.1526434140 -0.1225923938 -0.2593607576
0.1169552789 -0.0703007812 -0.2501187743
0.1174673416 -0.0676868684 -0.2505141528
0.1755964285 -0.0782694911 -0.2686846835
0.1556464368 -0.1027735369 -0.2589429153
0.1804529331 -0.0587865092 -0.2984771673
0.1078293058 -0.0626089498 -0.2470165879
0.1246469657 -0.0566771840 -0.2594121689
0.1095148263 -0.0562645021 -0.2594110383
0.1021654310 -0.0651099285 -0.2470261293
0.0947402542 -0.0700906763 -0.2467286736
0.0700080619 -0.0580454899 -0.2488576706
0.1348653117 -0.0779991120 -0.2544933499
0.1317671936 -0.1273907428 -0.2526536434
0.1674680547 -0.0852664015 -0.2663685862
0.0651216541 -0.0576468401 -0.2487761549
0.0827551763 -0.0558684444 -0.2673081343
0.1411659667 -0.1128989583 -0.2569998552
0.1153505030 -0.0597270062 -0.2494036303
0.1746181276 -0.0678669428 -0.2689080846
0.0750039880 -0.0774968281 -0.2438433669
0.1330046754 -0.0799704969 -0.2537653758
0.1259490042 -0.1379723874 -0.2514094890
0.0641541193 -0.0694580105 -0.2401472112
0.1775807601 -0.0877011500 -0.2771990051
0.0624773003 -0.0706022612 -0.2394537738
0.0774554208 -0.0918779513 -0.2426803774
0.1756479591 -0.0871580802 -0.2768364996
0.0813214001 -0.0869552395 -0.2426578862
0.0792336574 -0.0546814601 -0.2731160380
0.1251319179 -0.0800356797 -0.2520642300
0.1057335883 -0.1123113111 -0.2474031225
0.0848089860 -0.0573621828 -0.2592647775
0.1125272295 -0.0823417522 -0.2489143838
0.1552954427 -0.0566967603 -0.2687852683
0.1108938754 -0.1208758205 -0.2479968816
0.1189386118 -0.1152104576 -0.2506915025
0.1674871021 -0.0825560360 -0.2647158189
0.1613865641 -0.0783650894 -0.2610512029
0.1392535795 -0.1400264942 -0.2556650689
0.1308031960 -0.0533534318 -0.2891052731
0.1459707689 -0.1308177649 -0.2562496041
0.1275229029 -0.1302769119 -0.2518972177
0.1894535571 -0.0758061931 -0.2932947874
0.1864980063 -0.0831272213 -0.2908617170
0.1072210295 -0.0650196491 -0.2475050370
0.0871683338 -0.0582438909 -0.2519538787
0.1221774663 -0.1000624026 -0.2496317024
0.1676544497 -0.0901479026 -0.2688190341
0.1516678742 -0.0544450981 -0.2938553041
0.0965486651 -0.0555668416 -0.2645824265
0.1804684664 -0.0826329689 -0.2767228772
0.1604806354 -0.0548976374 -0.2887418395
0.1418173939 -0.0674970077 -0.2562250206
0.1645649417 -0.0570117313 -0.2824640894
0.1425358583 -0.1004340268 -0.2546886487
0.1100327565 -0.0823596723 -0.2512344280
0.1210963652 -0.1477306038 -0.2506534159
0.1387595683 -0.0587318279 -0.2580682039
0.0766706085 -0.0921300429 -0.2435530072
0.0415907837 -0.0821152082 -0.2523220713
0.0599007080 -0.0643959501 -0.2439746305
0.0698095068 -0.0557236208 -0.2665383915
0.0518021536 -0.0569344983 -0.2662858492
0.0675446050 -0.0722154777 -0.2401952858
0.1154250680 -0.1296846516 -0.2492781111
0.1548565702 -0.0529216477 -0.2986303542
0.0797877065 -0.0919443040 -0.2437678218
0.1467904641 -0.1230205031 -0.2577780875
0.1200246909 -0.1474819887 -0.2503128005
0.0439130399 -0.0820908069 -0.2495061110
0.1753597680 -0.0680483489 -0.2715382925
0.0996251255 -0.0751153359 -0.2475698359
0.1393021963 -0.0565286046 -0.2716877829
0.0808115519 -0.0590047430 -0.2512573481
0.1169143618 -0.1424350224 -0.2490028115
0.0821247981 -0.0584619457 -0.2508834982
0.1434127579 -0.1390519925 -0.2549128153
0.1452150484 -0.1152264825 -0.2570476873
0.1176891275 -0.0900995447 -0.2512520029
0.1098551926 -0.0678677591 -0.2494473821
0.1379962936 -0.0565701965 -0.2723379880
0.0795457330 -0.0581983537 -0.2523132981
0.1491735705 -0.0537111244 -0.2916771733
0.0900063179 -0.0923372336 -0.2470283448
0.1249808092 -0.0954642255 -0.2493670304
0.0916272293 -0.0557786959 -0.2694201629
0.1134008103 -0.0976810376 -0.2492166946
0.1502403916 -0.0954845207 -0.2575085858
0.1250941454 -0.0607936606 -0.2496431949
0.1593429562 -0.0563771110 -0.2742583039
0.0874358807 -0.0571685837 -0.2590985337
0.1174375042 -0.0557454377 -0.2677544653
0.1178267966 -0.1224430677 -0.2488477907
0.0525106755 -0.0669709181 -0.2471724785
0.1404551119 -0.0777278785 -0.2567002326
0.1667045824 -0.0971705462 -0.2748835097
0.1193163853 -0.0561796125 -0.2643724022
0.1479239583 -0.1352369238 -0.2594209139
0.1175089421 -0.1198210509 -0.2494978597
0.1333569611 -0.0629321150 -0.2537154712
0.0620145944 -0.1015370139 -0.2452987490
0.1199942824 -0.1125408954 -0.2497511024
0.1890064685 -0.0829505311 -0.2944799604
0.1728980840 -0.0833778667 -0.2690671243
0.0400841728 -0.0751558911 -0.2550204525
0.1588762686 -0.0902172584 -0.2607231516
0.1146947636 -0.0559535117 -0.2648763151
0.1663438655 -0.0572527003 -0.2894069049
0.1300717071 -0.1018686220 -0.2549586445
0.1429566320 -0.0828561249 -0.2567170214
0.0502297722 -0.0597239260 -0.2624068820
0.1425685805 -0.0749593523 -0.2549902650
0.0750378373 -0.0826777105 -0.2426339587
0.0566516914 -0.1074198078 -0.2522328248
0.1750135091 -0.0824851665 -0.2692649525
0.1101926462 -0.1174006266 -0.2486937465
0.1167798273 -0.0559533136 -0.2643961670
0.1120120361 -0.0975249633 -0.2479707003
0.0717102536 -0.0533630799 -0.2801676230
0.1142060057 -0.0702228912 -0.2496553745
0.0909017768 -0.0898525732 -0.2470892196
0.0527499113 -0.0676179005 -0.2442475932
0.0677837457 -0.0589265515 -0.2496577439
0.1113409945 -0.0547276042 -0.2916979499
0.1177671618 -0.1326810344 -0.2496007534
0.0520296233 -0.0893177283 -0.2471004295
0.0774552160 -0.0773993982 -0.2441385998
0.1766965985 -0.0818696320 -0.2705332041
0.0603415074 -0.1047521963 -0.2473905661
0.1353092391 -0.0877488080 -0.2541478867
0.1222480173 -0.0957247974 -0.2496396005
0.1752242359 -0.0943960621 -0.2838160063
0.1645954471 -0.0708424000 -0.2634087315
0.0687154396 -0.0545234534 -0.2760219559
0.1767447358 -0.0787924285 -0.2668368545
0.1286831241 -0.1398498085 -0.2508623436
0.0929422546 -0.0929168422 -0.2451781886
0.1323620901 -0.0614989921 -0.2519136220
0.1625269502 -0.0556010827 -0.2803752124
0.0902978927 -0.0563708674 -0.2644367367
0.1581023096 -0.0853442530 -0.2600272946
0.0773854454 -0.0853297363 -0.2449929814
0.0922192115 -0.0930696027 -0.2468249378
0.1519256176 -0.0548070093 -0.2911790933
0.1396062747 -0.0555786450 -0.2836469231
0.1410880834 -0.0697802678 -0.2556183040
0.1008597522 -0.0781147257 -0.2455296299
0.1409155626 -0.1000247027 -0.2562473110
0.0494517242 -0.1054677087 -0.2621290797
0.1800112727 -0.0851452360 -0.2816304117
0.1674571448 -0.0956055260 -0.2738839853
0.1696127636 -0.0624995687 -0.2685893176
0.1778024952 -0.0730723168 -0.2692654263
0.1002030065 -0.0851565905 -0.2471033757
0.1243027350 -0.0617897037 -0.2508937354
0.1153048029 -0.0727519592 -0.2534234027
0.1643912480 -0.0755820822 -0.2629477250
0.0678021535 -0.0769573897 -0.2407410741
0.0651281393 -0.0778597551 -0.2419612499
0.1324252330 -0.0609665171 -0.2486570772
0.1206303906 -0.1429421971 -0.2488986433
0.1275992688 -0.1450045523 -0.2513924104
0.0871222188 -0.0844777654 -0.2450252628
0.1155726129 -0.0896752957 -0.2496667726
0.0520590706 -0.1017840934 -0.2575838860
0.0368776925 -0.0898808680 -0.2599892949
0.1124510476 -0.0952582485 -0.2491139900
0.1701678299 -0.0775404205 -0.2644428954
0.1315582400 -0.0602873731 -0.2568103359
0.0878252625 -0.0696988650 -0.2451479175
0.1279416117 -0.1030754543 -0.2522130369
0.1206167220 -0.0556434558 -0.2711839639
0.1141522713 -0.0927510560 -0.2504406422
0.0530013477 -0.0847915195 -0.2449680219
0.0995314613 -0.0772873292 -0.2467409274
0.0774776563 -0.0553432461 -0.2695616484
0.1488158834 -0.0558366492 -0.2816458044
0.1706535366 -0.0678399537 -0.2641307367
0.0804304308 -0.0552825049 -0.2698430137
0.0635815710 -0.0575212464 -0.2505111396
0.1514494061 -0.1296589547 -0.2607660145
0.1022475419 -0.0774536191 -0.2487482473
0.0721660097 -0.0671157460 -0.2423973730
0.1094331796 -0.0953588543 -0.2493977205
0.1750338365 -0.0649184860 -0.2760698168
0.1328227809 -0.0652821776 -0.2548392819
0.1844920616 -0.0611151716 -0.2966264361
0.0966415394 -0.0647551877 -0.2467626750
0.1328794679 -0.1175748974 -0.2535869196
0.1177666297 -0.1075113705 -0.2489802505
0.1705955234 -0.0626303150 -0.2715805099
0.0567293240 -0.0767993707 -0.2396456424
0.1228391716 -0.1225193179 -0.2502436776
0.1121259847 -0.0619896854 -0.2481885571
0.0929584565 -0.0997573067 -0.2476458723
0.0475076702 -0.0851378333 -0.2474249798
0.0731807159 -0.0565504586 -0.2637959979
0.1537485062 -0.0977562984 -0.2585455831
0.1426442747 -0.0852927862 -0.2564042833
0.1661080111 -0.0930996615 -0.2715204401
0.0397938304 -0.0676558688 -0.2632255256
0.0901944949 -0.0826730218 -0.2465876795
0.1170958383 -0.1154600935 -0.2492619273
0.1817711231 -0.0590003452 -0.2936029509
0.1151739161 -0.1225074307 -0.2492496492
0.1358106084 -0.1149689614 -0.2543002018
0.1560845395 -0.0978050807 -0.2590113201
0.1847351190 -0.0732909233 -0.2920491198
0.1849894200 -0.0756661441 -0.2910106954
0.1181640358 -0.1070665388 -0.2466885681
0.1174319938 -0.0557116279 -0.2815519058
0.1143957789 -0.1192246910 -0.2504551672
0.0765406090 -0.0557880862 -0.2646921106
0.1044936946 -0.1027282541 -0.2475577979
0.1451598821 -0.1374071163 -0.2544453870
0.1301300295 -0.1273993149 -0.2538764211
0.1280310755 -0.0751052586 -0.2537709576
0.1572671026 -0.0585687858 -0.2592518924
0.1403538851 -0.0542897115 -0.2950525254
0.1800731912 -0.0700795667 -0.2817158907
0.1219748065 -0.0754790766 -0.2497492266
0.1665376535 -0.0806384307 -0.2619247905
0.1296838147 -0.1223056576 -0.2529898133
0.0795331995 -0.0555726025 -0.2653942730
0.0428028568 -0.0671108608 -0.2570996287
0.1074241601 -0.1025360301 -0.2476876941
0.0822455964 -0.0848636491 -0.2444908885
0.1567979089 -0.1080998441 -0.2593639718
0.1450455151 -0.1349670961 -0.2592161372
0.1296523879 -0.0679158443 -0.2546607537
0.0968729136 -0.1037390589 -0.2486438759
0.1296018770 -0.0621440730 -0.2497580976
0.1592177438 -0.0819237489 -0.2611428463
0.0502130601 -0.0650991440 -0.2532863496
0.0800630525 -0.0700145625 -0.2464386895
0.1430067557 -0.1374001630 -0.2566425333
0.0800261647 -0.0972975492 -0.2448071241
0.1595433367 -0.0674921804 -0.2615804444
0.1448519527 -0.1197555536 -0.2575151378
0.0430355607 -0.0744981975 -0.2515012996
0.1750806570 -0.0883316873 -0.2745867671
0.1170115456 -0.0555110501 -0.2685193378
0.0650159253 -0.0583350814 -0.2466357064
0.0461271267 -0.0795186762 -0.2472257672
0.0369238392 -0.0877634659 -0.2587279381
0.1773727863 -0.0808331126 -0.2715253275
0.0676245411 -0.0583345524 -0.2469151526
0.1193609150 -0.1001015119 -0.2514274956
0.1440650374 -0.1066533625 -0.2548611462
0.1818364412 -0.0824609399 -0.2789679766
0.1809244478 -0.0876125738 -0.2859559747
0.0567655077 -0.0689647462 -0.2464402817
0.1845638355 -0.0823898762 -0.2889247437
0.1223057021 -0.0577453362 -0.2565568004
0.0645944613 -0.0601648470 -0.2441084306
0.0978075763 -0.0579077127 -0.2541685622
0.1451384678 -0.0570053074 -0.2692153092
0.1193988969 -0.0979276220 -0.2506724764
0.1516684297 -0.0557201900 -0.2711941622
0.0667728210 -0.0596877567 -0.2442739565
0.1379659235 -0.1443199665 -0.2534313814
0.1328099962 -0.0565620150 -0.2696829273
0.1729398677 -0.0702066578 -0.2668797804
0.1800544497 -0.0806419151 -0.2768631846
0.1426752045 -0.0547421220 -0.2943177656
0.0974601991 -0.0650357530 -0.2435139939
0.0705474988 -0.0875674627 -0.2435810893
0.1739300026 -0.0540930365 -0.2965164099
0.1723152683 -0.0633446893 -0.2718088820
0.0502727142 -0.0719540562 -0.2449660318
0.1349340062 -0.0974063123 -0.2545163842
0.1115076578 -0.0594399297 -0.2489018300
0.1446036696 -0.0947150737 -0.2571488321
0.1748680296 -0.0577478380 -0.2964910334
0.0730019764 -0.0573180074 -0.2573960525
0.0394358624 -0.0708161577 -0.2576476325
0.0623323879 -0.0565200670 -0.2591528649
0.1674382250 -0.0605000444 -0.2713882878
0.1749520019 -0.0834434904 -0.2716768347
0.1144805331 -0.0559442349 -0.2617054329
0.0878637739 -0.0535509936 -0.2841678799
0.1816564447 -0.0779809175 -0.2789471087
0.1416326966 -0.0957358098 -0.2544082192
0.1427603566 -0.1182632343 -0.2550711372
0.1492986714 -0.0569850372 -0.2732711406
0.1344597022 -0.0595348510 -0.2569530317
0.1625860290 -0.0652247123 -0.2598114917
0.1323459954 -0.0562135896 -0.2661471669
0.1000663350 -0.0854467714 -0.2521606158
0.1078250516 -0.0565870915 -0.2586205226
0.1266294553 -0.0542050670 -0.2894119645
0.1627910340 -0.0592075511 -0.2693200121
0.1194725518 -0.1155985351 -0.2474578512
0.0751346262 -0.0749102689 -0.2445770123
0.0973641413 -0.0698986327 -0.2474427453
0.1315732723 -0.0723145223 -0.2517026951
0.1100748843 -0.1074256617 -0.2495402959
0.1302792429 -0.0628731654 -0.2517410587
0.1037304990 -0.1097906499 -0.2485942229
0.1426925425 -0.0978116065 -0.2536821282
0.1403136551 -0.0803495521 -0.2566977243
0.0680553046 -0.0923106558 -0.2420815925
0.0747316130 -0.0729301094 -0.2420367137
0.0523766503 -0.0798225366 -0.2434211597
0.1266911807 -0.1000033902 -0.2528290652
0.1592006614 -0.0547865253 -0.2913081136
0.1376652695 -0.1380708979 -0.2538903525
0.1105705916 -0.1196583981 -0.2490386993
0.0522997182 -0.0630165994 -0.2522912152
0.0798595918 -0.0724771655 -0.2451154672
0.1198172811 -0.0755206570 -0.2522427365
0.1315595282 -0.0573374163 -0.2635166801
0.1492876084 -0.0828642368 -0.2589806604
0.1369759051 -0.0585081646 -0.2593776266
0.0677733185 -0.0821083660 -0.2417378371
0.1365662357 -0.0555049947 -0.2836078146
0.1025324110 -0.1026445580 -0.2487320129
0.0419725859 -0.0895559543 -0.2549040113
0.1857271641 -0.0703714043 -0.2986235321
0.1031314342 -0.0753890926 -0.2486169167
0.1622051148 -0.0561809189 -0.2814909621
0.1676646030 -0.0649313380 -0.2679529943
0.0514247307 -0.0991279437 -0.2555368511
0.0550629530 -0.0576803807 -0.2595705074
0.0895531327 -0.0645069182 -0.2429517433
0.1874838099 -0.0702396667 -0.2986020767
0.1798958184 -0.0650910810 -0.2937385352
0.0729099066 -0.0721684860 -0.2445275951
0.1701608418 -0.0597712234 -0.2840790993
0.1555397112 -0.1202615747 -0.2583485303
0.1550848660 -0.1052666602 -0.2597647388
0.1127972510 -0.1000757874 -0.2477566819
0.1026468189 -0.0748526137 -0.2474709584
0.1290090677 -0.0729477244 -0.2519622780
0.1356119030 -0.1121816235 -0.2541858009
0.1686352793 -0.0500523168 -0.2964864531
0.1024698820 -0.0900714155 -0.2474111393
0.1672871871 -0.0921011329 -0.2699984558
0.1052552286 -0.0951045812 -0.2466930789
0.1081787851 -0.1102920827 -0.2491120100
0.1225043349 -0.1052021794 -0.2503995150
0.0751341455 -0.0797878216 -0.2438297701
0.1724560600 -0.0609099620 -0.2812687769
0.1155450703 -0.0875201582 -0.2490183318
0.1550030708 -0.0506248474 -0.3007956147
0.1813400436 -0.0607496584 -0.2967458942
0.1224152183 -0.1127609742 -0.2517552102
0.1289510742 -0.0978543693 -0.2521588805
0.1503636230 -0.0544384644 -0.2944088646
0.0432895475 -0.0723785965 -0.2527286713
0.0849745324 -0.0826454904 -0.2467696860
0.1126333458 -0.1071911155 -0.2497954897
0.0951425657 -0.0711856708 -0.2485227585
0.1255241632 -0.0533210635 -0.2913832068
0.0386112931 -0.0697399729 -0.2600707540
0.1364980977 -0.0774063611 -0.2520095916
0.1554116495 -0.0799240219 -0.2597903143
0.1530434555 -0.1269866597 -0.2610234879
0.1074803046 -0.0999329652 -0.2476212208
0.1596115292 -0.1057402341 -0.2600853364
0.1317435021 -0.1102215910 -0.2542043071
0.1619328944 -0.0559175306 -0.2865629614
0.1185046457 -0.0980064058 -0.2538399023
0.1588160699 -0.1026913498 -0.2607410671
0.1149591676 -0.1049414181 -0.2474244225
0.1624357184 -0.0567551694 -0.2789829812
0.1586973524 -0.0981117057 -0.2604973518
0.1797040900 -0.0656314112 -0.2891264871
0.1451710779 -0.1125924467 -0.2572963594
0.1041188754 -0.1047695543 -0.2466739172
0.1379762121 -0.1440991282 -0.2557171850
0.1302584526 -0.1101242632 -0.2534555398
0.1822929095 -0.0868979840 -0.2908958682
0.0615852265 -0.0949647348 -0.2442749969
0.0542628251 -0.0772107001 -0.2425104964
0.0581717972 -0.0624836015 -0.2469118770
0.0348051817 -0.0780637299 -0.2595533744
0.1051923756 -0.0927515516 -0.2484866206
0.0638333302 -0.0717931773 -0.2422376295
0.0576756546 -0.0722382400 -0.2421627333
0.0923969499 -0.0583008140 -0.2519617133
0.1098175179 -0.0568020588 -0.2569528443
0.0604802705 -0.0595373112 -0.2487805386
0.0751993593 -0.0588897715 -0.2497458515
0.1645206789 -0.0546682208 -0.2941040604
0.0805533799 -0.0868396171 -0.2458704191
0.1267722867 -0.0907263011 -0.2533547885
0.0930398284 -0.0902257161 -0.2439238489
0.1123500201 -0.0876761951 -0.2497265216
0.1276026145 -0.0921686143 -0.2519056723
0.1401788152 -0.0927013141 -0.2545520746
0.1302227594 -0.1004239147 -0.2520008976
0.1252722100 -0.0949285302 -0.2520399129
0.1662269236 -0.0582736847 -0.2831843921
0.0565678650 -0.0943153285 -0.2494051073
0.1566653687 -0.0654282920 -0.2596117817
0.1221427559 -0.0545020548 -0.2873573266
0.1053351665 -0.0801700699 -0.2490070745
0.0778628712 -0.0801087001 -0.2438180300
0.1193449066 -0.1272648068 -0.2514230560
0.1225743426 -0.1354810468 -0.2493705514
0.1352091970 -0.0700196813 -0.2550197786
0.1052132788 -0.1102240137 -0.2487466059
0.1064988776 -0.0556365103 -0.2803690474
0.0917532274 -0.0875687715 -0.2444604499
0.1002530136 -0.0800841215 -0.2489571432
0.1296408582 -0.1102338958 -0.2517130161
0.0630524320 -0.0898583813 -0.2422508458
0.1775282211 -0.0820250108 -0.2717267743
0.1619752944 -0.0500589497 -0.2946596146
0.1101170348 -0.0626181572 -0.2473444515
0.1689831145 -0.0612398629 -0.2714897161
0.1834366864 -0.0675177864 -0.2943309280
0.1780379763 -0.0602800266 -0.2963277258
0.1459399846 -0.1263705471 -0.2534737896
0.1805810581 -0.0728445590 -0.2772848602
0.1717868000 -0.0608939491 -0.2791031599
0.0601203655 -0.0867615356 -0.2422118494
0.1000420858 -0.0774250260 -0.2490509472
0.0724801868 -0.0827791169 -0.2424854413
0.0509107150 -0.0750484243 -0.2466423064
0.1299480331 -0.0804293325 -0.2520744631
0.0927313457 -0.0950311549 -0.2466984279
0.1649537757 -0.0776675828 -0.2642073929
0.1407918525 -0.1224630445 -0.2564245386
0.1375082160 -0.1000091713 -0.2540096387
0.1548837723 -0.0705319669 -0.2599108257
0.1456503123 -0.0777098238 -0.2594770938
0.1138871106 -0.1049821091 -0.2490741262
0.1113260090 -0.1082470268 -0.2509925365
0.0546727424 -0.0654540879 -0.2430885522
0.0626045580 -0.0546333916 -0.2737991699
0.0630909491 -0.0646697400 -0.2416755533
0.1469373209 -0.0781368923 -0.2580544301
0.1306451868 -0.1248408518 -0.2525174712
0.1694444515 -0.0783884730 -0.2657100982
0.0879777072 -0.0558886503 -0.2655142039
0.1221685387 -0.0980239551 -0.2491501781
0.0648674575 -0.0555257434 -0.2667206422
0.0583425063 -0.1016196209 -0.2501325484
0.1178412528 -0.1397042724 -0.2486099924
0.0928596330 -0.0904648464 -0.2465597645
0.1477710381 -0.0775946565 -0.2596127391
0.0574166328 -0.0752707459 -0.2429702580
0.0625561249 -0.0753305812 -0.2425165883
0.1099291110 -0.1152576865 -0.2490605692
0.0979429192 -0.0901139702 -0.2464922801
0.1269500873 -0.0562936216 -0.2641304886
0.1250907141 -0.0562350454 -0.2645404909
0.1072608771 -0.1151944025 -0.2485480213
0.1270181537 -0.0899437070 -0.2510784268
0.1008138337 -0.0701925760 -0.2470853854
0.1748626626 -0.0923764896 -0.2808589872
0.1327981940 -0.0975603370 -0.2523719522
0.1404142271 -0.1399531957 -0.2543442220
0.1000968911 -0.0549423383 -0.2819062352
0.0604367368 -0.0745142624 -0.2433089614
0.1675294634 -0.0700086321 -0.2626147813
0.1595232957 -0.0558353238 -0.2866372669
0.1311117868 -0.0982076320 -0.2527030116
0.1529363501 -0.1247136388 -0.2593025284
0.1601190961 -0.0752627913 -0.2615808501
0.0925382897 -0.0651286691 -0.2428900003
0.1257814360 -0.1026073385 -0.2521204382
0.1327780136 -0.1425346849 -0.2534111106
0.0948510671 -0.0607367588 -0.2443512153
0.0535238700 -0.0807919417 -0.2456947758
0.0598257755 -0.0591543023 -0.2512186846
0.1802903303 -0.0781922533 -0.2765495754
0.1203179089 -0.1199350376 -0.2512119410
0.1478412370 -0.0551267627 -0.2911920248
0.1605869126 -0.0799850999 -0.2589805716
0.0537526850 -0.0647830211 -0.2473234890
0.1015494102 -0.0566483311 -0.2583356576
0.0488102361 -0.0944631964 -0.2526908865
0.1180955167 -0.0975594691 -0.2487667219
0.1450351903 -0.0573372692 -0.2643769653
0.1849617662 -0.0781223731 -0.2867804451
0.1473042308 -0.0571135374 -0.2636817488
0.0782733326 -0.0946691411 -0.2435836662
0.1689480911 -0.0655703119 -0.2625678816
0.0544050894 -0.0565289287 -0.2640897304
0.1103556255 -0.0548245165 -0.2847074851
0.1078297790 -0.0750821149 -0.2498242209
0.0866948389 -0.0825573822 -0.2465312251
0.1239916309 -0.0544455642 -0.2908717977
0.1626658478 -0.0700078905 -0.2622543128
0.0943776638 -0.0950962735 -0.2445223868
0.1286828676 -0.1376048788 -0.2510754564
0.1531238775 -0.0753855166 -0.2571899187
0.1322322711 -0.1078476198 -0.2527050376
0.0804218694 -0.0747518414 -0.2449015159
0.1397252919 -0.1376524967 -0.2547531544
0.0987600613 -0.0970721016 -0.2444902213
0.0502118422 -0.0844602070 -0.2463698804
0.1596488085 -0.0515291475 -0.2986581789
0.1244968649 -0.0545253782 -0.2875756119
0.1526602984 -0.1002844774 -0.2585771445
0.0756832212 -0.0577712040 -0.2575360090
0.1496381157 -0.0559337251 -0.2720754935
0.0994332749 -0.1074118777 -0.2486217675
0.1423794796 -0.0773007347 -0.2544545692
0.1203889837 -0.0676026212 -0.2511786151
0.1072151498 -0.0561185604 -0.2555798133
0.1576942202 -0.1103712696 -0.2598155197
0.0966615659 -0.0550459784 -0.2755231623
0.1579967445 -0.0603927487 -0.2618233469
0.0577130889 -0.0872410616 -0.2445237668
0.1306406317 -0.1310453507 -0.2499757523
0.0489686423 -0.0843304265 -0.2446794385
0.0951679876 -0.0568893412 -0.2616210547
0.1767134220 -0.0531028610 -0.2947931107
0.1379309332 -0.1103184664 -0.2543660186
0.1583505458 -0.0489859430 -0.2962146534
0.0691698325 -0.0591234485 -0.2470878398
0.1578448949 -0.0577669638 -0.2639253341
0.0626783378 -0.0993521609 -0.2444388899
0.1127615276 -0.1028377959 -0.2529051442
0.1567098174 -0.0536036871 -0.2983053163
0.0848736676 -0.0719881562 -0.2462868403
0.0571629123 -0.0566741578 -0.2615236595
0.0652349808 -0.0552225319 -0.2715120240
0.0524223394 -0.0976497919 -0.2546935202
0.1099500958 -0.0699792352 -0.2497666874
0.0550966956 -0.0672382771 -0.2421341053
0.1274391571 -0.1122464857 -0.2517806372
0.1075879411 -0.1052782670 -0.2493837039
0.0553663000 -0.0724941827 -0.2439992875
0.1126082577 -0.1297568720 -0.2493640944
0.0706324336 -0.0930495438 -0.2440005261
0.1120174109 -0.0594290554 -0.2511426622
0.0494808524 -0.0671095701 -0.2493196349
0.0403001996 -0.0847997313 -0.2541367717
0.1052746804 -0.1128515923 -0.2496798476
0.1499917694 -0.0999876260 -0.2571753860
0.1513877460 -0.1151955320 -0.2582070860
0.1840328350 -0.0709784278 -0.2916004096
0.0984609449 -0.0947467606 -0.2471017346
0.0825288817 -0.0576803721 -0.2579510212
0.0633107475 -0.0922817622 -0.2422110822
0.1734747887 -0.0905011818 -0.2781917155
0.1727187201 -0.0884210790 -0.2718618667
0.0799918115 -0.0572997065 -0.2589054133
0.1102549107 -0.0771550753 -0.2492638190
0.1276797204 -0.0829032416 -0.2534639707
0.0942020516 -0.0820302316 -0.2450526469
0.1645496817 -0.0597221299 -0.2642275448
0.1623764541 -0.0954754035 -0.2616703263
0.1527125178 -0.0952408194 -0.2585904472
0.1649399421 -0.0875728052 -0.2644771396
0.0605540983 -0.0554281212 -0.2672734708
0.0651460646 -0.0648508100 -0.2393472897
0.1376586932 -0.1021660620 -0.2544166290
0.1041994672 -0.0649822528 -0.2475846445
0.1654028606 -0.0947019187 -0.2662346557
0.0817884906 -0.0697458652 -0.2449202856
0.0972286442 -0.0584977546 -0.2505306656
0.1068132732 -0.0556906744 -0.2641052480
0.1441092866 -0.0568215304 -0.2741832198
0.0484852715 -0.1018845091 -0.2613997489
0.1451187072 -0.1075588708 -0.2566534655
0.1053726341 -0.0578771392 -0.2517330623
0.1251004288 -0.1354254350 -0.2491230688
0.1477586141 -0.1150328342 -0.2576841078
0.0507407896 -0.0954721645 -0.2536782026
0.0879482852 -0.0576919763 -0.2571561726
0.1816515384 -0.0635731226 -0.2954526222
0.1064796037 -0.0554346198 -0.2729330443
0.1429931472 -0.0563674691 -0.2761347202
0.1396176247 -0.1074716373 -0.2511129753
0.1580061801 -0.0954400897 -0.2587325647
0.1213854062 -0.1373255895 -0.2486689078
0.1629340288 -0.0776907712 -0.2618375057
0.1096608266 -0.0876187496 -0.2478581071
0.1820819693 -0.0758618925 -0.2813685064
0.1617342817 -0.0603514355 -0.2594030576
0.0690847728 -0.0558586054 -0.2688485555
0.1252965066 -0.0779281865 -0.2519199524
0.1229299326 -0.1299590791 -0.2496832445
0.0889982444 -0.0555886477 -0.2704507047
0.0974151218 -0.0802858964 -0.2470437722
0.1227629430 -0.1004457897 -0.2511326961
0.1490885758 -0.0560955798 -0.2754305293
0.0551935751 -0.0819020378 -0.2423808707
0.0352818705 -0.0842435583 -0.2580743730
0.0738489027 -0.0920604955 -0.2433023717
0.0448761322 -0.0587963797 -0.2706592083
0.0480152084 -0.0920308752 -0.2515981843
0.1495919630 -0.0777401644 -0.2590141851
0.1103540286 -0.1318985522 -0.2503180802
0.0930394671 -0.0993925022 -0.2452514571
0.1300771742 -0.0675081175 -0.2515763023
0.1326191093 -0.0750599494 -0.2517052893
0.0644930537 -0.0565881159 -0.2585369056
0.1656987099 -0.0979943048 -0.2713170657
0.1574897220 -0.0701151220 -0.2600070780
0.1333495326 -0.0542611034 -0.2865366221
0.0676192942 -0.0567225682 -0.2590228639
0.0877740890 -0.0946599278 -0.2448292555
0.1601613955 -0.0704095695 -0.2592320145
0.1575782337 -0.0875776829 -0.2596346138
0.1167284410 -0.0546837248 -0.2907901052
0.1011201896 -0.1567000940 -0.2583431861
0.1727670402 -0.0904090368 -0.2745290891
0.1325644163 -0.1123357778 -0.2539776283
0.1513149429 -0.1126452973 -0.2585908999
0.1453520139 -0.1401324400 -0.2569248379
0.0700775477 -0.0746986696 -0.2415501937
0.1578020030 -0.0751307022 -0.2596139067
0.0823984294 -0.0647012416 -0.2448151857
0.0597047308 -0.0769547139 -0.2401237371
0.0747587048 -0.0699617602 -0.2443723306
0.1051547430 -0.0902722317 -0.2490381473
0.1018765095 -0.0898074773 -0.2492465118
0.0522875153 -0.0776470527 -0.2436515689
0.1339779804 -0.0723875803 -0.2514484814
0.1652292994 -0.0929096711 -0.2663378491
0.1546590123 -0.0600508908 -0.2608968404
0.1225417441 -0.0898641296 -0.2523612379
0.1489708275 -0.1415658593 -0.2595934272
0.1627311035 -0.0798811947 -0.2614236731
0.1464240134 -0.1352740671 -0.2567361508
0.1375845830 -0.0721397584 -0.2545369573
0.0896355882 -0.0666095689 -0.2428018749
0.1349149084 -0.1006560095 -0.2536643864
0.0817647201 -0.0901532955 -0.2464194139
0.1679724788 -0.0483688909 -0.2924928130
0.0704020386 -0.0721970275 -0.2435166250
0.1643554121 -0.0810528855 -0.2595401620
0.1205085055 -0.1296404267 -0.2489644657
0.1253389745 -0.0524723132 -0.2944558003
0.1085380751 -0.1042551154 -0.2526536728
0.1448196141 -0.1104367064 -0.2562905097
0.1449760598 -0.1254141874 -0.2583754216
0.1427503857 -0.0596722266 -0.2586138651
0.1286108135 -0.1354779227 -0.2516080238
0.1454861182 -0.1251473903 -0.2576134608
0.1765975851 -0.0531919790 -0.2966844665
0.1400922720 -0.0631939252 -0.2513166133
0.1679437826 -0.0943973029 -0.2716351572
0.1216150508 -0.0567025759 -0.2624622242
0.1246901263 -0.0560935918 -0.2610077899
0.0798674403 -0.0566787398 -0.2634559673
0.1591158324 -0.0558970157 -0.2814649610
0.1426367679 -0.1100800699 -0.2561718751
0.1228535861 -0.0724667974 -0.2523729690
0.1655713281 -0.0925611149 -0.2636749440
0.1817532794 -0.0734490633 -0.2809224218
0.0724908747 -0.0849401224 -0.2424578853
0.1274489525 -0.0544985317 -0.2867912524
0.1467547140 -0.1100788568 -0.2581201288
0.1381074489 -0.0574769388 -0.2641088116
0.1814940617 -0.0853640380 -0.2839956300
0.1325882602 -0.1275829084 -0.2539173611
0.1126684810 -0.0657769574 -0.2516240029
0.1606408205 -0.0653080896 -0.2599835208
0.0903060154 -0.0703416581 -0.2466953160
0.0827193087 -0.0850162889 -0.2458750479
0.1669211126 -0.0899809675 -0.2660542773
0.1627045643 -0.0874928383 -0.2617154028
0.1486296803 -0.0924377963 -0.2582395077
0.1304361327 -0.1203388372 -0.2523080134
0.1366306580 -0.1172854415 -0.2526146198
0.1334772143 -0.1329594338 -0.2538781174
0.0641057681 -0.0896444588 -0.2437061126
0.1152642177 -0.1276420904 -0.2495685019
0.1827692526 -0.0856618400 -0.2888380319
0.1408429827 -0.0977513870 -0.2558256247
0.1375856287 -0.1350247950 -0.2544129059
0.1201868555 -0.1176369234 -0.2509600096
0.0941096501 -0.0548768210 -0.2755399975
0.1728432033 -0.0650462158 -0.2711464466
0.1196613141 -0.0567013332 -0.2614620169
0.1364434182 -0.0568823644 -0.2710161987
0.0857070461 -0.0541240051 -0.2804326415
0.0878420466 -0.0875873065 -0.2471557946
0.0701862215 -0.0774583401 -0.2417726625
0.1628385033 -0.0624062425 -0.2615765757
0.0576746852 -0.0770996533 -0.2437152822
0.1748394316 -0.0601537530 -0.2948777174
0.0771084280 -0.0851255289 -0.2425164266
0.1568109328 -0.0562413270 -0.2742677888
0.0714805027 -0.0849627595 -0.2402106831
0.1073975166 -0.1132322972 -0.2476997276
0.1808018622 -0.0756646324 -0.2769414976
0.1055752970 -0.1080111340 -0.2477486879
0.0826623360 -0.0749579326 -0.2447371078
0.1123981174 -0.0899144751 -0.2495352498
0.0855154840 -0.0747054820 -0.2447354763
0.0590659130 -0.0556047560 -0.2687976283
0.1740506778 -0.0634227392 -0.2737037625
0.1290601939 -0.1006579474 -0.2559942007
0.1147096753 -0.0736092702 -0.2521297932
0.1372062996 -0.0802425232 -0.2544615640
0.0715897269 -0.0557793898 -0.2680077345
0.0581641809 -0.1102211929 -0.2494945219
0.0574729786 -0.0624926859 -0.2485984895
0.1492058784 -0.0709409043 -0.2580196261
0.0794861004 -0.0898917555 -0.2439989461
0.1542111016 -0.1151404461 -0.2587533904
0.0600080319 -0.1000725284 -0.2474577830
0.1239315877 -0.0555988150 -0.2790062988
0.1426953870 -0.0776240279 -0.2563111639
0.1526688348 -0.1314860528 -0.2585829755
0.1604287280 -0.0678764213 -0.2593204585
0.1120465645 -0.0558119517 -0.2618878751
0.1208818289 -0.0564144368 -0.2638700544
0.1413678519 -0.0612154073 -0.2517712102
0.1720136438 -0.0552700798 -0.2944629261
0.1139493266 -0.1001297229 -0.2511236491
0.1369757413 -0.0543233058 -0.2941510017
0.1470881253 -0.1149376879 -0.2585023244
0.0496776426 -0.0899000726 -0.2495025996
0.1646480037 -0.0802669402 -0.2639639972
0.1272694191 -0.0652950723 -0.2519034648
0.1477849371 -0.0553960169 -0.2886474246
0.1880320577 -0.0771759833 -0.2896637475
0.1508365089 -0.1300595335 -0.2593357689
0.1199833718 -0.1223064864 -0.2511543802
0.1653489217 -0.0626442263 -0.2638458455
0.1344224811 -0.0600072257 -0.2519589365
0.0770548172 -0.0611800700 -0.2422578856
0.0999616084 -0.0875811850 -0.2481981263
0.1103915650 -0.0649819350 -0.2471012734
0.1327379905 -0.0603456921 -0.2517490889
0.0745371625 -0.0578774206 -0.2518434862
0.0674515417 -0.0775842998 -0.2401186684
0.1578630591 -0.0779038310 -0.2595290890
0.0878058730 -0.0802964730 -0.2446317810
0.1477425017 -0.0656606560 -0.2567577219
0.1699987702 -0.0729537639 -0.2640038418
0.0749582052 -0.0598791037 -0.2436730787
0.1772109511 -0.0656425844 -0.2792153929
0.0886889318 -0.0905259925 -0.2466527716
0.0751578563 -0.0845180854 -0.2435002366
0.1227987750 -0.1199441037 -0.2515366202
0.1202595480 -0.1074885391 -0.2496193303
0.1426329075 -0.1227378745 -0.2564970450
0.1814709846 -0.0707461243 -0.2856648444
0.0608179312 -0.0927738793 -0.2444804133
0.1410990332 -0.0557979527 -0.2884488041
0.1553559880 -0.1151456506 -0.2572512543
0.1604852985 -0.0597196925 -0.2592560343
0.1666764648 -0.0494987462 -0.3010616724
0.1827895890 -0.0733463194 -0.2873632693
0.1492562166 -0.0928871912 -0.2583122450
0.0693678166 -0.0674331418 -0.2401017915
0.1002234753 -0.0951841704 -0.2469688636
0.1703281694 -0.0750689332 -0.2639668617
0.1871402559 -0.0731530289 -0.2948621047
0.1182011403 -0.0858191140 -0.2484162897
0.1835667640 -0.0743318200 -0.2890652418
0.0701892892 -0.0696924615 -0.2418521251
0.1275672648 -0.1195516844 -0.2523319127
0.1153058221 -0.0749055955 -0.2495094260
0.1434900777 -0.0555693754 -0.2895931240
0.0690490782 -0.0700308409 -0.2402470023
0.0924719005 -0.0779744251 -0.2448908920
0.1778732039 -0.0858573469 -0.2770366066
0.1301300675 -0.1374945194 -0.2495733798
0.0754455822 -0.0900960178 -0.2441039453
0.0506059878 -0.0582502788 -0.2642912065
0.1044975440 -0.0705003214 -0.2486824830
0.1668396304 -0.0597947172 -0.2829553217
0.1700934380 -0.0650271265 -0.2646029390
0.1654099006 -0.0597533131 -0.2690118683
0.1047112445 -0.0561065633 -0.2546719145
0.1272619723 -0.0565638935 -0.2600534199
0.0755052737 -0.0821891802 -0.2436325965
0.1840770377 -0.0754866574 -0.2893483251
0.1765191165 -0.0633381444 -0.2867455909
0.0507941350 -0.0769062419 -0.2450062904
0.1701855035 -0.0651679582 -0.2690786736
0.0778398384 -0.0820841190 -0.2448691132
0.1325980547 -0.0953782329 -0.2536699053
0.1859650505 -0.0878276827 -0.2959344383
0.1549488017 -0.0926678770 -0.2596974395
0.1352584607 -0.0949092874 -0.2534823307
0.1099633842 -0.0925311989 -0.2486636530
0.0978847519 -0.0921949595 -0.2455956787
0.1248906420 -0.0951240085 -0.2535646196
0.1292681117 -0.1152171791 -0.2501108109
0.1299582324 -0.0995465956 -0.2543754489
0.0540740396 -0.0842729486 -0.2423664867
0.0941248388 -0.0576561268 -0.2546546237
0.1883887309 -0.0784958931 -0.2913416938
0.1276339564 -0.1152373253 -0.2515961431
0.1325481422 -0.1150208879 -0.2522708774
0.1250321474 -0.0548602082 -0.2841677486
0.0535836212 -0.1074311233 -0.2568787669
0.0891568967 -0.0873837493 -0.2451990319
0.1100828943 -0.0976959042 -0.2521128054
0.1351041645 -0.1076649353 -0.2528498173
0.1250113157 -0.1076490754 -0.2516219883
0.1453239936 -0.0543902102 -0.2940391778
0.1176248700 -0.0851567126 -0.2517979559
0.1423948034 -0.0804597322 -0.2564679292
0.0902687392 -0.0584696042 -0.2522225716
0.1747090595 -0.0635109201 -0.2763744154
0.0871292407 -0.0565734113 -0.2663361281
0.1507047415 -0.1128312821 -0.2568210165
0.0894913072 -0.0896706306 -0.2454171937
0.1503161673 -0.0579324207 -0.2587939755
0.1621003623 -0.0644228531 -0.2633831164
0.1398609088 -0.1148391658 -0.2548792889
0.0903613365 -0.0725898396 -0.2464959624
0.1246470574 -0.0778561576 -0.2551262253
0.1519456108 -0.0578213908 -0.2564151082
0.0528274960 -0.0700565181 -0.2441154021
0.1026313286 -0.0872642042 -0.2469319149
0.0607403835 -0.0876821369 -0.2440403708
0.0602647420 -0.0700968999 -0.2420273628
0.1092067949 -0.1160006797 -0.2476374996
0.0843036984 -0.0558528848 -0.2652909643
0.0526956071 -0.0618256935 -0.2538629470
0.1229255575 -0.0830719371 -0.2490340740
0.1647961861 -0.0513425378 -0.2944159792
0.1394599512 -0.0774341042 -0.2548578589
0.1478389638 -0.0628065378 -0.2567748734
0.0913069183 -0.0990070129 -0.2450113870
0.0829285851 -0.0650685445 -0.2458936521
0.1122818677 -0.0753633348 -0.2494326598
0.0357860782 -0.0753556329 -0.2597101850
0.0854487289 -0.0649684697 -0.2466271792
0.0903072659 -0.0801199305 -0.2458673561
0.1276975313 -0.0721667961 -0.2523707797
0.0565274041 -0.1095834751 -0.2519310104
0.0744298029 -0.0559442618 -0.2639034451
0.0927894635 -0.0700540064 -0.2467532656
0.1650989205 -0.0752387767 -0.2639878194
0.0998976000 -0.0727318316 -0.2469341124
0.1365510595 -0.1053476290 -0.2524199663
0.1298633575 -0.0750529382 -0.2558002477
0.1254914384 -0.1274063475 -0.2523457035
0.1612159509 -0.0525923611 -0.2913976171
0.1231982281 -0.1271180285 -0.2507762072
0.1276382802 -0.1276204127 -0.2520250715
0.1351327217 -0.0545886787 -0.2867979200
0.1377153731 -0.0853087705 -0.2534396748
0.0975077711 -0.0584829710 -0.2519242167
0.1332104547 -0.1376621354 -0.2516816654
0.0346346303 -0.0915059691 -0.2618138105
0.1865594741 -0.0761991940 -0.2893733342
0.1123826802 -0.1222565174 -0.2480804473
0.0745346248 -0.0612608120 -0.2428664863
0.1848576821 -0.0585162282 -0.2909469207
0.1129846735 -0.1075353165 -0.2469048335
0.1701959676 -0.0720093305 -0.2624155507
0.1230290031 -0.1428540692 -0.2489401240
0.0532082990 -0.0596687819 -0.2586201030
0.1204961464 -0.1421224326 -0.2468717694
0.0585221613 -0.1075148995 -0.2497367246
0.1433578543 -0.0899765283 -0.2564684652
0.1329185292 -0.0674538203 -0.2566985935
0.1400993414 -0.1175520861 -0.2538451778
0.1045885208 -0.0549542177 -0.2846909384
0.0697396802 -0.0591438453 -0.2501068006
0.1201382609 -0.0583459162 -0.2517463660
0.1273651450 -0.0624481445 -0.2492281366
0.1525386022 -0.0600108572 -0.2587854243
0.1304491839 -0.0653385398 -0.2541417866
0.1634341914 -0.0975582633 -0.2614599573
0.0384209193 -0.0838151127 -0.2551891804
0.1438243306 -0.1230274127 -0.2586372124
0.1350803820 -0.0647199010 -0.2540448579
0.1132107486 -0.0748850282 -0.2475041749
0.0975131105 -0.0849859299 -0.2471090164
0.0472356278 -0.0999500911 -0.2590847662
0.1077391117 -0.0823129445 -0.2472776970
0.0553761922 -0.0797008090 -0.2422863444
0.0826197773 -0.0626395165 -0.2446117129
0.1226603228 -0.0675024152 -0.2498314421
0.1502612514 -0.1078201145 -0.2588286553
0.1360476303 -0.1221981122 -0.2542871506
0.1479834020 -0.0540091470 -0.2965891659
0.1365409092 -0.0615839801 -0.2490184952
0.0803958213 -0.0951019447 -0.2444641813
0.1001646044 -0.0971459541 -0.2473972742
0.0648205929 -0.0557264605 -0.2696520952
0.1041051780 -0.0546289535 -0.2916912202
0.1124050488 -0.1200144716 -0.2475756213
0.1309352158 -0.1403253921 -0.2514201066
0.0991404001 -0.0552346791 -0.2743797661
