-0.0800773421 -0.1028060416 -0.6865582128
-0.0171562722 -0.0929322098 -0.7034032858
-0.0053215808 -0.0854273698 -0.7127359061
-0.0174369807 -0.1565479756 -0.6598065743
-0.0274331898 -0.1110054194 -0.6500679764
0.0371962265 -0.1306823839 -0.6585344056
-0.0024760593 -0.1366987703 -0.6379143194
-0.0768102072 -0.1087294854 -0.6682397425
-0.0499432444 -0.1338613760 -0.6670430742
-0.0168886567 -0.1288900226 -0.6543539166
0.0429286677 -0.0909014032 -0.6785676487
0.0072521070 -0.1395482883 -0.6611264215
-0.0861997559 -0.1065456921 -0.6905994373
-0.0205383043 -0.1360959881 -0.6428694059
-0.0146828683 -0.1296261010 -0.7631635848
-0.0670987447 -0.0989837197 -0.6660353849
-0.0764896871 -0.1101397409 -0.7221835799
-0.0681113079 -0.1179313511 -0.6613902450
0.0167945393 -0.1062380873 -0.6400363177
0.0492325316 -0.1031999843 -0.6852713221
0.0375898597 -0.0990315713 -0.6804926511
-0.0238293400 -0.0706237293 -0.7419480700
-0.0172210913 -0.1365110576 -0.6564413309
-0.0262062533 -0.0865219242 -0.7028149288
0.0479045106 -0.0918469140 -0.6884484887
-0.0598606851 -0.0942906825 -0.7059926646
0.0330563559 -0.1359132903 -0.6458624121
0.0076371833 -0.1592967433 -0.6638110102
0.0095003610 -0.0836500682 -0.7046020271
0.0222235775 -0.1090070856 -0.6451380403
-0.0161045477 -0.1663821379 -0.6618793458
-0.0370049395 -0.1271395426 -0.7703865416
-0.0382404838 -0.1553934028 -0.6772252807
0.0258626363 -0.1015774401 -0.6448286412
0.0346700485 -0.1202932667 -0.6443742610
-0.0248779957 -0.0913841023 -0.6750415560
0.0096594850 -0.1280019879 -0.6540724039
0.0179635708 -0.1539875980 -0.6568559832
-0.0268809844 -0.1395300584 -0.6545353800
-0.0046975449 -0.1309109160 -0.6580106097
0.0395529957 -0.0890989594 -0.6728814542
0.0194664737 -0.1064718225 -0.6401632533
-0.0868520339 -0.1033676122 -0.6839138285
-0.0302291956 -0.1487581666 -0.6610610465
-0.0549094437 -0.0937086565 -0.7073562505
0.0497289929 -0.0773016883 -0.7107258234
-0.0450969343 -0.1412845531 -0.6682594421
0.0311726161 -0.1469202690 -0.6466083396
0.0293262673 -0.1349916477 -0.6556983073
0.0454287219 -0.1234953183 -0.6602449813
-0.0026721736 -0.0883423624 -0.6643763692
-0.0006969561 -0.0843103639 -0.6557242041
0.0198639426 -0.1237144470 -0.6416213810
-0.0694446839 -0.0970784605 -0.7174209069
-0.0700474828 -0.1240174919 -0.6598818600
-0.0715671413 -0.0978534647 -0.6932416731
-0.0948243867 -0.1082555021 -0.7328046982
0.0117789721 -0.0861053589 -0.7045207126
0.0089421622 -0.0911992375 -0.7460685118
0.0040706999 -0.1416748280 -0.6666033491
-0.0095014416 -0.1031634151 -0.6485484643
-0.0345878255 -0.0810452824 -0.7395017277
-0.0692986340 -0.1714701594 -0.6696130366
0.0021530857 -0.1164637730 -0.6454314291
0.0243908804 -0.1285132084 -0.6404667256
-0.0495914958 -0.1386252958 -0.6662798900
0.0019774329 -0.0933701100 -0.7466699895
-0.0418617793 -0.1264377744 -0.6542605117
-0.0469826675 -0.0898884734 -0.7390627193
0.0673010961 -0.1003040294 -0.7048242909
-0.0905926216 -0.1357374179 -0.6689757518
0.0073829443 -0.1436152541 -0.6640861458
-0.0470414093 -0.1790921874 -0.6830323046
-0.0394938535 -0.0972673539 -0.6555081097
0.0498608119 -0.1061673827 -0.6574647621
0.0354106733 -0.0947593023 -0.7395881023
-0.0185984254 -0.1274363956 -0.6440700796
-0.0019704081 -0.1286052023 -0.6571365993
-0.0064143505 -0.0935459418 -0.7208986520
0.0338597421 -0.1374844944 -0.6571528689
0.0251140225 -0.0917620763 -0.6531752214
-0.0648162842 -0.0939368411 -0.6692880671
0.0171608264 -0.1502723946 -0.6560586360
-0.0941044399 -0.1039210938 -0.6914604577
-0.0317864822 -0.0938642831 -0.6920323874
-0.0574874943 -0.0992794378 -0.6994440425
-0.0038800760 -0.1442000666 -0.6352811944
-0.0154509690 -0.1116734314 -0.6477234618
0.0260162887 -0.0987961094 -0.6550587481
-0.0626176483 -0.1084798904 -0.6621097718
0.0508687978 -0.0868504533 -0.7267079530
-0.0273903286 -0.1214019577 -0.6493164807
-0.0548231275 -0.0862291827 -0.7524045342
-0.0440262211 -0.0992852218 -0.6599952722
0.0547801019 -0.0903947935 -0.7229398699
0.0038104221 -0.1011452238 -0.7483496909
-0.0144470567 -0.1605998576 -0.6551195681
-0.0966799435 -0.1291122119 -0.7512406850
-0.0771741471 -0.1060087387 -0.6672183908
0.0199104518 -0.1403933853 -0.6348370770
0.0078029516 -0.1441968653 -0.6301421280
-0.0323095240 -0.1014596118 -0.6570899249
-0.0699575363 -0.1063175671 -0.6671529583
-0.0073531982 -0.1571263373 -0.6608326435
0.0671253428 -0.1044408474 -0.7250190554
-0.0720518585 -0.1657059528 -0.6705068201
-0.0406912995 -0.0909385199 -0.7013746286
-0.0430376850 -0.1456341420 -0.6619199202
-0.0361978332 -0.0872082507 -0.7376461282
-0.0067085617 -0.0981078173 -0.6482735932
-0.0585369154 -0.1038606507 -0.7344153842
-0.0221828483 -0.1140211336 -0.6478723288
0.0642585524 -0.1045914370 -0.6937394249
0.0032467460 -0.1144873838 -0.6301578242
-0.0625186960 -0.0980738837 -0.6796725125
0.0556654511 -0.0841402850 -0.7048586201
-0.0116443983 -0.0881510051 -0.7095839003
-0.0193903744 -0.0884907904 -0.6626123526
-0.0597247949 -0.1429439362 -0.6651016509
-0.0672553026 -0.1311393029 -0.6577991640
-0.0842469191 -0.1417725116 -0.6575631380
-0.0255686698 -0.0954478853 -0.7525361605
-0.0216424404 -0.0974230107 -0.7531895347
0.0215511066 -0.1503657793 -0.6473155136
-0.0746458433 -0.1048266171 -0.7149135450
-0.0825816308 -0.1140908886 -0.7421843348
-0.0563414343 -0.0993173289 -0.7172566622
-0.0455541007 -0.1287661376 -0.6589646737
-0.0333949472 -0.0931211873 -0.7207715896
-0.0394290820 -0.1464046515 -0.6697852752
-0.0423514025 -0.0931628187 -0.6703987470
-0.0770702912 -0.1161148485 -0.6650351402
0.0424387171 -0.0931591879 -0.6862113588
-0.0874450494 -0.1028330149 -0.7319215508
-0.0238267321 -0.1170217227 -0.6370948876
0.0188745681 -0.0838534542 -0.6992664880
-0.0662824880 -0.1340217003 -0.6629614284
-0.0569098016 -0.1037315219 -0.6623532662
-0.0800162991 -0.1074414108 -0.7325814495
-0.0377599597 -0.1761250553 -0.6819343898
0.0006654437 -0.0867980146 -0.6917481805
-0.0172213101 -0.0921956151 -0.6992667068
-0.0014803048 -0.1198181468 -0.6487337679
0.0541417596 -0.0837627278 -0.6993296611
-0.0176542227 -0.1061856093 -0.6501791551
-0.0625265504 -0.0977943672 -0.6856014859
-0.0902315033 -0.1214255723 -0.7501390887
-0.0394471797 -0.1192919256 -0.6502882392
-0.0492456917 -0.0949373227 -0.6883296062
0.0691449165 -0.1045416482 -0.7071310303
0.0379125327 -0.0807386169 -0.6638759113
0.0006210436 -0.0853536728 -0.6668686802
-0.0474578248 -0.1399113904 -0.6483305146
-0.0591271555 -0.1708340068 -0.6714445280
-0.0022749289 -0.0844823156 -0.6650129083
-0.0574243752 -0.0987939833 -0.6625965680
-0.0046471779 -0.0877969202 -0.6820075910
-0.0723760294 -0.1021072861 -0.6694992111
-0.0508474898 -0.1074725914 -0.7612121528
-0.0456052188 -0.1452356918 -0.6744374563
-0.0769406191 -0.1492967380 -0.6648314343
0.0375537287 -0.1435445401 -0.6503500586
-0.0428491972 -0.0922276000 -0.7043370620
0.0380413612 -0.1535082661 -0.6505164089
-0.0529055289 -0.0963513920 -0.6626333205
-0.0071015341 -0.0906938049 -0.7054454913
-0.0597361775 -0.1215525182 -0.6596820589
0.0030874171 -0.1156928429 -0.6398976696
0.0224885903 -0.1268307716 -0.6425687671
-0.0764630169 -0.1011162136 -0.7478338106
0.0242005835 -0.0989594506 -0.6448864188
-0.0009639300 -0.1239800039 -0.6490461565
0.0549716207 -0.1021215810 -0.7344432704
-0.0890845557 -0.1119338037 -0.7236730506
-0.0472748413 -0.1087800882 -0.6575998198
-0.0232676673 -0.0899497749 -0.7504336338
-0.0597519229 -0.1587317983 -0.6699603995
-0.0331083992 -0.0918270223 -0.6594302441
0.0201424498 -0.1101712252 -0.6421683154
-0.0501253597 -0.1061126407 -0.6597095704
-0.0168411175 -0.0884572844 -0.6619917937
0.0376019208 -0.0853247948 -0.7098416492
0.0144848338 -0.1425429308 -0.6456059793
-0.0824124125 -0.1171912101 -0.7303045565
0.0538773551 -0.0851405265 -0.7204211315
-0.0116711470 -0.0876417084 -0.6715546452
-0.0694391574 -0.1768185947 -0.6696266694
-0.0418143205 -0.1403942532 -0.6692650335
-0.0383228101 -0.1105934009 -0.6530926228
-0.0295531243 -0.0933680792 -0.7517249660
-0.0364863236 -0.1058699785 -0.6571911833
-0.0108957777 -0.0851821137 -0.7198298583
0.0028742383 -0.1534632966 -0.6652413917
-0.0007252923 -0.1107031223 -0.7517809996
-0.0481711925 -0.1713580251 -0.6740232601
-0.0649414987 -0.1656565955 -0.6697827872
0.0392117510 -0.0985057563 -0.6901456125
-0.0025454198 -0.0833691074 -0.6890889177
-0.0434206109 -0.1741450313 -0.6797206807
-0.0185077691 -0.1225083373 -0.7610044917
-0.0887650220 -0.1255962651 -0.7395917077
-0.0146209699 -0.1593001726 -0.6568767295
0.0017497750 -0.1387708650 -0.6661597543
0.0157451919 -0.1414409502 -0.6579069473
-0.0882151050 -0.1122523348 -0.7186759196
-0.0176213311 -0.1562735741 -0.6576374010
-0.0829683646 -0.1016471209 -0.7444689896
0.0024451741 -0.1336003493 -0.6355751190
0.0384585555 -0.0749208218 -0.7226743895
-0.0949132995 -0.1107988825 -0.7415934499
-0.0742315436 -0.1408855328 -0.6622920762
0.0159751493 -0.1172335818 -0.6417301297
0.0077284094 -0.1410294390 -0.6624699441
-0.0871364366 -0.1583532783 -0.6774130307
0.0122959325 -0.1335669160 -0.6548925340
0.0010075902 -0.0858698533 -0.7108424914
-0.0554559467 -0.0987030392 -0.6610496640
0.0020486773 -0.0907053172 -0.6493649748
-0.0675555421 -0.0945512948 -0.7289043233
-0.0075242515 -0.1496231161 -0.6538070618
0.0058702497 -0.1127945891 -0.6407038482
0.0129637336 -0.1126449853 -0.6392516494
0.0095829325 -0.0892290114 -0.6615433578
0.0047295124 -0.1164897064 -0.6446912680
-0.0878378051 -0.1172918990 -0.6843286747
0.0084194764 -0.1465555488 -0.6289741476
-0.0225973931 -0.1637334061 -0.6620850394
-0.0636758116 -0.1366684190 -0.6610792756
-0.0704538915 -0.1012895269 -0.6988738105
-0.0584344466 -0.1204423698 -0.7684949285
0.0053445122 -0.0892971436 -0.6685372995
-0.0121584088 -0.0930114477 -0.7127552966
-0.0490488535 -0.1639531064 -0.6769800157
-0.0855936664 -0.1231595996 -0.6866018322
-0.0025110573 -0.0890341247 -0.6518679639
0.0140343868 -0.1627425379 -0.6705691958
0.0348553737 -0.0890776073 -0.6908855780
-0.0087505646 -0.1609203210 -0.6615427753
0.0245243990 -0.0958463582 -0.7418914986
0.0167930241 -0.0837071879 -0.6862294764
0.0361106496 -0.0737985104 -0.7123012843
-0.0637665080 -0.0972555363 -0.6998799226
0.0052752174 -0.1013454609 -0.6432122737
-0.0773480159 -0.0959480072 -0.7412843332
-0.0469283229 -0.0959278421 -0.6898435397
-0.0323185420 -0.1282700160 -0.6458483984
-0.0871865375 -0.1087714380 -0.6938448406
-0.0893503798 -0.0969540961 -0.6828167370
-0.0045327379 -0.1286631238 -0.6403261401
0.0153918781 -0.0806322946 -0.6630015445
-0.0142789970 -0.0884577876 -0.6821166635
-0.0054481990 -0.0988591086 -0.6254914970
-0.0918097262 -0.1391124098 -0.7650951801
-0.0510895676 -0.1252945691 -0.6459774527
-0.0600885501 -0.1747163261 -0.6738470086
-0.0521331724 -0.1374249924 -0.6500961790
-0.0753017366 -0.1692655832 -0.6723496914
0.0057287170 -0.1277074605 -0.6380325533
-0.0117638258 -0.1185710548 -0.7570962777
-0.0085062197 -0.0909593480 -0.7226236927
0.0668807031 -0.0999759780 -0.6975759243
0.0263119354 -0.1133254146 -0.6385265224
-0.0859450249 -0.1058099913 -0.7016664073
-0.0657537200 -0.0976651556 -0.6906727748
-0.0800837725 -0.1625515819 -0.6712873578
-0.0354867894 -0.1391841111 -0.6456933899
-0.0423817427 -0.1581617168 -0.6702963206
-0.0723522793 -0.1439550521 -0.6626750696
0.0305399097 -0.1227248570 -0.6591361905
0.0010969302 -0.0917525394 -0.7286791336
-0.0871257859 -0.1285237801 -0.6686457051
-0.0772033041 -0.1022071102 -0.7406132866
0.0388938248 -0.0883872484 -0.7411741591
-0.0071196334 -0.0963489787 -0.6495912127
-0.0726707978 -0.0993764290 -0.6824518834
-0.0531116700 -0.1326204019 -0.6652931467
-0.0155535557 -0.0895604585 -0.6875265605
-0.0561432253 -0.1320315653 -0.6628621547
-0.0348636002 -0.1433668654 -0.6624093351
-0.0905179226 -0.1257482872 -0.7496387488
0.0019951831 -0.0833706042 -0.7223382670
-0.0902157542 -0.1315605601 -0.7578198987
-0.0061495313 -0.1389315872 -0.6465152212
0.0260763336 -0.0808910006 -0.6829997730
0.0166690504 -0.1082803724 -0.6373696135
0.0131389530 -0.1277292783 -0.6396261118
-0.0298182007 -0.1032952682 -0.6544992531
-0.0243219975 -0.1016605310 -0.6505306661
0.0151930208 -0.0853705268 -0.7408400199
0.0458174794 -0.0956346378 -0.6809700926
0.0354276170 -0.0841825197 -0.6663021436
-0.0765980261 -0.0993063509 -0.6790086558
-0.0841634574 -0.1176993572 -0.6782433203
-0.0738849799 -0.1760332970 -0.6731779439
0.0174415092 -0.1135084477 -0.6394638538
0.0150191917 -0.0838391660 -0.6881897454
-0.1773152249 -0.0713740873 -0.7436200923
-0.0820045670 -0.1109735067 -0.6668271598
0.0344738098 -0.0782639875 -0.6996854222
0.0407183567 -0.0969765079 -0.6558445321
0.0145815037 -0.0934466173 -0.6441922585
-0.0675564204 -0.1256276919 -0.7695968829
0.0361586058 -0.1147726352 -0.6398136191
-0.0763420721 -0.1112570171 -0.6706490651
-0.1005764024 -0.1223279637 -0.7406040308
0.0226904403 -0.0792657607 -0.7203094087
-0.0329041407 -0.0938589579 -0.6580252238
0.0050769740 -0.0969553083 -0.7467109270
-0.0299535505 -0.0940362986 -0.6621006365
0.0073722123 -0.0887909591 -0.7486192886
0.0284132356 -0.1617914058 -0.6652281716
-0.0392493593 -0.0929810539 -0.6809770251
-0.0484612316 -0.0882595543 -0.7421368328
0.0359954202 -0.0733796431 -0.7302996914
-0.0550975834 -0.1527324499 -0.6571835125
-0.0548861173 -0.0943908991 -0.6719954153
-0.0862709586 -0.1227868081 -0.7540074150
-0.0921836534 -0.1223306134 -0.7334616422
-0.0816793442 -0.1635787860 -0.6717759967
-0.0400652294 -0.0962669351 -0.7040976342
-0.0288239522 -0.0847000216 -0.7456449530
0.0155811387 -0.1187057369 -0.6387255315
0.0374386490 -0.1234819766 -0.6601265132
-0.0290924964 -0.1287985846 -0.6518814313
0.0435295069 -0.1061060106 -0.6499075684
0.0163665172 -0.1391033083 -0.6552410126
0.0384166442 -0.0775867750 -0.7182188550
-0.0373437638 -0.1063379086 -0.6554311314
0.0011350716 -0.1126807772 -0.6405337829
-0.0570445006 -0.1083485261 -0.6599164970
0.0050044590 -0.1311593892 -0.6612585654
-0.0792336097 -0.0931446298 -0.7293133991
-0.0176718687 -0.0967325964 -0.7545044382
-0.0886088322 -0.1222757145 -0.7428477527
-0.0625257716 -0.1089678432 -0.6598102252
0.0225052358 -0.1468020961 -0.6493129435
0.0507549386 -0.0851217550 -0.7243500756
0.0253527210 -0.0732448040 -0.7244597851
-0.0204115741 -0.1310887511 -0.7657780076
-0.0427477429 -0.0900887906 -0.7276104964
-0.0779582290 -0.1253968794 -0.6611173521
-0.0048618952 -0.0862968250 -0.6847539135
-0.0236949054 -0.0806632614 -0.7391125557
-0.0544041845 -0.0895802946 -0.7418478886
0.0211618617 -0.0809275369 -0.7367240228
-0.0786537192 -0.0946107684 -0.6731193566
0.0201022697 -0.1113896149 -0.6365111926
-0.0381522050 -0.0920953064 -0.6989904231
-0.0647324667 -0.1165706716 -0.6596546506
-0.0895885279 -0.1197111199 -0.7458252889
-0.0217188059 -0.1039783910 -0.6524153152
-0.0663969881 -0.0940459699 -0.7230800986
0.0023537842 -0.1010215714 -0.6445113528
-0.0471718938 -0.1033648699 -0.6596031716
-0.0487583265 -0.1206738966 -0.6449274768
0.0430535347 -0.0965826425 -0.6773726225
0.0381438056 -0.1065148355 -0.6502674832
-0.0026653493 -0.0803388971 -0.7366619448
-0.0623207837 -0.1336817774 -0.6569566908
-0.0404664530 -0.0902286310 -0.7368285970
0.0364439635 -0.0918414809 -0.6733699002
-0.0330417652 -0.1334111703 -0.7699368496
-0.1067829883 -0.0920795005 -0.7264549885
0.0293861784 -0.1164689115 -0.7491712160
0.0240030282 -0.1543538840 -0.6477680176
0.0507092072 -0.0903939102 -0.6945228312
-0.0553430202 -0.0990504486 -0.7231010686
0.0405501682 -0.1135559424 -0.6463602817
-0.0642653914 -0.1114155899 -0.6621968003
-0.0218420166 -0.1663828920 -0.6647000476
0.0181695127 -0.0810908680 -0.6547508562
-0.0395187177 -0.0930722453 -0.6652176245
-0.0727200240 -0.1074374010 -0.7072225017
-0.0444870657 -0.0954825680 -0.6548561466
0.0315148977 -0.1457308658 -0.6535095572
-0.0848368400 -0.1542940504 -0.6724539978
-0.0020844303 -0.0900400765 -0.7030413840
0.0053728426 -0.0938663930 -0.6454517047
0.0324865519 -0.1280608709 -0.6485684727
0.0056855849 -0.1298631223 -0.6414974964
-0.0742068763 -0.0936081785 -0.6702346066
-0.0475195248 -0.1207999299 -0.6529283449
-0.0781307687 -0.1607612039 -0.6717092604
0.0019564595 -0.1204961934 -0.6567236828
-0.0799733676 -0.1265592272 -0.7542071977
0.0266731715 -0.1560511494 -0.6558941617
-0.0222022964 -0.0990892324 -0.6526503758
-0.0097669249 -0.1264552000 -0.6555478447
-0.0056496475 -0.1359571978 -0.6575844509
-0.0101528158 -0.1220467091 -0.6493023634
0.0289730486 -0.1485668950 -0.6470198582
0.0275468951 -0.1336070586 -0.6512924630
0.0613779251 -0.0860932924 -0.6924753758
-0.0469185828 -0.1407085134 -0.6733974002
0.0097650200 -0.0838227419 -0.6774115408
-0.0243663663 -0.0843295038 -0.7176326186
0.0073483489 -0.1297716908 -0.6342467654
0.0346367331 -0.0780306906 -0.7330274256
0.0325598752 -0.0880973254 -0.6951835864
0.0232785108 -0.1374990462 -0.6473144708
-0.0488939180 -0.0982219655 -0.7082550112
-0.0520210051 -0.1639521135 -0.6753054631
0.0389346553 -0.1092163092 -0.6525352118
0.0138899931 -0.1535949363 -0.6549045671
-0.0790259403 -0.1710541707 -0.6733000438
-0.0884518517 -0.1136830075 -0.6826281803
-0.0478924568 -0.1629184046 -0.6777455791
0.0095337261 -0.0794547844 -0.7255868709
0.0349419177 -0.1028232816 -0.6468529308
-0.0859504380 -0.1055548321 -0.6855445901
-0.0850563845 -0.1424149953 -0.6692588975
-0.0958163232 -0.1341226660 -0.6747125622
-0.0379869504 -0.1492711981 -0.6707744568
-0.0403555858 -0.1116134484 -0.6551251684
-0.0410049635 -0.1362858733 -0.6547421181
-0.0398409174 -0.1313999215 -0.6577354047
-0.0889487440 -0.1123101521 -0.6910621393
-0.0471120506 -0.1318091786 -0.6468281237
-0.0719179961 -0.1037459260 -0.6692994709
0.0253317516 -0.1456593189 -0.6475782075
0.0331019193 -0.1237661266 -0.6425796971
-0.0890099462 -0.1549225571 -0.6775908518
-0.0574467547 -0.0852936567 -0.7492615668
0.0236113976 -0.1486879176 -0.6538594552
0.0280940351 -0.1456673540 -0.6438444849
-0.0586496806 -0.1074427234 -0.7626536102
0.0549433028 -0.0960695465 -0.6907595691
0.0360690617 -0.1261021074 -0.6622007678
0.0565426711 -0.0947842187 -0.7022833536
-0.0915862490 -0.1523344077 -0.6748595722
0.0315132434 -0.0764208378 -0.7240037890
0.0163530417 -0.0951125996 -0.6467109817
0.0615604215 -0.0975320223 -0.7034657022
0.0203174083 -0.0836160120 -0.7119035621
-0.0027679455 -0.1612058981 -0.6650811702
-0.0547394939 -0.0963343128 -0.6851094730
-0.0864140661 -0.0961916543 -0.6779275165
0.0589847332 -0.1037003965 -0.6907333562
0.0434230281 -0.0769936400 -0.7091720354
0.0706454090 -0.1166650947 -0.6883561041
-0.0409623685 -0.0908257732 -0.7059481759
-0.0495879682 -0.1063802570 -0.6580618961
0.0205595043 -0.1147768377 -0.6451339135
0.0123169124 -0.1156888677 -0.6423449910
-0.0707245926 -0.1117011503 -0.7103188135
-0.0856263854 -0.1089925480 -0.6854662906
-0.0564099037 -0.0981836909 -0.7057999485
0.0133227531 -0.0844436120 -0.6920381527
-0.0837761933 -0.1580943226 -0.6720500469
0.0080611682 -0.0796309568 -0.6551903002
-0.0018803312 -0.1107194782 -0.6472639364
0.0027463364 -0.0839024950 -0.6571589410
-0.0927531968 -0.1497194853 -0.6745305594
-0.0012319620 -0.1417310590 -0.6351891390
-0.0629145052 -0.0933489161 -0.6676752504
-0.1113906399 -0.1235193198 -0.7373609684
0.0341484556 -0.0869639800 -0.6595871588
-0.0005019564 -0.0786674162 -0.7348250495
-0.0051492675 -0.1382658187 -0.6592874201
-0.0751037747 -0.1048781946 -0.6678679585
0.0445486415 -0.1432428041 -0.6546216667
-0.0429649183 -0.1305394734 -0.6600878974
0.0243200941 -0.1418428742 -0.6469986038
-0.0531705174 -0.1438735360 -0.6639621314
0.0429357150 -0.0811558499 -0.7089037400
0.0257751712 -0.1542307696 -0.6530524471
-0.0879666311 -0.1284578618 -0.7261459027
-0.0068794111 -0.1587854394 -0.6621345107
0.0409311449 -0.0802189403 -0.7110868415
-0.0956156159 -0.1187087511 -0.6990822488
-0.0511163613 -0.0966749756 -0.7582235643
-0.0044980064 -0.0935584949 -0.6503364641
0.0203145010 -0.0678075120 -0.7185322051
-0.0574268279 -0.1381067268 -0.6522895574
0.0626768742 -0.0937684144 -0.7232551032
0.0110583894 -0.0947617308 -0.7444560195
-0.0146877501 -0.1329086209 -0.7648940670
-0.0449854081 -0.1039768243 -0.6573588982
-0.0368449986 -0.1311902817 -0.7700134685
-0.0465157319 -0.1547201368 -0.6673125925
0.0000727654 -0.1313606646 -0.6358783363
-0.0283698614 -0.0872341974 -0.7043920482
-0.0794557198 -0.1084101883 -0.6675578187
-0.0307866574 -0.0941184363 -0.6846964029
0.0539266274 -0.0984694109 -0.6976563376
-0.0908616714 -0.1248746288 -0.7203615222
-0.0150065954 -0.0888132364 -0.7036878791
-0.0347342640 -0.1473542303 -0.6667162180
0.0612336001 -0.1004893024 -0.7048945957
0.0209280207 -0.1506307266 -0.6540058439
-0.0276564274 -0.1488643088 -0.6570598582
-0.0273432266 -0.1504904553 -0.6620314717
-0.0150755499 -0.1063703634 -0.6493850052
-0.0094512684 -0.1588238299 -0.6584138131
-0.0422678831 -0.1145182884 -0.6564705503
0.0210174652 -0.1470882164 -0.6548352065
-0.0568862703 -0.1737337254 -0.6699546433
0.0094735666 -0.1324053548 -0.6458710233
-0.0879204469 -0.1148318396 -0.6983041855
-0.0486282666 -0.1767583462 -0.6838655274
-0.0774617942 -0.1087324199 -0.7187685310
-0.0090665747 -0.1567381380 -0.6608700576
-0.0567406117 -0.1327238817 -0.6595995841
0.0409732509 -0.0754678041 -0.7216464127
-0.0296936363 -0.1185830679 -0.6492212179
-0.0110857980 -0.1383018478 -0.6400161298
-0.0860843114 -0.1121813279 -0.7283458494
-0.0076691364 -0.1067214981 -0.6488193274
0.0483234180 -0.0954128145 -0.6684835517
0.0036099093 -0.1349194788 -0.6660783787
-0.0277401962 -0.1113875809 -0.6529157115
0.0273431038 -0.1517942585 -0.6484119693
-0.0573334208 -0.1246317378 -0.6601274624
0.0317764385 -0.0884953869 -0.6572543501
-0.0720177367 -0.1060794105 -0.6676535907
-0.0323912719 -0.1067572668 -0.6546618656
-0.0448888118 -0.0954590552 -0.6954416237
-0.0555050662 -0.1524319320 -0.6628896421
-0.0424792655 -0.1207516082 -0.6498697698
0.0028069338 -0.1135964394 -0.6427342594
0.0349807964 -0.0862130465 -0.7060030256
-0.0810726976 -0.1020542120 -0.7329719491
-0.0170530228 -0.1156740380 -0.6444541357
0.0687744598 -0.1012756440 -0.7108158383
0.0151419822 -0.1268465306 -0.6375412264
0.0149369212 -0.1155690797 -0.6408702375
-0.0144325110 -0.1013297265 -0.7523982005
-0.0736697750 -0.1033852178 -0.7042227032
0.0382945246 -0.1230982722 -0.6436394185
0.0355259794 -0.1192288310 -0.6579403752
0.0005231523 -0.0819150581 -0.6571153583
-0.0301398188 -0.0913970172 -0.6687952876
-0.0137505086 -0.1002233513 -0.6513694569
0.0362060275 -0.1084314928 -0.6500233066
-0.0035075988 -0.0858917033 -0.7068924380
-0.0014709738 -0.0848518294 -0.6737810903
-0.0855126694 -0.1075891154 -0.7122043138
-0.1102702347 -0.0876120094 -0.7218771215
-0.0405525369 -0.1445579823 -0.6694148277
0.0207619758 -0.0871174288 -0.7286438535
-0.0304486931 -0.1740588420 -0.6788859696
-0.0206491791 -0.0867533773 -0.7493615945
-0.0397728115 -0.0937518143 -0.6721677934
-0.0822018415 -0.1206087959 -0.7278609479
-0.0242960234 -0.0908573302 -0.6604986325
-0.0640695042 -0.1540400698 -0.6663678305
-0.0190384333 -0.0826090281 -0.7434312359
-0.0370004850 -0.1016128319 -0.6570680233
-0.0313064787 -0.1538871054 -0.6600509464
0.0739380284 -0.1121351517 -0.7059978240
-0.0317459293 -0.0963502750 -0.6887624264
0.0188475984 -0.0819158283 -0.6795727759
-0.0923813756 -0.1419110570 -0.6753520868
0.0401754068 -0.0879086309 -0.6653767751
-0.0864819991 -0.1236745899 -0.6926784501
-0.1000218117 -0.1415311364 -0.7537438446
0.0110154583 -0.1397749014 -0.6320707269
-0.0000360885 -0.0909350742 -0.6500108878
-0.0667686333 -0.1417459480 -0.6656182344
-0.0153403681 -0.0795491885 -0.7331365435
-0.0387985589 -0.1281420202 -0.6473916279
-0.0969991697 -0.1032274116 -0.7264672858
-0.0177444690 -0.1033413731 -0.6520348945
-0.0674435881 -0.1259198501 -0.6552893767
0.0109331399 -0.0819283191 -0.7170490941
-0.0154468420 -0.1094873817 -0.6484227760
-0.0025871528 -0.1189989746 -0.7546793524
0.0265416068 -0.1308046307 -0.6493777396
-0.0505866399 -0.1105910225 -0.7620856276
-0.0833362790 -0.1416235385 -0.6673311750
0.0088096476 -0.0973932696 -0.7463113151
-0.0377037746 -0.1162531802 -0.6529878901
-0.0604091699 -0.1679967935 -0.6679318480
-0.0545765896 -0.1040762511 -0.6610082304
0.0069538457 -0.1246908490 -0.6436825487
-0.0111240615 -0.1161923200 -0.6436771653
0.0514693424 -0.1086871327 -0.6864376860
-0.0865548352 -0.1137057091 -0.6931449803
0.0267781031 -0.1291373823 -0.6537389821
0.0646760755 -0.1099854499 -0.7380695578
0.0345579515 -0.0907778760 -0.6883741778
-0.0178737764 -0.0908180056 -0.6848774918
-0.0376266211 -0.0896056437 -0.6931672562
-0.0510165058 -0.0952835083 -0.6681566834
-0.0546842967 -0.0955524990 -0.7578433380
-0.0648273807 -0.1253931404 -0.6552879405
0.0501104055 -0.0990648268 -0.6865290511
-0.1044651221 -0.1398295338 -0.7240399509
0.0178481314 -0.1187550147 -0.6402684843
0.0159668245 -0.0885229357 -0.6298827387
-0.0173819754 -0.1360930773 -0.6531904602
0.0115397301 -0.1483776444 -0.6495372320
-0.0587424006 -0.1692481637 -0.6706997241
0.0580437107 -0.0917121129 -0.7081556057
0.0138410308 -0.1205103769 -0.7519876775
-0.0672110242 -0.1289424900 -0.6605868485
-0.0435056195 -0.1041899081 -0.7586337001
-0.0611549019 -0.1691510959 -0.6710190064
0.0208630331 -0.1469100425 -0.6525874018
0.0111296154 -0.0850448508 -0.6948059426
-0.0295629130 -0.0849285598 -0.7396490698
-0.0716385214 -0.1000062825 -0.6884335181
0.0020247666 -0.0796285731 -0.7208475748
-0.0636311794 -0.0968897536 -0.6732964379
-0.0246541790 -0.1465055780 -0.6579069532
-0.0350126299 -0.1116999110 -0.6564375323
-0.0022158148 -0.0821745486 -0.6541702539
-0.0884709642 -0.1098086695 -0.6802173816
-0.0852572005 -0.1151873739 -0.6885971345
-0.0123687791 -0.1637388931 -0.6582248428
0.0401409167 -0.1329822568 -0.6445768634
-0.0024005711 -0.1107714762 -0.6424620089
-0.0715242550 -0.1670970321 -0.6683931947
-0.0475654627 -0.0954134482 -0.6937680510
-0.0473272838 -0.1603069752 -0.6788658500
-0.0858533307 -0.1033374280 -0.6784733632
-0.0859818114 -0.1379744565 -0.6650518234
-0.0449155160 -0.0928825860 -0.6707838035
-0.0543829133 -0.0983897745 -0.6692663236
-0.0105367082 -0.0902819280 -0.6655538962
-0.0417921060 -0.0865487488 -0.7443022294
-0.0724772790 -0.1068948454 -0.7148707293
0.0053502682 -0.1059696386 -0.6428844912
0.0094336404 -0.1280221187 -0.6390153070
-0.0246740734 -0.1564864122 -0.6612672280
0.0052184344 -0.1394538491 -0.6619077950
-0.0297851109 -0.1333954473 -0.6549103329
-0.0355279285 -0.1143380197 -0.7608348359
-0.0745138947 -0.1259328793 -0.7672666832
-0.0826385233 -0.1101656534 -0.6693071011
-0.0783756806 -0.1251129295 -0.7241974375
-0.0359967191 -0.1025447660 -0.6445469149
-0.0011875697 -0.1565538760 -0.6664573574
0.0315571176 -0.1307903904 -0.6444890208
0.0285693643 -0.0787595530 -0.7007767964
-0.0556343539 -0.0831545048 -0.7416653123
-0.0795027881 -0.1081012011 -0.7116076385
-0.0880225688 -0.1077077572 -0.6786869795
0.0347492599 -0.0773388886 -0.7267948441
0.0814974397 -0.0824857177 -0.6831516487
-0.0159237106 -0.0913983103 -0.6642152886
-0.0186430593 -0.0920318003 -0.6895978215
-0.0903731406 -0.1358954116 -0.6657061617
-0.0756056536 -0.1089256209 -0.6699420405
-0.0274301602 -0.1145267896 -0.7603995048
-0.0190813001 -0.1119120046 -0.6461502314
-0.0039941772 -0.0865203530 -0.6783095409
0.0310856333 -0.1140525867 -0.6505606118
0.0383121383 -0.1646870873 -0.6676261177
0.0416261867 -0.0764532116 -0.6877046416
-0.0371847777 -0.1191461000 -0.6504971836
0.0566229350 -0.0874233190 -0.7007897709
0.0185367999 -0.1005666007 -0.7490835105
-0.0134451037 -0.1456696374 -0.6531080104
-0.0771122304 -0.1141595857 -0.6669861227
-0.0279650764 -0.0880390499 -0.7505088782
0.0050077044 -0.1103440203 -0.6420470585
-0.0583908570 -0.1397068724 -0.6631797546
-0.0848854222 -0.1181999261 -0.6808196414
-0.0882560942 -0.1331699398 -0.6649719874
0.0430297211 -0.0937401843 -0.6650848564
0.0329528447 -0.0904613694 -0.6831871645
0.0350661039 -0.0887841757 -0.6760667828
0.0104358799 -0.0873529910 -0.6527392818
-0.0809975717 -0.1177953169 -0.7243857402
-0.0690617964 -0.1457498686 -0.6626503958
0.0111588332 -0.1541139169 -0.6549286238
-0.0734199715 -0.1011816175 -0.6919228610
0.0525552991 -0.1027614175 -0.6940546486
-0.0221939481 -0.1275980156 -0.6447217619
-0.0173192937 -0.1644603597 -0.6567568102
-0.0777485857 -0.1035968566 -0.6686146292
-0.0522328706 -0.1310027417 -0.6621250066
-0.0766462281 -0.1187875151 -0.6627747919
-0.0789394516 -0.1107819964 -0.7256245618
-0.0049795109 -0.1056511842 -0.6470298504
0.0026879723 -0.1265512109 -0.6555240750
-0.0365131863 -0.0939785095 -0.6877688730
-0.0756416370 -0.0979652514 -0.7438745986
-0.0218829400 -0.1512382122 -0.6597721221
-0.0063722668 -0.1417399617 -0.6384866560
-0.0448703838 -0.1369960501 -0.6671940662
0.0312966764 -0.0958618639 -0.6534714767
-0.0145662658 -0.0860741961 -0.7076467004
0.0235594032 -0.1210830175 -0.6369460430
-0.0420997564 -0.0984788442 -0.7200984494
0.0422650752 -0.0878349438 -0.7359843078
-0.0206258583 -0.0881416402 -0.6920995675
0.0075320570 -0.0937218421 -0.6461079039
0.0290267783 -0.0868678331 -0.6579224002
0.0017546682 -0.1579692246 -0.6611861373
0.0314870234 -0.0990288994 -0.6554592069
-0.0002173597 -0.1255570677 -0.6507521308
0.0277887060 -0.0975410449 -0.6449410326
-0.0432850306 -0.1209126622 -0.6515202255
0.0112118619 -0.0827132338 -0.6728963358
-0.0310707865 -0.0885812522 -0.7200824672
-0.0147324288 -0.0867985822 -0.6655219197
0.0275342636 -0.0741482291 -0.7274979833
-0.0324137003 -0.0907055665 -0.6679334525
0.0007855440 -0.0935464596 -0.6473343592
-0.0317277212 -0.1039602501 -0.6549808959
-0.0917704947 -0.1262336933 -0.7400602959
-0.0620432471 -0.0967960244 -0.6889862509
0.0363124633 -0.1432154901 -0.6471489099
-0.0224262630 -0.0917754491 -0.6843493565
0.0471368502 -0.0808153610 -0.7073253734
0.0099585834 -0.0860786005 -0.7178767986
0.0286117630 -0.1257168880 -0.6547025804
-0.0625037418 -0.0882289641 -0.7405096482
-0.0420175351 -0.0882058628 -0.7507583568
-0.0671683216 -0.1119206166 -0.6611364448
-0.0665185004 -0.1040786354 -0.6636112471
-0.0947362017 -0.1254807494 -0.6948599041
-0.0805359861 -0.0998068497 -0.7387055445
0.0479449958 -0.0900052988 -0.7326787776
-0.0126171972 -0.1210847109 -0.6476218701
0.0163985968 -0.1263295436 -0.6388330205
-0.0908305925 -0.1434880242 -0.6693110871
-0.0743413443 -0.1471008393 -0.6675754148
0.0368403336 -0.1254319181 -0.6435174400
-0.0685415252 -0.0891839326 -0.7456426545
-0.0848500593 -0.1413223253 -0.6642006936
-0.0338076563 -0.0977631823 -0.7335632558
-0.0197440554 -0.0912328785 -0.6578672138
0.0260183991 -0.1096042663 -0.6360898892
-0.0383005087 -0.1239823558 -0.6496417031
0.0365396921 -0.0871568584 -0.6722222320
-0.0024264066 -0.0861041109 -0.6524006784
-0.0254715488 -0.0849781359 -0.6880045167
-0.0050126441 -0.1183797842 -0.6499593103
-0.0191811309 -0.0860431703 -0.7161690826
0.0160714678 -0.1010210583 -0.7499657673
0.0232585933 -0.1121113765 -0.6466625468
-0.0307660146 -0.0861620628 -0.7079959833
-0.0067648773 -0.1327744297 -0.7624543714
-0.0718071442 -0.1261608301 -0.6624880379
-0.0055231139 -0.1565332226 -0.6600350487
-0.0432698622 -0.0990949173 -0.7225755203
-0.0656060081 -0.1018564674 -0.7588530363
-0.0188822699 -0.1215138155 -0.6452303433
-0.0399789064 -0.1554610928 -0.6755414723
-0.0674083035 -0.1583335557 -0.6675646490
-0.0137981229 -0.1433394056 -0.6369123843
0.0216172236 -0.1610744318 -0.6680107471
0.0424631983 -0.1377452227 -0.6483908295
-0.0686792564 -0.1221385030 -0.7663239058
-0.0876471512 -0.1553609967 -0.6726082861
-0.0524907178 -0.1289901000 -0.6536383931
-0.0798312852 -0.1164221952 -0.7166742410
0.0398890088 -0.0883647197 -0.6887418338
0.0067237633 -0.1674213824 -0.6714000522
-0.0523936595 -0.0919374507 -0.7065359294
0.0299491154 -0.0874666992 -0.6678311174
0.0368337342 -0.1013022044 -0.6834702243
-0.0429182608 -0.1395311661 -0.6497701603
-0.0035342454 -0.0887242578 -0.6606840480
0.0008549318 -0.1437844828 -0.6343594548
-0.0617545686 -0.0965517790 -0.6773735072
-0.0621510547 -0.1168244313 -0.6584001902
-0.0234011138 -0.1404877861 -0.6447754625
0.0236584102 -0.0776515138 -0.7244153283
0.0242851297 -0.0805215652 -0.7362658566
0.0027051287 -0.1085426628 -0.6423679705
-0.0664959662 -0.0929421417 -0.7019513442
-0.0004640617 -0.0859376838 -0.6819668857
-0.0167333492 -0.1623984853 -0.6570998068
-0.0489346848 -0.1829074609 -0.6802346361
-0.0854402991 -0.1266974780 -0.7287628875
-0.0713576159 -0.0977073270 -0.6959368580
0.0085877809 -0.1190333895 -0.7520327371
-0.0544169428 -0.1601078866 -0.6653975681
-0.0943384666 -0.1068322236 -0.6936665576
0.0568254010 -0.0898770536 -0.7122332697
-0.0745277483 -0.1028824119 -0.7072086517
0.0371876652 -0.0777464731 -0.6643330763
0.0391683067 -0.0839861849 -0.6627461769
-0.0199357331 -0.1241121653 -0.6449433530
0.0094175957 -0.0979053959 -0.6408368099
-0.0852752766 -0.1220186475 -0.6852195916
-0.0622455769 -0.1223901461 -0.7675389069
-0.0861329275 -0.1354299599 -0.6632288703
-0.0740843386 -0.1064800130 -0.7021924322
-0.0793419959 -0.1193006544 -0.7546516961
0.0364969612 -0.0914199676 -0.6818873815
0.0063122677 -0.0873143707 -0.7029087721
-0.0490870047 -0.0925825129 -0.6952033102
0.0306219645 -0.1397154137 -0.6474272369
-0.0354306698 -0.1455367444 -0.6651254168
0.0424993121 -0.1086270779 -0.6563430578
0.0633246385 -0.1029880701 -0.7293478449
-0.0071283270 -0.1708998054 -0.6647047285
-0.0480458128 -0.1325090970 -0.6513467092
-0.0099715886 -0.0702000101 -0.7361487661
0.0171243493 -0.1242830642 -0.6445398927
-0.0496060198 -0.0944432776 -0.6788179709
-0.0903231779 -0.1211564786 -0.7169780570
-0.0645227302 -0.1333506503 -0.6615205301
0.0084602596 -0.1320438874 -0.6363167848
0.0126027760 -0.0965247179 -0.6448482076
-0.0209386044 -0.1417113842 -0.6466241141
-0.0043860067 -0.1662238332 -0.6674031628
0.0633678356 -0.0903011330 -0.7007500440
-0.0930860041 -0.1107434698 -0.6843558115
-0.0289212917 -0.1357086218 -0.6548492532
0.0104777604 -0.0789271551 -0.6508187492
-0.0290602035 -0.1096778085 -0.6543979450
-0.0693603068 -0.0955558967 -0.7318492750
-0.0542620178 -0.0978503637 -0.6895911992
-0.0663664725 -0.0947989469 -0.7188497695
-0.0460032418 -0.1595859305 -0.6748875560
-0.0552626662 -0.1562324762 -0.6736719012
0.0351026030 -0.1394587213 -0.6483282959
-0.0854303805 -0.1148745318 -0.7412540633
0.0152750645 -0.1187838473 -0.6346920580
0.0341292187 -0.0941527799 -0.6777349765
0.0204679058 -0.1341735891 -0.6472820326
-0.0277104469 -0.1242045638 -0.6499288153
-0.0173435835 -0.1218228924 -0.6445079731
-0.0780986344 -0.1265741901 -0.7169012468
-0.0202620347 -0.0859185353 -0.6980220288
-0.0109917924 -0.0834939349 -0.7070821462
0.0156750546 -0.0835909881 -0.6947519554
-0.0806270630 -0.1181713232 -0.7057989815
-0.0134097484 -0.0781065719 -0.7350440152
-0.0427040082 -0.0962397668 -0.7045404245
-0.0240972722 -0.1589547321 -0.6597176492
-0.0977148828 -0.1371776628 -0.6728567271
0.0583939538 -0.0811821968 -0.6857964239
0.0106972787 -0.0855006212 -0.6709186585
-0.0420950206 -0.1093543847 -0.6567000236
0.0206850870 -0.0861821645 -0.7244559969
-0.0219523496 -0.1214463273 -0.6495163767
-0.0997182572 -0.1267765660 -0.7327574551
0.0332007262 -0.1084571066 -0.6474805263
-0.0709412466 -0.1092517022 -0.6680223128
-0.0966269424 -0.1226370006 -0.7315516102
0.0044028684 -0.0841731401 -0.6672106826
-0.0023685717 -0.0937405306 -0.6496216945
0.0329698207 -0.0851748983 -0.6763565276
0.0358139050 -0.0908063852 -0.6938576911
-0.0756288607 -0.1060819916 -0.6691483681
0.0254257017 -0.1264789154 -0.6530906631
0.0181640782 -0.1212458153 -0.6424604728
0.0691309418 -0.1067998242 -0.7273616625
-0.0025909843 -0.0872849596 -0.6883332353
-0.0795971336 -0.1678122553 -0.6722874029
-0.0279700248 -0.1395095011 -0.6444995672
-0.0549293631 -0.1412875431 -0.6681298662
0.0049602396 -0.0850272402 -0.6908492684
-0.0651172929 -0.1439560825 -0.6628849153
0.0216649426 -0.1107071147 -0.6394321544
0.0062893112 -0.1313413382 -0.6577900648
0.0628983089 -0.0997358609 -0.7092307689
-0.0065223701 -0.0914789848 -0.6510315723
-0.0347469638 -0.1707211116 -0.6758398630
0.0003805997 -0.0836681640 -0.6529130313
0.0046191969 -0.1033441716 -0.6441956044
-0.0403404716 -0.1384599888 -0.6521605327
-0.0721234705 -0.1092979296 -0.6651666768
-0.0650068199 -0.1105072803 -0.6563654367
-0.0451693659 -0.0959264329 -0.6998608931
-0.0127889228 -0.1374423171 -0.6422898445
-0.1088173874 -0.1377545786 -0.6972643114
-0.0633806441 -0.1637488867 -0.6685354576
-0.0425443608 -0.1164941401 -0.6564866570
-0.0632508615 -0.0920667840 -0.7229565642
-0.0029445803 -0.1415454518 -0.6365742290
-0.0774958368 -0.0998055677 -0.7428188277
-0.0014305907 -0.1812726594 -0.6880755163
-0.0021429210 -0.1496312513 -0.6671571219
-0.0482175102 -0.1718799912 -0.6714864925
-0.0564002387 -0.1704339057 -0.6724280768
0.0665202932 -0.1015623859 -0.7194880880
-0.0695951258 -0.1138205175 -0.6620373940
0.0031082674 -0.1220805325 -0.6593647937
0.0101702756 -0.1263951475 -0.6524532915
-0.0407043569 -0.1442517031 -0.6456546244
-0.0669148399 -0.1107845956 -0.6620840297
-0.0606290399 -0.1258664471 -0.6579202626
-0.0081830676 -0.1291333084 -0.6432887482
-0.0133603005 -0.1299726083 -0.6436256173
-0.0266981752 -0.0859829404 -0.7245892805
0.0233164454 -0.0846393319 -0.6532867765
-0.0943658252 -0.1412175488 -0.6775184110
-0.0326291774 -0.0857476030 -0.7471625742
0.0246680130 -0.1135929004 -0.6398748692
0.0343224985 -0.1086409345 -0.7447618412
-0.0099822425 -0.1218916195 -0.6430512283
-0.0821643272 -0.1179154422 -0.6656254206
-0.0776277989 -0.1186143847 -0.7072957925
-0.0027211625 -0.1053792759 -0.7510736805
-0.0022566483 -0.1546879341 -0.6657551827
-0.0745216840 -0.1236109453 -0.7147019735
0.0183419727 -0.1296834143 -0.6340939444
-0.0630852722 -0.1229104056 -0.6573968244
0.0090609117 -0.1219504484 -0.6355252286
0.0075272434 -0.1607254898 -0.6698780699
-0.0145595507 -0.1189773123 -0.6448672010
-0.0403647081 -0.1537805861 -0.6773614917
0.0213841806 -0.0935874025 -0.6496373240
-0.0081947423 -0.1372449319 -0.6557990425
0.0232807900 -0.0826670552 -0.6576004391
0.0264569620 -0.0749603694 -0.7338595924
-0.0747980458 -0.1161095553 -0.7193855839
-0.0390292910 -0.1383809731 -0.6621350731
0.0011284018 -0.0859351054 -0.6879483498
-0.0625389189 -0.1658511237 -0.6702994292
-0.0524996769 -0.1037611599 -0.6599501062
-0.0300372343 -0.1004910601 -0.6560440577
0.0474985160 -0.1423474251 -0.6507216293
-0.0848391055 -0.1384099435 -0.6626343993
-0.0340313291 -0.1321751654 -0.6521044610
0.0492815522 -0.0925622892 -0.6982184478
-0.0556831360 -0.1140006610 -0.6593326753
-0.0046521532 -0.0959344691 -0.6500582852
-0.0433126932 -0.1185107870 -0.7635517974
-0.0882161730 -0.1019299540 -0.6774008088
-0.0838985240 -0.1060524682 -0.6820632689
-0.0007261387 -0.1533025738 -0.6691718489
-0.0986900479 -0.0950395093 -0.6967618098
-0.0689976265 -0.0956095215 -0.7487754125
-0.0536484038 -0.0905186130 -0.7375579161
-0.0300770249 -0.0938774013 -0.6872810260
-0.0126850442 -0.1504163103 -0.6352923685
0.0463450461 -0.1139579000 -0.6450090177
-0.1019272538 -0.1361727934 -0.7276329462
-0.0150456536 -0.0850984954 -0.7033083524
-0.0163752710 -0.0907243279 -0.6929438311
-0.0870321276 -0.1240611974 -0.6892280343
-0.0050804787 -0.0864953596 -0.6954162170
-0.0398609151 -0.1416916806 -0.6576134239
0.0686497123 -0.1005872026 -0.7134987420
-0.0750052432 -0.1041882703 -0.7490749666
-0.0100185138 -0.0814767196 -0.7316345227
0.0293936954 -0.0780059799 -0.7069556940
-0.0319465986 -0.1621168116 -0.6718128428
0.0363812255 -0.0871177022 -0.6901972053
-0.0902174179 -0.1306958686 -0.6743874159
0.0079973811 -0.0931596155 -0.6476055348
0.0000636932 -0.1512057632 -0.6641418338
-0.0723250486 -0.1189692494 -0.6629210110
-0.0230263789 -0.0948146850 -0.7147214012
0.0074191600 -0.1498950863 -0.6665693301
0.0449554708 -0.0772719885 -0.7003394607
-0.0030222712 -0.1387673074 -0.6389081939
0.0268608768 -0.0781310856 -0.7233703776
-0.0799884554 -0.1234979638 -0.6642180674
0.0007115491 -0.1315269470 -0.6590695977
-0.0437908227 -0.1148737605 -0.6578068134
-0.0886900993 -0.1566584947 -0.6800424073
-0.0891443082 -0.1207775236 -0.7139673290
-0.0826222770 -0.1031970125 -0.6723325944
0.0401466576 -0.0824199217 -0.7010855023
0.0155654605 -0.1315796079 -0.6367120732
-0.0833075863 -0.1459158129 -0.6674209617
0.0202350448 -0.1375747005 -0.6487755862
-0.0892632461 -0.1486015484 -0.6724525805
0.0027646355 -0.0886662796 -0.6498902460
-0.0812810214 -0.1291992902 -0.7180454492
-0.0220224765 -0.1334648442 -0.6442972011
-0.0718447217 -0.1221733000 -0.6643859823
-0.0053840155 -0.0790119856 -0.7340889991
-0.0937230286 -0.1366205616 -0.6845308536
0.0190440475 -0.1436699105 -0.6539299110
-0.0579942809 -0.1451849069 -0.6594848314
-0.1004468356 -0.0997589739 -0.7265406142
-0.0683810828 -0.1385054280 -0.6590675596
0.0125992772 -0.1240334513 -0.6355623986
0.0133578277 -0.0871424930 -0.6463704521
-0.0618063493 -0.1036153804 -0.6645683981
0.0102808779 -0.0813995258 -0.6626380395
-0.0212442842 -0.1319081732 -0.6478582325
-0.0789031993 -0.1166956583 -0.6658249396
-0.0011464038 -0.1195525526 -0.6401075767
-0.0247925760 -0.1001980323 -0.6584467314
-0.0412469485 -0.1040094455 -0.6567940151
-0.0850401054 -0.1056922591 -0.6984376957
-0.0964531175 -0.1413719587 -0.6819718390
0.0593974490 -0.1067203776 -0.6939313447
-0.0261074000 -0.1735182913 -0.6811852726
-0.0942489226 -0.1200617899 -0.7515956430
-0.0703918441 -0.1460449928 -0.6712378764
-0.0434268684 -0.1410014829 -0.6727378661
0.0176794277 -0.1016497315 -0.6466795184
0.0154387489 -0.1307497103 -0.6450638538
-0.0875556771 -0.1516019963 -0.6729737463
-0.0631186675 -0.1257259051 -0.7699712307
-0.0466115975 -0.0915889492 -0.7124229651
-0.0545780824 -0.1232802892 -0.6529130520
-0.0431584015 -0.0998408624 -0.7567751785
-0.0153761582 -0.1149073709 -0.6332237250
-0.0386811137 -0.0880064656 -0.7402114728
-0.0167627717 -0.0919562645 -0.6700040305
-0.0145998569 -0.0958583131 -0.6554619074
-0.0320374252 -0.1318772203 -0.6451179664
-0.0452882648 -0.0954226241 -0.6913511067
0.0105111730 -0.1546878427 -0.6632053015
-0.0466055642 -0.0940688504 -0.6725275988
-0.0927904671 -0.1185750677 -0.7001955374
0.0314102239 -0.1568990802 -0.6550489183
-0.0274474650 -0.1331059584 -0.6465066089
-0.0590140922 -0.1009750482 -0.7335642465
-0.0150666489 -0.1230725379 -0.6530959395
0.0106474968 -0.1592855617 -0.6615665662
-0.0398257671 -0.1338827006 -0.6479580819
-0.0658767993 -0.0988615867 -0.6697157152
0.0206098128 -0.0975033768 -0.6459964387
0.0398700142 -0.0939507435 -0.6926416971
-0.0083734196 -0.0852827495 -0.7222000458
-0.0872576808 -0.1214203513 -0.7035390697
0.0001031482 -0.1010661059 -0.6427695211
-0.0674827798 -0.0929016536 -0.7416308804
-0.0071866072 -0.1034217216 -0.6480815709
0.0638549493 -0.1062471935 -0.7319099345
0.0340656959 -0.1344741527 -0.6525099706
0.0075214382 -0.0982540646 -0.6446979240
0.0287003036 -0.1133331296 -0.6377655399
0.0458618943 -0.0931905606 -0.6680639023
-0.0534483567 -0.1382426103 -0.6696558715
0.0095571320 -0.1567067552 -0.6658577685
0.0350086186 -0.1024683874 -0.7418269258
-0.0960089031 -0.1189793445 -0.7367634717
-0.0421381009 -0.1189345047 -0.6502540509
-0.0835845876 -0.1293414239 -0.6709130655
0.0328629612 -0.0732421728 -0.7146903500
0.0264116326 -0.1342430766 -0.6424378352
-0.0825689921 -0.1210454009 -0.6660681335
-0.0773330249 -0.1678058952 -0.6730481520
-0.0935546239 -0.1329789408 -0.6849102156
-0.0378280626 -0.0875203911 -0.7260971192
-0.0601996158 -0.0994706496 -0.6990186237
0.0151363389 -0.0856989400 -0.6719621210
0.0021326949 -0.1307038210 -0.6536723739
-0.0734777900 -0.1153216651 -0.7171838916
-0.0673031383 -0.0820086764 -0.7397962634
0.0264707704 -0.1026022472 -0.6554638902
-0.0466534350 -0.1324162571 -0.6651042917
0.0374953575 -0.1051052342 -0.6436015228
-0.0567080383 -0.1553755855 -0.6636364591
0.0318165017 -0.0806420889 -0.6997787803
-0.0376502390 -0.1451301719 -0.6487598868
-0.0250391918 -0.0800141432 -0.7417981913
0.0052627867 -0.0839640236 -0.6500986733
-0.0749448619 -0.1660898459 -0.6721830741
0.0253732094 -0.1165561492 -0.6386963421
-0.0230498482 -0.1582219601 -0.6570138335
-0.0567822587 -0.1513672024 -0.6702785194
0.0373185513 -0.0884406924 -0.7028552506
0.0141225333 -0.0800185670 -0.7231850937
-0.0697412241 -0.1564682086 -0.6664710743
0.0345810076 -0.1329156278 -0.6543914031
-0.0191187352 -0.1235711333 -0.6388061225
0.0192331501 -0.1112948944 -0.6443372188
-0.0096333940 -0.1518137902 -0.6610821486
-0.0885988565 -0.1051251883 -0.6863067205
0.0501720671 -0.1012751912 -0.6633016478
0.0302945977 -0.1433811524 -0.6480238706
-0.0052692116 -0.0780067315 -0.7239379675
0.0383069792 -0.0658509530 -0.7243512381
-0.0703147266 -0.1208651652 -0.6599642621
-0.0961191786 -0.1306370661 -0.7353379524
-0.0904414461 -0.1521072098 -0.6791412562
-0.0520083079 -0.1061841839 -0.6597974788
-0.0058034167 -0.1695165346 -0.6692966399
-0.0571546597 -0.0916418017 -0.7561404114
0.0303443309 -0.1122093628 -0.6400683897
-0.0175873769 -0.1596392941 -0.6579116830
-0.1077759535 -0.0960397373 -0.7059897829
-0.0022220887 -0.1437067042 -0.6624803940
0.0381924458 -0.1067318898 -0.6636385101
-0.0299927364 -0.0931220083 -0.6778754382
0.0145224738 -0.0874473410 -0.6527319898
0.0058708434 -0.0830459564 -0.7145258331
-0.0261474844 -0.1757217407 -0.6821309533
-0.0799680524 -0.1308933894 -0.6582920434
-0.0677719780 -0.1153722917 -0.6617222810
-0.0499626677 -0.0921116292 -0.7058388412
-0.0026597419 -0.0954810216 -0.7482655278
0.0004198934 -0.1027800370 -0.6406006429
-0.0043702317 -0.0780559525 -0.7380176310
0.0237691728 -0.1033280365 -0.7439945986
-0.0104802488 -0.1135935229 -0.6440415910
-0.0813071135 -0.1378678664 -0.6620294821
-0.0891709647 -0.1228265259 -0.7316732765
0.0069932021 -0.0821071461 -0.6622809132
-0.0084546330 -0.0954611858 -0.7323254985
-0.0091064485 -0.0905672549 -0.7015723313
-0.0260639851 -0.1028162026 -0.7554671614
0.0393385598 -0.0857468255 -0.7392652487
-0.0429698737 -0.1189036248 -0.6523275607
0.0051889412 -0.1191630572 -0.6433650663
0.0420530183 -0.0829485824 -0.6816327796
-0.0757432234 -0.1703195860 -0.6737663068
-0.0362264344 -0.1335107144 -0.6576681420
0.0323108926 -0.1182301610 -0.6541462729
-0.0350888069 -0.1312423917 -0.6574512467
0.0146365417 -0.1120501696 -0.7489626550
0.0335903093 -0.0718738530 -0.7251797658
-0.0506974995 -0.1322937425 -0.6548736032
-0.0337518651 -0.1222119997 -0.7642915149
-0.0500226668 -0.1514832298 -0.6724287689
-0.0945685771 -0.1164963525 -0.6923861755
-0.0393145377 -0.0957623553 -0.6944354413
0.0255663470 -0.1231551720 -0.6508727436
0.0026221825 -0.0864223321 -0.6497877427
-0.0776826239 -0.1008689200 -0.6868456936
0.0262010998 -0.1180786990 -0.6508853350
-0.0104514232 -0.0932624980 -0.6544242019
-0.0349955180 -0.1013201437 -0.7557011228
-0.0015684640 -0.0764505731 -0.7270901074
-0.0925150002 -0.1292687325 -0.7542344868
-0.0485082776 -0.1013300893 -0.7286086030
-0.0960992302 -0.1177796199 -0.7016906631
-0.0583001783 -0.0990514427 -0.6637889577
-0.0521191765 -0.1565408951 -0.6849593714
-0.0668823216 -0.0956348465 -0.7026251687
-0.0006425587 -0.0853438124 -0.7041900022
0.0384361236 -0.0911826268 -0.6846872719
0.0100495725 -0.1011643586 -0.6422807981
-0.0629062781 -0.0978061973 -0.7572002082
-0.0130405012 -0.0896302380 -0.6915996012
-0.0112667107 -0.1278084642 -0.7618905241
-0.1043576103 -0.1406716737 -0.7266722073
-0.0546606744 -0.1021689060 -0.6598870025
-0.0805125511 -0.1614138695 -0.6724144596
-0.0187175281 -0.0891465716 -0.6792580757
-0.0301809792 -0.1169130893 -0.6486664686
-0.0264240725 -0.1092165124 -0.6496960649
-0.0266208783 -0.0999161904 -0.6522207365
-0.0524158158 -0.1368948104 -0.6689451432
-0.0775165108 -0.1078052332 -0.7077777899
0.0314730812 -0.0890571747 -0.6836293719
-0.0928024202 -0.1248720117 -0.7272578148
-0.0489456418 -0.1540022976 -0.6695344000
-0.0982390110 -0.1439701622 -0.7420048596
-0.0559337816 -0.0992248321 -0.7304713142
-0.0355511556 -0.0974542009 -0.7245508033
0.0198359868 -0.0828940473 -0.6960994617
0.0020716284 -0.1205964189 -0.6407198629
-0.0747856810 -0.1161974197 -0.6652785334
-0.0353800813 -0.1121860351 -0.6542306614
-0.0045218628 -0.1435706947 -0.6621369973
-0.0706542573 -0.1034008145 -0.6649262958
-0.0478481498 -0.1416735156 -0.6462366007
-0.0218864319 -0.0898630956 -0.6697531645
-0.0552164268 -0.0984908799 -0.6989575524
0.0333681658 -0.1461940154 -0.6464051816
-0.0675385140 -0.1451597674 -0.6635409392
-0.0187845287 -0.0799635790 -0.7450039065
-0.0007838576 -0.1351194078 -0.6578158333
0.0483635848 -0.0981597122 -0.6817029440
