0.4874932170 0.0715512782 0.4079765081
0.4867090583 0.0715692788 0.4091672301
0.4859203994 0.0715891719 0.4103550613
0.4851273894 0.0716109574 0.4115399122
0.4835232496 0.0718483552 0.4121707976
0.4827236235 0.0718738288 0.4133464694
0.4819196165 0.0719011873 0.4145190716
0.4819113016 0.0717169195 0.4162493944
0.4802984893 0.0719615296 0.4168552756
0.4794814587 0.0719945580 0.4180188179
0.4778667986 0.0722426772 0.4186089337
0.4770433903 0.0722793639 0.4197630882
0.4762156606 0.0723178759 0.4209141135
0.4761700928 0.0721453801 0.4226419032
0.4761155546 0.0719749480 0.4243729711
0.4744886458 0.0722320527 0.4249346554
0.4736416340 0.0722782016 0.4260762632
0.4735673666 0.0721138045 0.4278071821
0.4719347358 0.0723761618 0.4283498228
0.4710749984 0.0724279284 0.4294817746
0.4702110291 0.0724815875 0.4306105077
0.4685754180 0.0727489814 0.4311309159
0.4669404030 0.0730179474 0.4316418469
0.4660688043 0.0730768666 0.4327544868
0.4644327760 0.0733490661 0.4332495332
0.4635554254 0.0734115764 0.4343524277
0.4626738727 0.0734759420 0.4354520738
0.4617883265 0.0735421479 0.4365482628
0.4601483345 0.0738208443 0.4370146692
0.4585092366 0.0741010234 0.4374716282
0.4583619833 0.0739621669 0.4391842186
0.4574627876 0.0740355849 0.4402638674
0.5212533474 0.0686056167 0.3672931194
0.5179719925 0.0692028627 0.3673587739
0.5182184577 0.0689371303 0.3690867126
0.5166987777 0.0691061616 0.3699694872
0.5151776075 0.0692774132 0.3708428741
0.5145305991 0.0692340061 0.3721388876
0.5130050182 0.0694094300 0.3729970157
0.5114781260 0.0695870072 0.3738457859
0.5099500418 0.0697666854 0.3746851683
0.5092890263 0.0697312653 0.3759611845
0.5077567697 0.0699150786 0.3767852187
0.5062233806 0.0701009482 0.3775999248
0.5055517554 0.0700714365 0.3788616955
0.5048753619 0.0700438321 0.3801209331
0.5041942596 0.0700181350 0.3813776970
0.5035085082 0.0699943230 0.3826319873
0.5019627810 0.0701901391 0.3834135234
0.5004161596 0.0703879744 0.3841856718
0.4988686740 0.0705877915 0.3849483728
0.4981699586 0.0705717355 0.3861821294
0.4974666834 0.0705575272 0.3874134123
0.4976044297 0.0703272820 0.3891293406
0.4968899190 0.0703168362 0.3903586864
0.4961708486 0.0703082755 0.3915854394
0.4954472184 0.0703015924 0.3928095400
0.4938813448 0.0705148950 0.3935301006
0.4939861894 0.0702939853 0.3952496052
0.4932488501 0.0702929795 0.3964655995
0.4933384955 0.0700758174 0.3981897533
0.4925900698 0.0700786263 0.3994035721
0.4910096824 0.0703013539 0.4000970721
0.4902542830 0.0703079477 0.4013019204
0.4903175831 0.0700984150 0.4030283093
0.4887299538 0.0703267530 0.4037033021
0.4879611135 0.0703390017 0.4048997164
0.4888214469 0.0699173734 0.4071615636
0.4872246981 0.0701513290 0.4078212976
0.4864403903 0.0701693073 0.4090123475
0.4864619076 0.0699714646 0.4107444584
0.4856665134 0.0699932724 0.4119327962
0.4832547903 0.0704522133 0.4120171666
0.4832586944 0.0702601448 0.4137468338
0.4816507399 0.0705050677 0.4143659770
0.4808422327 0.0705343112 0.4155358672
0.4792322218 0.0707827508 0.4161392152
0.4784172773 0.0708156899 0.4172997773
0.4768054783 0.0710676387 0.4178874195
0.4767743945 0.0708872303 0.4196117520
0.4751586020 0.0711427331 0.4201868176
0.4759000242 0.0707494915 0.4224907160
0.4750612676 0.0707919598 0.4236389101
0.4734372795 0.0710528493 0.4241982102
0.4725923836 0.0710989758 0.4253369272
0.4725195765 0.0709306896 0.4270645976
0.4708899558 0.0711968392 0.4276048243
0.4700324237 0.0712485611 0.4287339747
0.4691706896 0.0713022053 0.4298597574
0.4675380588 0.0715733990 0.4303778112
0.4666703939 0.0716306269 0.4314939976
0.4650366604 0.0719050914 0.4319961071
0.4634037614 0.0721810758 0.4324887991
0.4625286460 0.0722435564 0.4335888922
0.4616494477 0.0723078921 0.4346857667
0.4607662261 0.0723740831 0.4357792437
0.4598789215 0.0724421367 0.4368693531
0.4589876533 0.0725120157 0.4379561245
0.4588369727 0.0723697171 0.4396716356
0.4579351246 0.0724435076 0.4407545924
0.5260352492 0.0661288798 0.3678515851
0.5209805369 0.0671741962 0.3671216071
0.5177010894 0.0677826405 0.3671888411
0.5179466009 0.0675128102 0.3689166009
0.5164273977 0.0676854551 0.3698000610
0.5149067640 0.0678602383 0.3706740737
0.5142595172 0.0678166002 0.3719703555
0.5127344131 0.0679956302 0.3728291988
0.5112080574 0.0681767836 0.3736786246
0.5096804500 0.0683600977 0.3745186925
0.5090191960 0.0683244690 0.3757949173
0.5074874759 0.0685119033 0.3766196966
0.5050907135 0.0689226165 0.3769825697
0.5044207573 0.0688929930 0.3782410622
0.5037459731 0.0688652843 0.3794971108
0.5030665994 0.0688394383 0.3807506859
0.5023825169 0.0688155070 0.3820017576
0.5016936660 0.0687934980 0.3832503259
0.5001475811 0.0689950138 0.3840231001
0.4994513690 0.0689768195 0.3852631152
0.4979017675 0.0691823214 0.3860205114
0.4980450571 0.0689462051 0.3877354562
0.4973349571 0.0689337030 0.3889677227
0.4966202974 0.0689231306 0.3901973665
0.4959010482 0.0689144582 0.3914243579
0.4943383336 0.0691295639 0.3921516836
0.4936118722 0.0691246986 0.3933699429
0.4928809404 0.0691217259 0.3945855498
0.4921454191 0.0691206157 0.3957984149
0.4922361970 0.0688995421 0.3975190222
0.4923183322 0.0686803535 0.3992435932
0.4907385111 0.0689068660 0.3999377489
0.4899829030 0.0689133927 0.4011428654
0.4900452495 0.0686999485 0.4028690159
0.4884582162 0.0689320937 0.4035447240
0.4876891375 0.0689442754 0.4047414362
0.4877317548 0.0687366500 0.4064689279
0.4861377180 0.0689744055 0.4071260989
0.4853553176 0.0689922869 0.4083140492
0.4853781164 0.0687905028 0.4100427032
0.4845847189 0.0688122585 0.4112280905
0.4829817116 0.0690573528 0.4118604064
0.4829847217 0.0688614547 0.4135899246
0.4813773930 0.0691102296 0.4142097533
0.4813671410 0.0689182654 0.4159397185
0.4797555804 0.0691706464 0.4165470004
0.4781441391 0.0694247931 0.4171448350
0.4765329659 0.0696806237 0.4177331328
0.4765009582 0.0694963858 0.4194572866
0.4756728411 0.0695350394 0.4206088483
0.4748405814 0.0695755631 0.4217573702
0.4740040004 0.0696179718 0.4229026735
0.4731631875 0.0696622878 0.4240448773
0.4723181427 0.0697084516 0.4251838326
0.4714688361 0.0697565377 0.4263196290
0.4698421657 0.0700265169 0.4268574715
0.4682160318 0.0702980682 0.4273857772
0.4673589170 0.0703514963 0.4285056591
0.4664977491 0.0704067945 0.4296222627
0.4656323791 0.0704639927 0.4307356775
0.4640016556 0.0707422420 0.4312354326
0.4631305039 0.0708030164 0.4323391914
0.4622552991 0.0708656088 0.4334395826
0.4621297419 0.0707114041 0.4351562262
0.4604925811 0.0709964409 0.4356303811
0.4596051574 0.0710646510 0.4367208481
0.4594601095 0.0709166005 0.4384365380
0.4593061507 0.0707707927 0.4401550293
0.4576601982 0.0710627437 0.4406064749
0.5239855647 0.0651272833 0.3668547273
0.5189377069 0.0661917701 0.3661202490
0.5165445209 0.0665877461 0.3665990233
0.5167908072 0.0663139597 0.3683229983
0.5152738690 0.0664902851 0.3692035675
0.5137555003 0.0666687861 0.3700748384
0.5139836669 0.0664005354 0.3717989028
0.5124591589 0.0665831417 0.3726583719
0.5109332800 0.0667679235 0.3735085726
0.5102748275 0.0667300448 0.3747909069
0.5087447166 0.0669189841 0.3756257296
0.5072135329 0.0671100169 0.3764512241
0.5056811571 0.0673031807 0.3772672713
0.5041478276 0.0674984083 0.3780739307
0.5026134253 0.0676957369 0.3788712323
0.5027932525 0.0674444437 0.3805840313
0.5012532473 0.0676457211 0.3813694417
0.5005661249 0.0676235780 0.3826147914
0.4998743534 0.0676033497 0.3838576078
0.4991778731 0.0675850362 0.3850978613
0.4976288974 0.0677941740 0.3858560026
0.4969251454 0.0677796975 0.3870876431
0.4962168634 0.0677671060 0.3883167505
0.4955039322 0.0677564368 0.3895432651
0.4947864711 0.0677476823 0.3907670975
0.4940644205 0.0677407905 0.3919882774
0.4941739142 0.0675100759 0.3937067688
0.4934407771 0.0675069839 0.3949259520
0.4927030504 0.0675058067 0.3961424232
0.4927908182 0.0672807842 0.3978661895
0.4920419753 0.0672834218 0.3990805149
0.4904627204 0.0675137043 0.3997753561
0.4905306995 0.0672944412 0.4015008211
0.4897683263 0.0673027933 0.4027067423
0.4890014529 0.0673130602 0.4039098024
0.4882300794 0.0673252791 0.4051100016
0.4882695675 0.0671137720 0.4068406522
0.4858607948 0.0675809234 0.4069651663
0.4858892858 0.0673732832 0.4086933136
0.4859089255 0.0671676844 0.4104250371
0.4843065441 0.0674148723 0.4110675454
0.4835085869 0.0674385130 0.4122501910
0.4835084677 0.0672388151 0.4139828384
0.4810994267 0.0677166805 0.4140504301
0.4802905619 0.0677459911 0.4152208269
0.4786818027 0.0680021718 0.4158256352
0.4762799144 0.0684849918 0.4158550799
0.4754648805 0.0685196817 0.4170067310
0.4754342735 0.0683315769 0.4187275171
0.4738218784 0.0685947463 0.4193007350
0.4745622873 0.0681861341 0.4216003120
0.4737254977 0.0682286248 0.4227458835
0.4728845358 0.0682730079 0.4238883257
0.4720393419 0.0683192834 0.4250275791
0.4711899161 0.0683674365 0.4261636734
0.4695638716 0.0686413348 0.4267021716
0.4679383934 0.0689168349 0.4272311926
0.4670810997 0.0689703822 0.4283513129
0.4654544890 0.0692492202 0.4288644791
0.4645914137 0.0693063214 0.4299750924
0.4637242258 0.0693653449 0.4310823679
0.4628529251 0.0694262385 0.4321863353
0.4619775116 0.0694889948 0.4332870245
0.4610980451 0.0695536435 0.4343844354
0.4594639540 0.0698424876 0.4348562062
0.4585788846 0.0699106827 0.4359438419
0.4576897919 0.0699807182 0.4370281100
0.4575398564 0.0698308423 0.4387403131
0.4566403031 0.0699048266 0.4398208559
0.5278719664 0.0628349036 0.3669639528
0.5228175521 0.0639149249 0.3662662804
0.5186567307 0.0647707656 0.3659438193
0.5162648559 0.0651741251 0.3664237559
0.5165101290 0.0648962185 0.3681474626
0.5149936676 0.0650760904 0.3690287769
0.5134758353 0.0652581602 0.3699007034
0.5128298998 0.0652141422 0.3711938858
0.5121790171 0.0651720613 0.3724846840
0.5106537342 0.0653603896 0.3733355403
0.5091271996 0.0655509308 0.3741769195
0.5084655285 0.0655148327 0.3754536211
0.5069348216 0.0657095239 0.3762797713
0.5045407414 0.0661351979 0.3766449690
0.5038702488 0.0661051720 0.3779039085
0.5031951070 0.0660770535 0.3791604340
0.5033720732 0.0658217147 0.3808763623
0.5009757876 0.0662557706 0.3812005222
0.5002884865 0.0662334636 0.3824461102
0.4987453818 0.0664423779 0.3832168579
0.4980507195 0.0664239302 0.3844539225
0.4965042174 0.0666368082 0.3852093518
0.4966475070 0.0663927719 0.3869203925
0.4959390163 0.0663800687 0.3881497085
0.4952259064 0.0663692579 0.3893764317
0.4953475595 0.0661308318 0.3910932243
0.4937859774 0.0663533509 0.3918219209
0.4938945174 0.0661186874 0.3935401440
0.4931611717 0.0661154985 0.3947596252
0.4924232364 0.0661142468 0.3959762752
0.4916808307 0.0661148801 0.3971903026
0.4917609990 0.0658878312 0.3989144266
0.4910074472 0.0658923090 0.4001262188
0.4902494252 0.0658986941 0.4013352096
0.4903077781 0.0656774566 0.4030642509
0.4879010022 0.0661467388 0.4032184482
0.4871315956 0.0661588311 0.4044155777
0.4871722460 0.0659434274 0.4061427116
0.4855794311 0.0661887899 0.4068013132
0.4847966731 0.0662066191 0.4079898000
0.4856256247 0.0657678246 0.4102607071
0.4848296642 0.0657896176 0.4114498496
0.4840293229 0.0658133253 0.4126360416
0.4832245708 0.0658389628 0.4138192236
0.4816161990 0.0660955086 0.4144437015
0.4808049500 0.0661248937 0.4156175852
0.4783998132 0.0666138604 0.4156641364
0.4767918289 0.0668756813 0.4162601233
0.4751840830 0.0671391711 0.4168466330
0.4743645787 0.0671758205 0.4179954529
0.4735408127 0.0672143325 0.4191411734
0.4734961689 0.0670264289 0.4208619595
0.4726615250 0.0670688525 0.4220046103
0.4718227684 0.0671131536 0.4231441617
0.4717560410 0.0669314191 0.4248681664
0.4709065259 0.0669796914 0.4260044992
0.4692811370 0.0672575086 0.4265437424
0.4676562548 0.0675369576 0.4270734191
0.4660320580 0.0678180084 0.4275936186
0.4651729167 0.0678733811 0.4287077487
0.4643096626 0.0679306611 0.4298185408
0.4634423554 0.0679897889 0.4309261441
0.4625708759 0.0680508167 0.4320303500
0.4616953731 0.0681136996 0.4331313074
0.4600634873 0.0684048906 0.4336102307
0.4591823220 0.0684713498 0.4347014725
0.4582971334 0.0685396940 0.4357893467
0.4574079216 0.0686099008 0.4368738830
0.4572570622 0.0684563667 0.4385859668
0.4563573599 0.0685304999 0.4396666586
0.5266953707 0.0616125986 0.3663744926
0.5216461420 0.0627116039 0.3656758368
0.5183710456 0.0633511394 0.3657645285
0.5168597698 0.0635302514 0.3666616976
0.5162247419 0.0634798780 0.3679690659
0.5155847073 0.0634314194 0.3692741096
0.5149398446 0.0633849353 0.3705768883
0.5142901540 0.0633404329 0.3718773127
0.5127649307 0.0635300949 0.3727417290
0.5112383962 0.0637219250 0.3735967278
0.5097106099 0.0639159530 0.3744423687
0.5081815720 0.0641121045 0.3752785921
0.5066515207 0.0643103868 0.3761054277
0.5042587519 0.0647434965 0.3764718473
0.5035880208 0.0647132844 0.3777309358
0.5029127002 0.0646849796 0.3789876699
0.5030886531 0.0644256249 0.3807033598
0.5015479326 0.0646341071 0.3814936578
0.5017107129 0.0643784776 0.3832112551
0.5001644492 0.0645909533 0.3839895725
0.4994656742 0.0645722523 0.3852337003
0.4979158342 0.0647887290 0.3859966099
0.4972097576 0.0647739172 0.3872321844
0.4964990914 0.0647610277 0.3884651363
0.4957837760 0.0647500679 0.3896954656
0.4959025681 0.0645076111 0.3914154470
0.4943395257 0.0647339001 0.3921482265
0.4936105609 0.0647286624 0.3933705688
0.4937095642 0.0644919425 0.3950926661
0.4913083613 0.0649574399 0.3953014314
0.4913962781 0.0647245571 0.3970213830
0.4906490743 0.0647270232 0.3982328176
0.4907217324 0.0644979849 0.3999572992
0.4899635017 0.0645043030 0.4011665583
0.4900209010 0.0642791837 0.4028953612
0.4867975116 0.0649894178 0.4025249779
0.4860301018 0.0650014356 0.4037190676
0.4860718548 0.0647821054 0.4054426253
0.4844818413 0.0650312304 0.4060986638
0.4837010801 0.0650489852 0.4072840810
0.4845304787 0.0646024272 0.4095510542
0.4829314649 0.0648572072 0.4101916850
0.4829382300 0.0646477938 0.4119203389
0.4829361439 0.0644404292 0.4136525393
0.4813284576 0.0647008419 0.4142777026
0.4797208309 0.0649630055 0.4148934186
0.4789071977 0.0649942607 0.4160612524
0.4765059650 0.0654925779 0.4160962701
0.4748989046 0.0657599792 0.4166834950
0.4748663604 0.0655642450 0.4184038639
0.4732552767 0.0658352301 0.4189785123
0.4732096493 0.0656435341 0.4206990898
0.4723749459 0.0656860247 0.4218420386
0.4715360403 0.0657304302 0.4229817688
0.4706928730 0.0657767206 0.4241184592
0.4698454738 0.0658248886 0.4252518713
0.4682230651 0.0661065355 0.4257886410
0.4673697054 0.0661584064 0.4269125164
0.4657461643 0.0664434060 0.4274334908
0.4648869336 0.0664988905 0.4285478592
0.4640235007 0.0665562600 0.4296588898
0.4631560445 0.0666155294 0.4307666719
0.4622844756 0.0666767061 0.4318712056
0.4614088237 0.0667397305 0.4329724014
0.4605291188 0.0668046549 0.4340703189
0.4596453309 0.0668714643 0.4351648986
0.4580110013 0.0671700165 0.4356316924
0.4571217299 0.0672403947 0.4367164969
0.4562283456 0.0673126504 0.4377979040
0.4553309977 0.0673867762 0.4388759136
0.5279149413 0.0599895120 0.3652407229
0.5237480998 0.0608693995 0.3649732172
0.5195896626 0.0617525093 0.3646750450
0.5172001719 0.0621682145 0.3651702404
0.5165697932 0.0621155761 0.3664801717
0.5159345269 0.0620649047 0.3677877486
0.5161693692 0.0617805272 0.3695156276
0.5155225992 0.0617336184 0.3708220720
0.5139992833 0.0619246624 0.3716965914
0.5124745369 0.0621179529 0.3725616634
0.5100806355 0.0625495315 0.3729807436
0.5085551739 0.0627472326 0.3738235533
0.5070285797 0.0629471093 0.3746569753
0.5072261691 0.0626761690 0.3763752878
0.5048328638 0.0631166324 0.3767463267
0.5050191283 0.0628494844 0.3784632385
0.5034827590 0.0630575418 0.3792695701
0.5036558509 0.0627940968 0.3809884489
0.5029671788 0.0627692938 0.3822472990
0.5022737384 0.0627464652 0.3835036159
0.5007260442 0.0629625544 0.3842860460
0.4991775751 0.0631806850 0.3850591183
0.4984740317 0.0631637722 0.3863008618
0.4969220757 0.0633859038 0.3870584965
0.4953695238 0.0636100248 0.3878066838
0.4954957664 0.0633617565 0.3895222545
0.4956135452 0.0631153509 0.3912419081
0.4948869050 0.0631081015 0.3924705684
0.4941557348 0.0631027594 0.3936965466
0.4934199750 0.0630993545 0.3949198425
0.4910202324 0.0635724142 0.3951297998
0.4902795255 0.0635728762 0.3963409066
0.4903597832 0.0633379966 0.3980611861
0.4896079600 0.0633423030 0.3992700577
0.4888516068 0.0633485317 0.4004761875
0.4889101684 0.0631194860 0.4022015035
0.4865083396 0.0636039674 0.4023546875
0.4857406616 0.0636159629 0.4035490155
0.4849686027 0.0636298582 0.4047404826
0.4841921329 0.0636456683 0.4059290886
0.4826025963 0.0639004484 0.4065762758
0.4834323525 0.0634461343 0.4088392556
0.4826404452 0.0634677783 0.4100223482
0.4826462865 0.0632545128 0.4117508233
0.4818434119 0.0632800609 0.4129312038
0.4810361564 0.0633075535 0.4141086340
0.4786337614 0.0638101920 0.4141669869
0.4778222740 0.0638413653 0.4153319001
0.4754247367 0.0643473119 0.4153648317
0.4738206267 0.0646184534 0.4159495533
0.4737893641 0.0644188672 0.4176664948
0.4729653001 0.0644574761 0.4188126922
0.4729187191 0.0642620027 0.4205331206
0.4720838666 0.0643045753 0.4216762781
0.4712447524 0.0643490329 0.4228163064
0.4704014361 0.0643954054 0.4239531755
0.4695539474 0.0644436926 0.4250868559
0.4679322839 0.0647292808 0.4256243408
0.4670787156 0.0647812262 0.4267484844
0.4654558301 0.0650701299 0.4272701442
0.4645964801 0.0651257560 0.4283847511
0.4637329876 0.0651832446 0.4294960797
0.4628653526 0.0652426407 0.4306041002
0.4612381160 0.0655383468 0.4310972095
0.4603647590 0.0656013638 0.4321955442
0.4594873488 0.0656662732 0.4332906604
0.4578577578 0.0659669191 0.4337615371
0.4562290609 0.0662690699 0.4342229962
0.4560878277 0.0661057457 0.4359289408
0.4551968873 0.0661779791 0.4370075464
0.4543019533 0.0662520826 0.4380828440
0.5308991075 0.0578862689 0.3648876846
0.5267286301 0.0587779470 0.3646496236
0.5216835141 0.0599117540 0.3639763892
0.5192937255 0.0603322126 0.3644892275
0.5177851319 0.0605161600 0.3653971553
0.5162750483 0.0607023500 0.3662957251
0.5156395435 0.0606513768 0.3676035106
0.5158734322 0.0603629053 0.3693310618
0.5152264237 0.0603157803 0.3706377745
0.5137036443 0.0605103858 0.3715129197
0.5130485892 0.0604673289 0.3728113472
0.5106541514 0.0609062389 0.3732351065
0.5099930763 0.0608673245 0.3745218515
0.5075997710 0.0613107868 0.3749197423
0.5077945590 0.0610356927 0.3766412735
0.5062608719 0.0612431467 0.3774670660
0.5064424276 0.0609717816 0.3791906536
0.5049028993 0.0611832924 0.3800045848
0.5042167902 0.0611563213 0.3812695444
0.5035259724 0.0611313060 0.3825320899
0.5036811233 0.0608674735 0.3842594326
0.5012815595 0.0613278784 0.3845786750
0.4997317493 0.0615496486 0.3853558004
0.4990260303 0.0615325309 0.3866012692
0.4974728227 0.0617582910 0.3873629570
0.4959188104 0.0619861037 0.3881152272
0.4952032268 0.0619748682 0.3893460333
0.4961569011 0.0614834726 0.3915567398
0.4945931435 0.0617171377 0.3922943175
0.4930287600 0.0619527698 0.3930224180
0.4931258559 0.0617081597 0.3947439790
0.4915563762 0.0619476922 0.3954598904
0.4899865985 0.0621891730 0.3961664438
0.4892411530 0.0621914640 0.3973750174
0.4884912074 0.0621956810 0.3985807896
0.4877368510 0.0622018389 0.3997838199
0.4869779050 0.0622099303 0.4009839594
0.4862146080 0.0622199290 0.4021814167
0.4854467809 0.0622318648 0.4033759534
0.4846745431 0.0622457042 0.4045676291
0.4838978946 0.0622615144 0.4057564437
0.4831168354 0.0622792318 0.4069423676
0.4839426577 0.0618172511 0.4092079103
0.4823449552 0.0620797053 0.4098499417
0.4823497534 0.0618625917 0.4115781486
0.4815467298 0.0618881546 0.4127587974
0.4807392955 0.0619156621 0.4139364064
0.4791329503 0.0621855445 0.4145534933
0.4783191085 0.0622168221 0.4157218933
0.4759208262 0.0627305806 0.4157592356
0.4743150473 0.0630056784 0.4163479209
0.4742806256 0.0628023967 0.4180678129
0.4734540880 0.0628411844 0.4192174375
0.4726233184 0.0628818870 0.4203639925
0.4717883170 0.0629245043 0.4215073586
0.4709491134 0.0629690215 0.4226476848
0.4693317413 0.0632549822 0.4231985211
0.4692580104 0.0630638897 0.4249187410
0.4676369727 0.0633533671 0.4254568815
0.4675501883 0.0631663799 0.4271770120
0.4651611745 0.0636982769 0.4271036983
0.4643016756 0.0637540072 0.4282185435
0.4634380043 0.0638116300 0.4293300807
0.4625703096 0.0638711378 0.4304383993
0.4609436989 0.0641708300 0.4309321940
0.4600702226 0.0642339885 0.4320308268
0.4584429264 0.0645369068 0.4325087667
0.4575638473 0.0646036714 0.4335977733
0.4559358656 0.0649097934 0.4340598881
0.4550513029 0.0649801120 0.4351390898
0.4541627765 0.0650523230 0.4362149835
0.4532702267 0.0651264116 0.4372874796
0.4531086683 0.0649656504 0.4389921725
0.5279341340 0.0571533181 0.3635024726
0.5246554017 0.0578179508 0.3636563122
0.5204994678 0.0587281995 0.3633825779
0.5181127191 0.0591561534 0.3638930619
0.5166063905 0.0593437664 0.3647981584
0.5159755349 0.0592905581 0.3661083877
0.5153398514 0.0592393391 0.3674163520
0.5155727267 0.0589467548 0.3691436350
0.5149254799 0.0588993542 0.3704504967
0.5125333071 0.0593411364 0.3708976805
0.5118798614 0.0592979379 0.3721928895
0.5094885826 0.0597443506 0.3726142645
0.5079643726 0.0599492490 0.3734584749
0.5055761337 0.0604003519 0.3738506734
0.5057735443 0.0601213947 0.3755649030
0.5051032901 0.0600884333 0.3768340349
0.5052856803 0.0598130934 0.3785538673
0.5046041608 0.0597839765 0.3798215389
0.5039178729 0.0597568005 0.3810867667
0.5032268763 0.0597315766 0.3823494911
0.5025311112 0.0597083494 0.3836096525
0.5009828210 0.0599316880 0.3843969405
0.4994336665 0.0601570979 0.3851748109
0.4987277985 0.0601398088 0.3864204288
0.4980172217 0.0601245016 0.3876634538
0.4964619577 0.0603559241 0.3884198666
0.4949060082 0.0605893768 0.3891668618
0.4958578646 0.0600902103 0.3913767636
0.4934605658 0.0605724826 0.3916208744
0.4918989241 0.0608118549 0.3923463821
0.4919969440 0.0605633520 0.3940641880
0.4904302657 0.0608065985 0.3947775364
0.4896891713 0.0608068667 0.3959890008
0.4881196618 0.0610539876 0.3966868520
0.4873715639 0.0610581413 0.3978894353
0.4866191447 0.0610641800 0.3990893960
0.4858621359 0.0610722043 0.4002864361
0.4842851460 0.0613269880 0.4009563923
0.4843349159 0.0610939637 0.4026722312
0.4843759239 0.0608629882 0.4043916762
0.4835991263 0.0608787462 0.4055807590
0.4828179479 0.0608964376 0.4067668915
0.4828370512 0.0606714338 0.4084908962
0.4812422693 0.0609376058 0.4091303945
0.4812483191 0.0607166104 0.4108550847
0.4804472923 0.0607421137 0.4120326936
0.4788460135 0.0610138848 0.4126534760
0.4780386090 0.0610431656 0.4138219357
0.4772268534 0.0610743985 0.4149872661
0.4756215513 0.0613516383 0.4155861139
0.4748034179 0.0613866374 0.4167421162
0.4739810228 0.0614235662 0.4178951085
0.4731543362 0.0614623949 0.4190450013
0.4723234773 0.0615031756 0.4201917946
0.4707105756 0.0617894158 0.4207559526
0.4706490040 0.0615904741 0.4224759340
0.4690322876 0.0618803091 0.4230274856
0.4681868851 0.0619286373 0.4241584837
0.4673373103 0.0619788878 0.4252863228
0.4664835036 0.0620310232 0.4264110029
0.4648620784 0.0623278283 0.4269340634
0.4640024304 0.0623836443 0.4280491471
0.4638973773 0.0621989928 0.4297654927
0.4622707665 0.0625010654 0.4302695394
0.4606449604 0.0628046915 0.4307640493
0.4597713947 0.0628679767 0.4318629205
0.4581448138 0.0631748810 0.4323416054
0.4572656155 0.0632417873 0.4334307611
0.4556383193 0.0635519177 0.4338935912
0.4554952383 0.0633812621 0.4355991185
0.4538650215 0.0636947751 0.4360491931
0.4537090063 0.0635282993 0.4377540946
0.4528099000 0.0636046454 0.4388264120
0.4533698559 0.0632023066 0.4411716163
0.5258537531 0.0561986305 0.3625137210
0.5234633684 0.0566284172 0.3630619347
0.5201933980 0.0573073439 0.3631902933
0.5186876059 0.0574960150 0.3641089499
0.5171802044 0.0576870069 0.3650181890
0.5165474415 0.0576333441 0.3663322628
0.5150353909 0.0578287430 0.3672263324
0.5152671933 0.0575320758 0.3689532578
0.5146197677 0.0574844405 0.3702602983
0.5122290254 0.0579335690 0.3707087636
0.5115752816 0.0578901395 0.3720040321
0.5100511909 0.0580963157 0.3728618324
0.5085257888 0.0583046861 0.3737102449
0.5061371326 0.0587630719 0.3741071224
0.5054715276 0.0587279201 0.3753789365
0.5056594610 0.0584467202 0.3770973384
0.5058389902 0.0581673160 0.3788203299
0.5043007135 0.0583860949 0.3796356320
0.5036142468 0.0583587177 0.3809010386
0.5029230118 0.0583333597 0.3821639419
0.5013781786 0.0585583076 0.3829579055
0.4998323917 0.0587853752 0.3837424815
0.4991309643 0.0587659664 0.3849908710
0.4992680848 0.0584999733 0.3867133558
0.4977141321 0.0587330721 0.3874799013
0.4961595535 0.0589682013 0.3882370591
0.4954415560 0.0589566715 0.3894715905
0.4947189987 0.0589470826 0.3907035589
0.4931584895 0.0591881983 0.3914391398
0.4915974140 0.0594312847 0.3921652734
0.4908652306 0.0594275817 0.3933824301
0.4901284873 0.0594258383 0.3945969045
0.4893871844 0.0594260171 0.3958086073
0.4878182709 0.0596768931 0.3965070844
0.4870701432 0.0596809685 0.3977099657
0.4863174856 0.0596869402 0.3989101052
0.4847434759 0.0599435791 0.3995868564
0.4839840829 0.0599534288 0.4007780850
0.4832201600 0.0599651933 0.4019664228
0.4832623899 0.0597303025 0.4036823809
0.4824875593 0.0597459935 0.4048683047
0.4809021652 0.0600121208 0.4055143595
0.4809247255 0.0597831532 0.4072315097
0.4793349802 0.0600530356 0.4078652263
0.4801439941 0.0595797226 0.4101299047
0.4793450832 0.0596051514 0.4113045037
0.4785418510 0.0596325137 0.4124761522
0.4769413769 0.0599099211 0.4130881727
0.4761317074 0.0599410832 0.4142505229
0.4745293558 0.0602220893 0.4148468971
0.4737133682 0.0602570139 0.4159998596
0.4728931785 0.0602938570 0.4171499312
0.4720686674 0.0603326745 0.4182968140
0.4712399840 0.0603733584 0.4194406271
0.4696300924 0.0606634058 0.4200023413
0.4687952995 0.0607078187 0.4211367369
0.4671839774 0.0610013157 0.4216827452
0.4663431346 0.0610494465 0.4228077233
0.4662657380 0.0608526319 0.4245210886
0.4654141963 0.0609047674 0.4256427884
0.4637958109 0.0612053312 0.4261634648
0.4629384875 0.0612611137 0.4272756875
0.4620770216 0.0613188408 0.4283846021
0.4612114727 0.0613784231 0.4294902384
0.4595888257 0.0616858453 0.4299824536
0.4579669535 0.0619948320 0.4304651320
0.4578423202 0.0618142262 0.4321712255
0.4562173486 0.0621266700 0.4326412082
0.4553365707 0.0621954314 0.4337241948
0.4551924765 0.0620211139 0.4354294837
0.4543012381 0.0620938577 0.4365089536
0.4534059763 0.0621685125 0.4375848770
0.4525068104 0.0622450598 0.4386574924
0.4530649483 0.0618352629 0.4410019815
0.4528808892 0.0616721846 0.4427143335
0.5220043659 0.0557605065 0.3607326150
0.5196220875 0.0561982766 0.3612677753
0.5172414184 0.0566386953 0.3617864847
0.5166199803 0.0565809645 0.3631015718
0.5151165724 0.0567757487 0.3640044928
0.5144869685 0.0567221344 0.3653115630
0.5138525367 0.0566705056 0.3666163385
0.5140851140 0.0563698821 0.3683394194
0.5134391785 0.0563221090 0.3696431220
0.5119199753 0.0565275326 0.3705168366
0.5103995800 0.0567351617 0.3713812530
0.5088778138 0.0569450334 0.3722362220
0.5082178712 0.0569055229 0.3735199571
0.5058307052 0.0573713370 0.3739180565
0.5051648617 0.0573359653 0.3751900494
0.5053517818 0.0570507385 0.3769080937
0.5046745539 0.0570192225 0.3781786263
0.5031388402 0.0572417229 0.3789912164
0.5024541020 0.0572142340 0.3802533746
0.5009145141 0.0574408770 0.3810505569
0.4993740320 0.0576696247 0.3818383813
0.4986790419 0.0576481894 0.3830860853
0.4979793131 0.0576286651 0.3843312562
0.4981173873 0.0573587529 0.3860500157
0.4974064529 0.0573431253 0.3872933984
0.4958525300 0.0575819314 0.3880512118
0.4951343238 0.0575703084 0.3892860115
0.4944116175 0.0575605556 0.3905181587
0.4920192957 0.0580579229 0.3907612860
0.4912914336 0.0580521747 0.3919813037
0.4905590713 0.0580483638 0.3931986690
0.4898221493 0.0580465123 0.3944132924
0.4899049699 0.0577940568 0.3961318731
0.4883347452 0.0580486618 0.3968344033
0.4867641330 0.0583052225 0.3975274861
0.4860112965 0.0583111644 0.3987277746
0.4844380617 0.0585715622 0.3994053006
0.4836784303 0.0585813411 0.4005966485
0.4829144180 0.0585930534 0.4017852545
0.4821459949 0.0586067326 0.4029709995
0.4813731611 0.0586223379 0.4041538239
0.4805959761 0.0586398728 0.4053338468
0.4806175530 0.0584070794 0.4070507586
0.4790284932 0.0586807691 0.4076851010
0.4790368974 0.0584519729 0.4094026685
0.4782400727 0.0584773086 0.4105742574
0.4782331884 0.0582526140 0.4122956395
0.4758413434 0.0587857850 0.4123523235
0.4758236408 0.0585650168 0.4140709937
0.4742219746 0.0588499159 0.4146680236
0.4734058678 0.0588848628 0.4158212841
0.4725854993 0.0589217655 0.4169715047
0.4717608988 0.0589605905 0.4181186855
0.4701536596 0.0592526756 0.4186874032
0.4685468674 0.0595464595 0.4192466438
0.4677142501 0.0595908351 0.4203781188
0.4668774605 0.0596371554 0.4215064347
0.4660365283 0.0596853569 0.4226316214
0.4651914239 0.0597355291 0.4237535894
0.4651064277 0.0595370494 0.4254667163
0.4634887874 0.0598415807 0.4259880781
0.4626313150 0.0598974898 0.4271005094
0.4617697299 0.0599552877 0.4282096326
0.4609041214 0.0600150190 0.4293155670
0.4585299790 0.0605761111 0.4291986525
0.4576610625 0.0606393218 0.4302918613
0.4567881823 0.0607044399 0.4313817918
0.4559112787 0.0607714392 0.4324683845
0.4550303221 0.0608403832 0.4335516393
0.4548853338 0.0606624112 0.4352566898
0.4539940059 0.0607353561 0.4363363385
0.4523638189 0.0610585399 0.4367814064
0.4521993995 0.0608869009 0.4384853840
0.4520259500 0.0607176237 0.4401919544
0.4518435001 0.0605506748 0.4419011176
0.4516519606 0.0603861213 0.4436127841
0.5193074942 0.0547845364 0.3610700965
0.5178078413 0.0549782254 0.3619923890
0.5163066387 0.0551742204 0.3629052937
0.5148039460 0.0553725511 0.3638088405
0.5132996440 0.0555731356 0.3647031188
0.5135394931 0.0552667454 0.3664210737
0.5120289326 0.0554715879 0.3673036695
0.5122554898 0.0551689193 0.3690240383
0.5116062760 0.0551229492 0.3703220785
0.5100865364 0.0553341694 0.3711871505
0.5085654259 0.0555475987 0.3720428348
0.5079053044 0.0555078611 0.3733267486
0.5063799620 0.0557255894 0.3741671443
0.5048536062 0.0559454896 0.3749981821
0.5050394535 0.0556562431 0.3767159581
0.5035072565 0.0558802709 0.3775351346
0.5019739866 0.0561064482 0.3783449233
0.5004398227 0.0563347414 0.3791453838
0.4997538924 0.0563092232 0.3803982735
0.4982160628 0.0565416627 0.3811833262
0.4975227714 0.0565201044 0.3824278116
0.4976682663 0.0562443174 0.3841419220
0.4978052080 0.0559704565 0.3858602643
0.4970941842 0.0559546612 0.3871039152
0.4963784814 0.0559408851 0.3883449137
0.4948225915 0.0561853610 0.3890974522
0.4932660162 0.0564318746 0.3898404837
0.4917089045 0.0566804074 0.3905740976
0.4909808636 0.0566745326 0.3917943537
0.4902483225 0.0566706248 0.3930118680
0.4886856973 0.0569250882 0.3937239349
0.4887696207 0.0566686876 0.3954388499
0.4872021079 0.0569270477 0.3961387277
0.4856342971 0.0571873337 0.3968291879
0.4857006669 0.0569368303 0.3985425234
0.4841281176 0.0572009683 0.3992207348
0.4825553000 0.0574670024 0.3998895288
0.4817932844 0.0574786663 0.4010749757
0.4818355441 0.0572360009 0.4027869999
0.4810626507 0.0572515875 0.4039700925
0.4802852869 0.0572690740 0.4051502645
0.4803058207 0.0570324548 0.4068668783
0.4787174761 0.0573099591 0.4075019658
0.4779270887 0.0573332720 0.4086734354
0.4779279232 0.0571026765 0.4103910327
0.4771266282 0.0571299754 0.4115598202
0.4755298495 0.0574149862 0.4121700227
0.4755111039 0.0571904369 0.4138883948
0.4746968746 0.0572235994 0.4150481522
0.4730939269 0.0575141758 0.4156396091
0.4722734392 0.0575510897 0.4167900383
0.4706689417 0.0578452311 0.4173657894
0.4698422551 0.0578859374 0.4185068607
0.4682361782 0.0581836142 0.4190668166
0.4666306376 0.0584829599 0.4196173549
0.4657960832 0.0585292205 0.4207427800
0.4649573267 0.0585773885 0.4218649864
0.4648802280 0.0583729893 0.4235747159
0.4655576646 0.0579164810 0.4258812368
0.4639384151 0.0582250506 0.4264065027
0.4623198509 0.0585352592 0.4269222319
0.4614581764 0.0585932024 0.4280316234
0.4598386288 0.0589067787 0.4285315871
0.4582199156 0.0592219085 0.4290220439
0.4573509395 0.0592852384 0.4301154613
0.4564779401 0.0593505092 0.4312056005
0.4556008875 0.0594176911 0.4322924316
0.4547199011 0.0594867878 0.4333759248
0.4545739293 0.0593051538 0.4350807369
0.4536824524 0.0593782701 0.4361605346
0.4527870715 0.0594532639 0.4372370243
0.4526190758 0.0592782423 0.4389437735
0.4524421394 0.0591055565 0.4406530857
0.4522562027 0.0589352436 0.4423649907
0.4520612061 0.0587673038 0.4440793693
0.4525782764 0.0583507344 0.4464418590
0.5172274709 0.0538877062 0.3600730598
0.5157317519 0.0540852174 0.3609888852
0.5151115656 0.0540270358 0.3623007536
0.5144865513 0.0539708585 0.3636104167
0.5129829049 0.0541749559 0.3645053208
0.5132216215 0.0538645014 0.3662228882
0.5117117763 0.0540728755 0.3671061993
0.5110689402 0.0540248193 0.3684031665
0.5095546246 0.0542375930 0.3692712784
0.5089038610 0.0541936494 0.3705600500
0.5073851943 0.0544107482 0.3714129925
0.5067266822 0.0543708950 0.3726935685
0.5060633421 0.0543330386 0.3739717305
0.5045375824 0.0545565262 0.3748034835
0.5047224164 0.0542632528 0.3765208721
0.5023369193 0.0547504276 0.3768897653
0.4999541640 0.0552399568 0.3772423565
0.4992746413 0.0552123189 0.3784945011
0.4977421165 0.0554464199 0.3792827427
0.4962087572 0.0556826405 0.3800616264
0.4963636398 0.0554011278 0.3817676008
0.4965099990 0.0551214553 0.3834779561
0.4966478944 0.0548436604 0.3851926327
0.4959386587 0.0548277758 0.3864329755
0.4952247143 0.0548138842 0.3876707554
0.4945062399 0.0548019670 0.3889058828
0.4929503798 0.0550521649 0.3896496296
0.4922246933 0.0550442077 0.3908761442
0.4906657338 0.0552984178 0.3916043937
0.4899330139 0.0552944131 0.3928220868
0.4883711338 0.0555525832 0.3935348988
0.4884540141 0.0552922823 0.3952494562
0.4868873060 0.0555543378 0.3959500790
0.4853201210 0.0558183864 0.3966412246
0.4853854477 0.0555639714 0.3983542323
0.4838136435 0.0558318757 0.3990331590
0.4822416008 0.0561016798 0.3997026682
0.4814794064 0.0561132804 0.4008883238
0.4807128608 0.0561268330 0.4020711482
0.4791361392 0.0564023294 0.4027189016
0.4791665673 0.0561597683 0.4044282138
0.4783869088 0.0561791398 0.4056024253
0.4776028693 0.0562004596 0.4067737460
0.4768145084 0.0562237501 0.4079421461
0.4760218263 0.0562489666 0.4091075957
0.4760173857 0.0560164899 0.4108219147
0.4752138555 0.0560456738 0.4119846523
0.4736180305 0.0563362688 0.4125861526
0.4735939503 0.0561099127 0.4143011272
0.4719941020 0.0564042106 0.4148901701
0.4703944921 0.0567002669 0.4154696465
0.4695742428 0.0567389987 0.4166108370
0.4687497616 0.0567796417 0.4177488983
0.4671468437 0.0570810698 0.4183064699
0.4655442834 0.0573841892 0.4188545644
0.4654816389 0.0571718216 0.4205607772
0.4654099941 0.0569616184 0.4222701788
0.4645646811 0.0570119508 0.4233926535
0.4652402699 0.0565478988 0.4256983697
0.4643818736 0.0566023700 0.4268206954
0.4620039463 0.0571745373 0.4267407954
0.4611421824 0.0572325736 0.4278504252
0.4595234692 0.0575500801 0.4283511043
0.4571550786 0.0581265204 0.4282335341
0.4570364356 0.0579326563 0.4299359620
0.4561633170 0.0579980537 0.4310263097
0.4552862346 0.0580653735 0.4321133494
0.4544050992 0.0581346229 0.4331970811
0.4542581439 0.0579493791 0.4349015951
0.4541021585 0.0577664524 0.4366087914
0.4517380297 0.0583538301 0.4364281893
0.4515716732 0.0581749529 0.4381316304
0.4521242678 0.0577428974 0.4404738843
0.4512118995 0.0578242838 0.4415463209
0.4502955675 0.0579076260 0.4426153302
0.4508159757 0.0574831739 0.4449710548
0.4506044388 0.0573162287 0.4466870725
0.5169050097 0.0524846837 0.3598707020
0.5162879229 0.0524240285 0.3611885011
0.5147896409 0.0526272021 0.3620992899
0.5141643882 0.0525707304 0.3634090126
0.5135341883 0.0525162779 0.3647165596
0.5128991008 0.0524638109 0.3660218120
0.5113899112 0.0526757315 0.3669058383
0.5107468963 0.0526274219 0.3682029843
0.5092332363 0.0528437160 0.3690717816
0.5077182651 0.0530622639 0.3699312210
0.5070643425 0.0530202053 0.3712143302
0.5072660446 0.0527171418 0.3729315996
0.5066006780 0.0526789352 0.3742134571
0.5059306026 0.0526427515 0.3754928410
0.5044007897 0.0528717786 0.3763228953
0.5020169020 0.0533664003 0.3766930401
0.4996356666 0.0538633317 0.3770468533
0.4981066287 0.0540990084 0.3778417706
0.4965766966 0.0543368123 0.3786272705
0.4958915412 0.0543130711 0.3798677027
0.4952016771 0.0542913079 0.3811055720
0.4961906374 0.0537439659 0.3832832873
0.4954877198 0.0537260287 0.3845230043
0.4956180453 0.0534461737 0.3862381279
0.4949039519 0.0534321405 0.3874760866
0.4941852987 0.0534200780 0.3887113929
0.4926301837 0.0536739603 0.3894558549
0.4910745323 0.0539298877 0.3901908994
0.4903461039 0.0539238043 0.3914115131
0.4896132648 0.0539196767 0.3926294148
0.4880520701 0.0541815534 0.3933429122
0.4881339371 0.0539173596 0.3950571120
0.4865678847 0.0541831888 0.3957584500
0.4858190417 0.0541869216 0.3969621062
0.4858812690 0.0539286770 0.3986780643
0.4834946990 0.0544643290 0.3988426030
0.4819234014 0.0547378585 0.3995128274
0.4811611176 0.0547494143 0.4006986916
0.4803943634 0.0547629297 0.4018816948
0.4788184464 0.0550422035 0.4025301933
0.4780451655 0.0550595708 0.4037041962
0.4780679941 0.0548151508 0.4054135382
0.4764855802 0.0551001243 0.4060435593
0.4764953554 0.0548597313 0.4077536464
0.4764963984 0.0546214357 0.4094673395
0.4764887094 0.0543852225 0.4111845791
0.4748933911 0.0546778925 0.4117961824
0.4748726487 0.0544457696 0.4135139287
0.4732732773 0.0547421649 0.4141131341
0.4724567533 0.0547772311 0.4152670205
0.4716360271 0.0548142567 0.4164178371
0.4700330794 0.0551161133 0.4169950485
0.4684303999 0.0554197207 0.4175627828
0.4668282270 0.0557250269 0.4181210101
0.4652265012 0.0560320131 0.4186697900
0.4651627839 0.0558158942 0.4203757942
0.4643239081 0.0558642335 0.4214984179
0.4642447829 0.0556523949 0.4232074916
0.4641568363 0.0554427691 0.4249196947
0.4633007646 0.0554972067 0.4260390997
0.4609269500 0.0560769439 0.4259573519
0.4600674510 0.0561349466 0.4270640612
0.4592039287 0.0561948940 0.4281675220
0.4568372667 0.0567790642 0.4280512035
0.4559704959 0.0568425395 0.4291419685
0.4558444023 0.0566471033 0.4308438897
0.4549672008 0.0567145646 0.4319311678
0.4548257291 0.0565235578 0.4336356819
0.4539380670 0.0565950945 0.4347192943
0.4537811577 0.0564085506 0.4364261627
0.4521508813 0.0567438938 0.4368765056
0.4519809783 0.0565616600 0.4385826290
0.4510749876 0.0566410795 0.4396557510
0.4501650631 0.0567224398 0.4407254457
0.4499732554 0.0565468594 0.4424333572
0.4504917562 0.0561150536 0.4447882771
0.4495623708 0.0562029257 0.4458564520
0.5156993866 0.0513484962 0.3592683673
0.5150836706 0.0512877218 0.3605827093
0.5144630671 0.0512289330 0.3618949354
0.5129640102 0.0514379144 0.3627969921
0.5123353601 0.0513833128 0.3641011715
0.5125718713 0.0510647036 0.3658179045
0.5101949573 0.0515462980 0.3662841916
0.5095534921 0.0514978506 0.3675779998
0.5089071989 0.0514514111 0.3688694239
0.5073929429 0.0516735204 0.3697296083
0.5058774352 0.0518978797 0.3705803454
0.5052203536 0.0518576615 0.3718577325
0.5045585036 0.0518194214 0.3731327653
0.5038918257 0.0517832004 0.3744053543
0.5023664236 0.0520160794 0.3752291203
0.5008400083 0.0522510707 0.3760434985
0.4993125498 0.0524882264 0.3768484592
0.4986326993 0.0524602309 0.3781009018
0.4962550998 0.0529689565 0.3784303069
0.4955697358 0.0529450402 0.3796708882
0.4948797226 0.0529231131 0.3809089661
0.4950259328 0.0526355766 0.3826151192
0.4943248034 0.0526175126 0.3838515580
0.4936191142 0.0526014492 0.3850854039
0.4929087758 0.0525873527 0.3863167167
0.4930268228 0.0523074977 0.3880296946
0.4914745092 0.0525650755 0.3887714744
0.4899215698 0.0528246835 0.3895038366
0.4891950786 0.0528185070 0.3907212615
0.4884640276 0.0528143272 0.3919359446
0.4869056344 0.0530799069 0.3926467597
0.4869885147 0.0528118126 0.3943572640
0.4862439930 0.0528135337 0.3955638111
0.4854950309 0.0528172180 0.3967676461
0.4855561852 0.0525550954 0.3984832764
0.4831712544 0.0530982651 0.3986490667
0.4816007614 0.0533755794 0.3993200362
0.4808383286 0.0533870831 0.4005060494
0.4800714552 0.0534005389 0.4016892314
0.4784962535 0.0536836013 0.4023384154
0.4785245955 0.0534333587 0.4040470719
0.4785442352 0.0531851761 0.4057593346
0.4769603908 0.0534739979 0.4063933492
0.4761717916 0.0534972437 0.4075621367
0.4761717916 0.0532551520 0.4092754424
0.4761630893 0.0530151352 0.4109923244
0.4753570557 0.0530444570 0.4121587574
0.4745467901 0.0530757047 0.4133221507
0.4737321734 0.0531089716 0.4144824743
0.4721315801 0.0534110554 0.4150761366
0.4713107049 0.0534481518 0.4162271619
0.4704856277 0.0534871742 0.4173750877
0.4688814878 0.0537947379 0.4179467559
0.4672777653 0.0541040227 0.4185089171
0.4664447010 0.0541486852 0.4196411669
0.4663752615 0.0539291054 0.4213531315
0.4647659957 0.0542438626 0.4218963981
0.4646835923 0.0540284626 0.4236082733
0.4638315737 0.0540810488 0.4247311056
0.4622170627 0.0544012412 0.4252554178
0.4598473012 0.0549884997 0.4251717925
0.4597437084 0.0547811575 0.4268771708
0.4588800371 0.0548412204 0.4279808700
0.4572637379 0.0551682040 0.4284735024
0.4571406543 0.0549671911 0.4301784039
0.4562649429 0.0550330766 0.4312722087
0.4553852081 0.0551008694 0.4323628247
0.4537627101 0.0554348305 0.4328299761
0.4536136985 0.0552423187 0.4345338643
0.4527219832 0.0553159602 0.4356143773
0.4510951042 0.0556550846 0.4360623956
0.4509267509 0.0554689914 0.4377652109
0.4507493973 0.0552852489 0.4394706488
0.4498393834 0.0553668402 0.4405405819
0.4496465623 0.0551876575 0.4422481656
0.4487261772 0.0552733317 0.4433141053
0.4485178590 0.0550987497 0.4450236559
0.4475870728 0.0551885441 0.4460855424
0.5171238184 0.0494143479 0.3598540723
0.5165045857 0.0493529253 0.3611756563
0.5150060058 0.0495629087 0.3620913923
0.5135059953 0.0497752205 0.3629977703
0.5128754377 0.0497202054 0.3643055856
0.5131092072 0.0493973903 0.3660254478
0.5107321143 0.0498861521 0.3664965332
0.5092229843 0.0501073934 0.3673725724
0.5077124834 0.0503308959 0.3682392836
0.5062007308 0.0505566895 0.3690966070
0.5046877861 0.0507846922 0.3699446023
0.5048908591 0.0504737869 0.3716540635
0.5033720136 0.0507060289 0.3724902868
0.5035619736 0.0503989346 0.3742019832
0.5011842251 0.0509061851 0.3745805919
0.5005116463 0.0508739538 0.3758415282
0.4989849031 0.0511147231 0.3766472042
0.4983048737 0.0510865301 0.3778997958
0.4967745841 0.0513315015 0.3786902130
0.4952433705 0.0515785813 0.3794711828
0.4945531785 0.0515564829 0.3807094395
0.4930185378 0.0518077090 0.3814750910
0.4931590855 0.0515182018 0.3831782937
0.4924551845 0.0515020266 0.3844089508
0.4917466938 0.0514878146 0.3856369853
0.4902015924 0.0517471209 0.3863787055
0.4894860387 0.0517369136 0.3875981569
0.4879378080 0.0520002581 0.3883244395
0.4880412519 0.0517224036 0.3900291026
0.4873121083 0.0517181121 0.3912405968
0.4874004424 0.0514441691 0.3929500580
0.4866602719 0.0514438078 0.3941594958
0.4850978255 0.0517170615 0.3948588967
0.4851665199 0.0514490604 0.3965702355
0.4844129384 0.0514546335 0.3977714479
0.4820318520 0.0520053357 0.3979352415
0.4812736511 0.0520148352 0.3991242647
0.4813183546 0.0517547615 0.4008344412
0.4789389074 0.0523111783 0.4009664953
0.4781696796 0.0523265526 0.4021437466
0.4781970084 0.0520724654 0.4038519859
0.4774169028 0.0520917960 0.4050267637
0.4766325057 0.0521130562 0.4061986208
0.4766380191 0.0518651083 0.4079112411
0.4758427441 0.0518904179 0.4090805650
0.4750431478 0.0519176684 0.4102468491
0.4742392600 0.0519469008 0.4114101827
0.4726457596 0.0522490107 0.4120138884
0.4718356431 0.0522820801 0.4131679833
0.4702403247 0.0525878333 0.4137559831
0.4702024758 0.0523541421 0.4154670835
0.4693795741 0.0523931086 0.4166119993
0.4685524702 0.0524340458 0.4177538753
0.4669495523 0.0527472086 0.4183167517
0.4661163390 0.0527919568 0.4194492102
0.4660459161 0.0525686443 0.4211608469
0.4644374847 0.0528872721 0.4217047989
0.4635918736 0.0529378802 0.4228278995
0.4627420604 0.0529904366 0.4239477515
0.4603734016 0.0535837784 0.4238748550
0.4587652683 0.0539091788 0.4243842065
0.4586630166 0.0536980033 0.4260860980
0.4585518837 0.0534890965 0.4277909696
0.4576841295 0.0535512306 0.4288916290
0.4575575888 0.0533467419 0.4305992723
0.4566793144 0.0534129702 0.4316963851
0.4550566971 0.0537493192 0.4321737587
0.4541729093 0.0538192429 0.4332611859
0.4532850683 0.0538910851 0.4343452454
0.4523932636 0.0539648756 0.4354259372
0.4514975548 0.0540406071 0.4365033209
0.4513256848 0.0538511276 0.4382088482
0.4504194856 0.0539309420 0.4392824173
0.4495094717 0.0540127158 0.4403524995
0.4485954940 0.0540964417 0.4414191544
0.4476776123 0.0541820899 0.4424823523
0.4467558563 0.0542696938 0.4435420334
0.4458301961 0.0543592088 0.4445982277
0.4463203251 0.0539197251 0.4469557703
0.5191577673 0.0475308076 0.3591035306
0.5167863369 0.0480123460 0.3596425951
0.5144166350 0.0484965853 0.3601652086
0.5137956142 0.0484372377 0.3614776433
0.5122980475 0.0486531816 0.3623811901
0.5116689205 0.0485980399 0.3636855483
0.5119033456 0.0482712910 0.3654014766
0.5103962421 0.0484937727 0.3662875593
0.5088877678 0.0487185381 0.3671643436
0.5065149665 0.0492195636 0.3676074147
0.5058670044 0.0491748936 0.3688898087
0.5043547750 0.0494064614 0.3697384298
0.5036990643 0.0493658744 0.3710126579
0.5030386448 0.0493273325 0.3722844422
0.5023734570 0.0492907837 0.3735538423
0.4999991059 0.0498055257 0.3739302456
0.4993282557 0.0497731492 0.3751878440
0.4986527264 0.0497427732 0.3764430583
0.4979725182 0.0497143902 0.3776957989
0.4964428544 0.0499629937 0.3784869015
0.4949124753 0.0502136908 0.3792685866
0.4933812320 0.0504665151 0.3800409138
0.4918492734 0.0507214367 0.3808038831
0.4919907153 0.0504280366 0.3825032115
0.4912885427 0.0504117496 0.3837305903
0.4905819297 0.0503974408 0.3849554062
0.4898706675 0.0503851362 0.3861775994
0.4891548753 0.0503747873 0.3873971999
0.4876075387 0.0506417975 0.3881242275
0.4868847728 0.0506354645 0.3893351257
0.4861575365 0.0506310463 0.3905434608
0.4862468243 0.0503532365 0.3922490776
0.4855085909 0.0503527820 0.3934553862
0.4839489758 0.0506297499 0.3941521645
0.4840187132 0.0503578633 0.3958597183
0.4832670987 0.0503633693 0.3970578015
0.4808898270 0.0509215742 0.3972195089
0.4801335633 0.0509309955 0.3984053433
0.4809857607 0.0503917448 0.4006352723
0.4794122875 0.0506804548 0.4012953639
0.4786407650 0.0506958105 0.4024760723
0.4786648154 0.0504379570 0.4041872323
0.4778824449 0.0504573137 0.4053654373
0.4763001800 0.0507536940 0.4060008824
0.4763046205 0.0505019724 0.4077131450
0.4755092561 0.0505272597 0.4088825881
0.4747095406 0.0505545363 0.4100491107
0.4731189311 0.0508585349 0.4106597900
0.4723128676 0.0508896895 0.4118170142
0.4715026021 0.0509228036 0.4129712880
0.4699081779 0.0512323715 0.4135600328
0.4690916240 0.0512693450 0.4147050083
0.4682709277 0.0513082296 0.4158468843
0.4674460292 0.0513491258 0.4169858098
0.4666169286 0.0513919555 0.4181216061
0.4657836258 0.0514367521 0.4192542434
0.4649462402 0.0514835231 0.4203837812
0.4641045928 0.0515322499 0.4215101898
0.4624976218 0.0518564694 0.4220454693
0.4608913362 0.0521823205 0.4225713015
0.4592856467 0.0525098294 0.4230876267
0.4576807618 0.0528390035 0.4235946238
0.4583315551 0.0523510948 0.4258935153
0.4582194090 0.0521385111 0.4275980890
0.4580983222 0.0519282371 0.4293055534
0.4579683542 0.0517202765 0.4310159087
0.4570875168 0.0517868251 0.4321163297
0.4554632604 0.0521273203 0.4325974584
0.4545768499 0.0521976016 0.4336881340
0.4536865354 0.0522697940 0.4347754717
0.4520602524 0.0526153632 0.4352344275
0.4511644542 0.0526912920 0.4363119900
0.4502647221 0.0527691133 0.4373861551
0.4493610263 0.0528489202 0.4384568930
0.4484534562 0.0529306829 0.4395242333
0.4482611418 0.0527441204 0.4412280917
0.4473432600 0.0528299622 0.4422915578
0.4464213848 0.0529177785 0.4433513880
0.4454957247 0.0530075394 0.4444078505
0.4452750683 0.0528299958 0.4461126626
0.5217965841 0.0457060449 0.3569884300
0.5203061104 0.0459134243 0.3579428792
0.5188139081 0.0461232066 0.3588880002
0.5164441466 0.0466119871 0.3594282866
0.5149502754 0.0468267314 0.3603512049
0.5125823617 0.0473207347 0.3608622253
0.5110871792 0.0475403406 0.3617629111
0.5104596615 0.0474850424 0.3630639017
0.5098271966 0.0474317707 0.3643625975
0.5083243251 0.0476580523 0.3652423620
0.5076839924 0.0476089679 0.3665329814
0.5061767697 0.0478396416 0.3673975766
0.5046682358 0.0480726212 0.3682528436
0.5022999644 0.0485858656 0.3686679006
0.5016477108 0.0485452972 0.3699352145
0.5001358390 0.0487849377 0.3707623780
