-0.1323432112 -0.0275927038 -0.3633784241
-0.1803539601 -0.0384521982 -0.4570817243
-0.1402440396 -0.0256363250 -0.4101476398
-0.1685185406 -0.0342969285 -0.4054556947
-0.1581743493 -0.0599941857 -0.3520648468
-0.2121604635 -0.0334811253 -0.3779573142
-0.1232786804 -0.0106866800 -0.3734422279
-0.2375098372 -0.0151910987 -0.3482810852
-0.2516125571 -0.0708351399 -0.4309930815
-0.1937263953 -0.0158061772 -0.3668024060
-0.1980987489 -0.0621480681 -0.3437230885
-0.2225573387 -0.0107725784 -0.4000426180
-0.1902187192 -0.0214767628 -0.4014895964
-0.1764074942 -0.0350041601 -0.3474333895
-0.2097096479 -0.0575134518 -0.4332967718
-0.2453942520 -0.0192951718 -0.3567963812
-0.2291657826 -0.0264985253 -0.3937652474
-0.2035957412 -0.0353073740 -0.3556603981
-0.2238943422 -0.0052415783 -0.3653896181
-0.1607418582 -0.0333966801 -0.3935059527
-0.1814883759 -0.0084386152 -0.4037563090
-0.1372027949 -0.0168995327 -0.4040561959
-0.1158224911 -0.0267497035 -0.4426102207
-0.1627083298 -0.0196778897 -0.3656539672
-0.2155409656 -0.0126721697 -0.3584384999
-0.2064247533 -0.0092056843 -0.3688163924
-0.2011993726 -0.0470673625 -0.3431271687
-0.1831781815 -0.0105613978 -0.4026373981
-0.2246081248 -0.0230555832 -0.4415361063
-0.2087167139 -0.0305057341 -0.3529209109
-0.1714039931 -0.0532397352 -0.4537934927
-0.1142511045 -0.0177043104 -0.3707325199
-0.1106535705 -0.0364812530 -0.4472038439
-0.2486237052 -0.0491564207 -0.4322114305
-0.1451097231 -0.0278229159 -0.3685748054
-0.1651487850 -0.0174248875 -0.4134364257
-0.1203101936 -0.0384319907 -0.4547567956
-0.2262774601 -0.0068889862 -0.3739207090
-0.1056278759 -0.0419246759 -0.4055167539
-0.1884231502 -0.0648154546 -0.3478405933
-0.2035269114 -0.0525010622 -0.3429135106
-0.2007699194 -0.0067374573 -0.4143327783
-0.2260520090 -0.0049568466 -0.3544070027
-0.2137766415 -0.0466650923 -0.3855822938
-0.1552369591 -0.0504816842 -0.4648742946
-0.2517241867 -0.0736232637 -0.4234939801
-0.1684972586 -0.0303783097 -0.4159889788
-0.2277504556 -0.0066270607 -0.4041412824
-0.2065741803 -0.0369692645 -0.4496977301
-0.1428945571 -0.0147716969 -0.3965008403
-0.1779610792 -0.0090331293 -0.4155929830
-0.1715836036 -0.0573245875 -0.3493475676
-0.1559484702 -0.0094967785 -0.3829154338
-0.1119224290 -0.0252166989 -0.3966422282
-0.2031453572 -0.0449558347 -0.3806426705
-0.1246133283 -0.0295914361 -0.4152132846
-0.2379706353 -0.0213529766 -0.3447901905
-0.1781951089 -0.0373946530 -0.3494245872
-0.1726915193 -0.0147160986 -0.3599286118
-0.1584015805 -0.0611927947 -0.4477664204
-0.2479490572 -0.0031046654 -0.4207623443
-0.1634321464 -0.0269078232 -0.3530509604
-0.1876104774 -0.0293430937 -0.3535536310
-0.2104262926 -0.0196107604 -0.3807592033
-0.2526804011 -0.0735508717 -0.4283259527
-0.1213503047 -0.0351156365 -0.3580609096
-0.1337621431 -0.0053675216 -0.4396746929
-0.2136541415 -0.0100728814 -0.4153611202
-0.2585842652 -0.0240610187 -0.3964494297
-0.1640348178 -0.0311754936 -0.4053220495
-0.2236612048 -0.0462937555 -0.4369192491
-0.2464871471 -0.0185131742 -0.3636676122
-0.2401126663 -0.0041104789 -0.4190716436
-0.1413274046 -0.0136142898 -0.3878906270
-0.1176117508 -0.0402056922 -0.3598534225
-0.2191390097 -0.0202396121 -0.3490653336
-0.1148044207 -0.0276289102 -0.4238141978
-0.2237524340 -0.0369192079 -0.3929183527
-0.2254137233 -0.0123868610 -0.3473602784
-0.1477552111 -0.0442112761 -0.4058124489
-0.2041499436 -0.0191295845 -0.4203393577
-0.1183839142 -0.0127544524 -0.3707347065
-0.2295125227 -0.0129169869 -0.3922348764
-0.1377406942 -0.0384895909 -0.4587403062
-0.1141750952 -0.0462868985 -0.3579132953
-0.2106433263 -0.0195752723 -0.3608166177
-0.2028498982 -0.0168003643 -0.3715613074
-0.1182727852 -0.0459384985 -0.4553296466
-0.1608810471 -0.0649480136 -0.3527316563
-0.2399605452 -0.0085788050 -0.4003901926
-0.2532666550 -0.0788195315 -0.4238790030
-0.2037631471 -0.0496134291 -0.3397666524
-0.1920255472 -0.0130006288 -0.3824690375
-0.1808237731 -0.0686030015 -0.3487170637
-0.1264533790 -0.0278299716 -0.3603172384
-0.2501267350 -0.0248631556 -0.3862829656
-0.1603837078 -0.0314668877 -0.4532855195
-0.1591712652 -0.0494948629 -0.3939156344
-0.1625825239 -0.0155004719 -0.4318078788
-0.2238889398 -0.0619551668 -0.3408254852
-0.1247179748 -0.0517892955 -0.3564616279
-0.1084035199 -0.0349987575 -0.4006942372
-0.1559734893 -0.0171772752 -0.4396188326
-0.1197086146 -0.0370606461 -0.4095978110
-0.1931630261 -0.0095876010 -0.3848882187
-0.2361758108 -0.0084593632 -0.3784498578
-0.2092992116 -0.0593773545 -0.4480588690
-0.1103357663 -0.0184922875 -0.3773239375
-0.2326028194 -0.0066408603 -0.3772055546
-0.1374873162 -0.0232222328 -0.4540410297
-0.2645957937 -0.0300220536 -0.3954381248
-0.2088430949 -0.0290721543 -0.3744327675
-0.0992518110 -0.0482409482 -0.4443644994
-0.1433371208 -0.0323122259 -0.3652445896
-0.1034380719 -0.0376306884 -0.3904282153
-0.2413269423 -0.0423355593 -0.3364032931
-0.1142120866 -0.0399471964 -0.4549040190
-0.2010572316 -0.0492574594 -0.3412525907
-0.1589731668 -0.0372221790 -0.3919350034
-0.1436660437 -0.0147051485 -0.4463511731
-0.1996115643 -0.0428957019 -0.3863797404
-0.1364062510 -0.0051214550 -0.4240819413
-0.1890448849 -0.0268687339 -0.4470991515
-0.2599656789 -0.0303661939 -0.3755305356
-0.1295462055 -0.0064818458 -0.3982882676
-0.1335204852 -0.0091661562 -0.3826384046
-0.1439225820 -0.0168087825 -0.4026654269
-0.1222522706 -0.0648641661 -0.3624564409
-0.1431847140 -0.0301190049 -0.4012636871
-0.2091208415 -0.0211672349 -0.3880041349
-0.2187309783 -0.0374166608 -0.3925554742
-0.1243895590 -0.0589324050 -0.3591314256
-0.2645607468 -0.0422340413 -0.3774927554
-0.2631093495 -0.0395596387 -0.4205864698
-0.1968726424 -0.0147809131 -0.3885171035
-0.1532589232 -0.0295063252 -0.3651753548
-0.1671829307 -0.0683681356 -0.4571033155
-0.2127830868 -0.0214888652 -0.4163366718
-0.1411757156 -0.0549307240 -0.3552608077
-0.1537201553 -0.0271232952 -0.4106950428
-0.1118782229 -0.0350852702 -0.4135263539
-0.2199427534 -0.0487565616 -0.4492246306
-0.1917943954 -0.0115682776 -0.4373950013
-0.2064827153 -0.0402491784 -0.4537108927
-0.1841849388 -0.0078400900 -0.4017393181
-0.2113314159 -0.0500977551 -0.3399781857
-0.2621726532 -0.0538232735 -0.4277165918
-0.1856127513 -0.0105057374 -0.3993628803
-0.2111818931 -0.0541225636 -0.3415258659
-0.1970216299 -0.0455088861 -0.3961224736
-0.1808469183 -0.0402419482 -0.3451070329
-0.2493928612 -0.0092220170 -0.4008833198
-0.1744795734 -0.0056279999 -0.4294036687
-0.1180895244 -0.0202837092 -0.3675837353
-0.1880991905 -0.0420318376 -0.3484230049
-0.2026524802 -0.0196159771 -0.3634830068
-0.1023166254 -0.0375874415 -0.4105705619
-0.1084625795 -0.0276535481 -0.4291209065
-0.1630659817 -0.0387998966 -0.4069065876
-0.2172752796 -0.0340918933 -0.3969419473
-0.1807742546 -0.0136385037 -0.3625403317
-0.1712441191 -0.0396611077 -0.4025267558
-0.2286826810 -0.0058448188 -0.4164984410
-0.1662667934 -0.0155569115 -0.3863461851
-0.1480518952 -0.0692906268 -0.3561705947
-0.1361848613 -0.0245112143 -0.3672889968
-0.1276386819 -0.0225806696 -0.4532065890
-0.1276712497 -0.0064771209 -0.4310287345
-0.2508212156 -0.0343965135 -0.3877180876
-0.2419698629 -0.0134457485 -0.3777781857
-0.1612394963 -0.0156870471 -0.3889829044
-0.2421124245 -0.0405245352 -0.3384673498
-0.1869731843 -0.0320433751 -0.3522108197
-0.1964542498 -0.0101941568 -0.4142517321
-0.2343202382 -0.0401161090 -0.3340992033
-0.1463946728 -0.0298792558 -0.4142961374
-0.2092774361 -0.0093448147 -0.3875188786
-0.1731164831 -0.0079180383 -0.4029404006
-0.1945555991 -0.0147325054 -0.4380282177
-0.2217089892 -0.0395456352 -0.3354166486
-0.1288656812 -0.0156871377 -0.4125279878
-0.2488956091 -0.0024803443 -0.4027667434
-0.2506587095 -0.0224928266 -0.3687046118
-0.1697161752 -0.0097752685 -0.4287143858
-0.1027727115 -0.0524704201 -0.3731242546
-0.2339301789 -0.0500317134 -0.3377578902
-0.2184814389 -0.0072647954 -0.4079781317
-0.1880714054 -0.0316958881 -0.3530822618
-0.1086630867 -0.0339818668 -0.4263019812
-0.1342834471 -0.0075638729 -0.3804413807
-0.2059452236 -0.0150824315 -0.3679094017
-0.2474985671 -0.0188770122 -0.3610469698
-0.1162953862 -0.0725777717 -0.3679562415
-0.1354201559 -0.0248662446 -0.3656593712
-0.1497921731 -0.0298618920 -0.4029171891
-0.2175368707 -0.0243815521 -0.4038734079
-0.1681612596 -0.0122393688 -0.3625409476
-0.2411720081 -0.0580254953 -0.4349394051
-0.2058549304 -0.0220251727 -0.4271161611
-0.1632606486 -0.0435845479 -0.4652842451
-0.1498810780 -0.0293883716 -0.4110796247
-0.1431365066 -0.0397983493 -0.3622999736
-0.1231877791 -0.0245825551 -0.3647814023
-0.1281003194 -0.0099457351 -0.4215141828
-0.1942774817 -0.0222897257 -0.3892665344
-0.1094517139 -0.0348922934 -0.4045379526
-0.1596572032 -0.0341508912 -0.4604719891
-0.1763812857 -0.0617732107 -0.3477197251
-0.1598712917 -0.0438885368 -0.4563288448
-0.2232734454 -0.0236793114 -0.4263834443
-0.2087549723 -0.0669277874 -0.4496174782
-0.1136570174 -0.0174302354 -0.3752837582
-0.1833323596 -0.0098672578 -0.3929438285
-0.1369149351 -0.0188663042 -0.3969189986
-0.2002031048 -0.0236334500 -0.4098643109
-0.1852644990 -0.0111559403 -0.3967736116
-0.1785292679 -0.0172576492 -0.3554461046
-0.1853154094 -0.0055469882 -0.4264718322
-0.1968052506 -0.0164360470 -0.4450557679
-0.1396474171 -0.0143086429 -0.4457173739
-0.2448611967 -0.0134540858 -0.3975533136
-0.1630192491 -0.0294258592 -0.3526596206
-0.2142792726 -0.0184729190 -0.4226277994
-0.2567323065 -0.0202285725 -0.3823590417
-0.1305153424 -0.0052248467 -0.3715711502
-0.1373002057 -0.0604642684 -0.3597140782
-0.1256899550 -0.0101531922 -0.3831558155
-0.2008049796 -0.0186728655 -0.4437840728
-0.1099924947 -0.0227616987 -0.3731000343
-0.1706798045 -0.0289284310 -0.4388911603
-0.1659687982 -0.0461591233 -0.4038091579
-0.2530338123 -0.0495466284 -0.4116282333
-0.1630031224 -0.0296043859 -0.4589391033
-0.2381048604 -0.0080229143 -0.4059481423
-0.2241968120 -0.0092921675 -0.4123529351
-0.1287539448 -0.0633525299 -0.4612679051
-0.1328705611 -0.0190212689 -0.3685689209
-0.2245648953 -0.0286100948 -0.4435186238
-0.1705661376 -0.0097762296 -0.3628063592
-0.1547297473 -0.0400841562 -0.4025014250
-0.2135334644 -0.0344611345 -0.4298416598
-0.1965772628 -0.0383453570 -0.3895424878
-0.1314128044 -0.0134177881 -0.4507819289
-0.2281230896 -0.0223825768 -0.4445719360
-0.1796029653 -0.0227876074 -0.4443854530
-0.2082948542 -0.0210933930 -0.4457675117
-0.2014112028 -0.0459902149 -0.4007877462
-0.1119120876 -0.0195958863 -0.4153010852
-0.1590139674 -0.0495277204 -0.3478671997
-0.2186555358 -0.0203353828 -0.4202577373
-0.1934160264 -0.0125226693 -0.3677117195
-0.1962060346 -0.0063295267 -0.4232053615
-0.2431835898 -0.0419435899 -0.4305200542
-0.2277695073 -0.0008244071 -0.3526422524
-0.1917439165 -0.0463377214 -0.3474125298
-0.2215702387 -0.0223223181 -0.4245510900
-0.2238574624 -0.0590307154 -0.3389852345
-0.1436126607 -0.0592673077 -0.3535914185
-0.1509786812 -0.0624047674 -0.3529399044
-0.2125395176 -0.0283627066 -0.4102050533
-0.2024895790 -0.0386656018 -0.3890010435
-0.2264906890 -0.0147891685 -0.4076228524
-0.2285587185 -0.0683571832 -0.4441776114
-0.1727113315 -0.0347101746 -0.4518493454
-0.1515528064 -0.0577351539 -0.3525036735
-0.1478132782 -0.0303542547 -0.4546465435
-0.2634700828 -0.0262258285 -0.4144342709
-0.2375963193 -0.0374313735 -0.3374077486
-0.1157802540 -0.0201912251 -0.4076873147
-0.1758922867 -0.0168178679 -0.3571071215
-0.1196968998 -0.0293458565 -0.4115503069
-0.1240953923 -0.0363681638 -0.4567776174
-0.2427153647 -0.0173122460 -0.4295239699
-0.2030604289 -0.0356026155 -0.4455258858
-0.1578875461 -0.0259160885 -0.4066166674
-0.1340313027 -0.0020813083 -0.3767409748
-0.1298342998 -0.0104698630 -0.4385678229
-0.1095240861 -0.0257055503 -0.4265685618
-0.2426487456 -0.0162404911 -0.3906778627
-0.1010285709 -0.0417785481 -0.4243675239
-0.1772419086 -0.0140769306 -0.4020949173
-0.2279792291 -0.0480934455 -0.4432273318
-0.2026127054 -0.0393211023 -0.4044311431
-0.1960703331 -0.0191747673 -0.4494890901
-0.1222294082 -0.0182763307 -0.4475657177
-0.1525801389 -0.0404958633 -0.4124926890
-0.1528720005 -0.0209440118 -0.3923808043
-0.1261062618 -0.0118494814 -0.4239489840
-0.1090137475 -0.0457586314 -0.3589809349
-0.2528830503 -0.0361590561 -0.3847937470
-0.2410742680 -0.0121333401 -0.3924120808
-0.1632790996 -0.0475738246 -0.4468968063
-0.1340680894 -0.0068008475 -0.3767745626
-0.1180064939 -0.0343516598 -0.3626827200
-0.1754451275 -0.0119476664 -0.4146607620
-0.1027092596 -0.0288302542 -0.3905292487
-0.1732758993 -0.0470601307 -0.4473815953
-0.2317985147 -0.0549826846 -0.3402304351
-0.1908472615 -0.0322347574 -0.3532959052
-0.1928224728 -0.0067613208 -0.4342588479
-0.1648682232 -0.0242537545 -0.4176783001
-0.1407277446 -0.0226178399 -0.3703270415
-0.2374974401 -0.0285564822 -0.4388056619
-0.2522405403 -0.0259294757 -0.4300313170
-0.1911611301 -0.0180875147 -0.3804966064
-0.2411680463 -0.0321969531 -0.3426995808
-0.1564196014 -0.0329233241 -0.4186642048
-0.1683950599 -0.0550133090 -0.3459068615
-0.2242712863 -0.0234660166 -0.3835686300
-0.1208568409 -0.0195428653 -0.4181800720
-0.1394234559 -0.0153967396 -0.4050244013
-0.1216176005 -0.0440781676 -0.3592016219
-0.1719604673 -0.0466015933 -0.4535338628
-0.2059235708 -0.0173883143 -0.3654195934
-0.1534225715 -0.0273583849 -0.4487169029
-0.1798656791 -0.0152090278 -0.4111650779
-0.2039444956 -0.0129875704 -0.4271480684
-0.2353238612 -0.0234702770 -0.3419949114
-0.0962855219 -0.0464299581 -0.3866255260
-0.2101851235 -0.0494775954 -0.3387303110
-0.1947338031 -0.0490645071 -0.3476171480
-0.2341989299 -0.0468070605 -0.3354780808
-0.1914556917 -0.0253789873 -0.3564502123
-0.1984394560 -0.0561878835 -0.3443839053
-0.1232926348 -0.0114436696 -0.4290836459
-0.1370522397 -0.0196488501 -0.4522935096
-0.1558798194 -0.0343937153 -0.4622284612
-0.1723034867 -0.0201014087 -0.3911479717
-0.1803392019 -0.0454529226 -0.4559359422
-0.2043974366 -0.0381119962 -0.3977399018
-0.1678339668 -0.0564648884 -0.4495610472
-0.1704421882 -0.0396637689 -0.3456678073
-0.2375117689 -0.0224345103 -0.3435055912
-0.2459287145 -0.0165486074 -0.3718193470
-0.1644899647 -0.0388297882 -0.3526031649
-0.2178648048 -0.0071013775 -0.3599410457
-0.1201712224 -0.0214710730 -0.4119880123
-0.2154443483 -0.0166931010 -0.3483098023
-0.2150362105 -0.0143871178 -0.3649018252
-0.1428982563 -0.0208854553 -0.3969031483
-0.2257167958 -0.0174994106 -0.3433073253
-0.1770243604 -0.0722606872 -0.3479947467
-0.2064866687 -0.0268138692 -0.4046151313
-0.1255890433 -0.0280956048 -0.4497853458
-0.1627546411 -0.0595426427 -0.3452099158
-0.1181498629 -0.0407295929 -0.4577581351
-0.2050897021 -0.0513945806 -0.3843312103
-0.2384528369 -0.0311050843 -0.3424108624
-0.1383193643 -0.0172329644 -0.4120924891
-0.1361315068 -0.0256385617 -0.4534526740
-0.2662025599 -0.0514351455 -0.4156201821
-0.1458223658 -0.0475495131 -0.3507795250
-0.2236876113 -0.0218481481 -0.3906677418
-0.1446212542 -0.0420368449 -0.4009373657
-0.2123787714 -0.0212945802 -0.3924099741
-0.2408041603 -0.0016529479 -0.3661203187
-0.1273554518 -0.0295694034 -0.3622953815
-0.1643874327 -0.0162233100 -0.3904349091
-0.2173921185 -0.0188218574 -0.4119370474
-0.2312796520 -0.0023881807 -0.4017300518
-0.1098881065 -0.0464717349 -0.4084389839
-0.2603367049 -0.0417861940 -0.4303267722
-0.2112431824 -0.0375249245 -0.3405907256
-0.1599891263 -0.0268189207 -0.3625480468
-0.1778908268 -0.0091637763 -0.3748664502
-0.2061339304 -0.0320298792 -0.4384391871
-0.1551462708 -0.0231997399 -0.3929635515
-0.2237862086 -0.0322080778 -0.3855197938
-0.2334974036 -0.0077808513 -0.3501106270
-0.1798353359 -0.0169403919 -0.4155235140
-0.1406276450 -0.0117928162 -0.3774161935
-0.2437370614 -0.0556827675 -0.4321872586
-0.1374094095 -0.0345828505 -0.4587683782
-0.1143424765 -0.0086779215 -0.3783646274
-0.1387659948 -0.0066697002 -0.3809751193
-0.1174373924 -0.0248949773 -0.4382286032
-0.1765751936 -0.0293750203 -0.4562350528
-0.1871230293 -0.0193911981 -0.4447332450
-0.2142819911 -0.0182553381 -0.3565579057
-0.2458237419 -0.0494244252 -0.4351640487
-0.2668926151 -0.0376107549 -0.4118459229
-0.1712363303 -0.0150583131 -0.4342588075
-0.2430459255 -0.0040861216 -0.3637079227
-0.2049358801 -0.0346109953 -0.4503640978
-0.2256349632 -0.0195296894 -0.4049353635
-0.1378348927 -0.0367150038 -0.4611251671
-0.2124336446 -0.0579967295 -0.4317699068
-0.2160213839 -0.0090859819 -0.3727222987
-0.2205620416 -0.0081658726 -0.4175537726
-0.1057873145 -0.0533401258 -0.3695749640
-0.1430568168 -0.0117838823 -0.4430147938
-0.1662905202 -0.0511221367 -0.3425271632
-0.2086952603 -0.0448425846 -0.3432541282
-0.2283285498 -0.0545072529 -0.3384154138
-0.2006061472 -0.0332619553 -0.4461984611
-0.1856138668 -0.0648684400 -0.3481829838
-0.2511270019 -0.0407700310 -0.4216585498
-0.2311324915 -0.0144029827 -0.3480197577
-0.2215057306 -0.0097619155 -0.3508193997
-0.2665655696 -0.0336197920 -0.4038708676
-0.1204049571 -0.0209737126 -0.3638153169
-0.1608436178 -0.0279790264 -0.3870453744
-0.1188455115 -0.0499553897 -0.4549931965
-0.1849454277 -0.0346193344 -0.3501429722
-0.2215826294 -0.0322930026 -0.3380378617
-0.2052921041 -0.0247672463 -0.4462286905
-0.1600782848 -0.0145823567 -0.3793298073
-0.2162481878 -0.0048740009 -0.3645372226
-0.2285115577 -0.0065760154 -0.3630828988
-0.1070171843 -0.0441530589 -0.4199646548
-0.1108962501 -0.0174915707 -0.3827147826
-0.1231700173 -0.0696799935 -0.3637807255
-0.1510105438 -0.0124216372 -0.4285988592
-0.2084691381 -0.0153953464 -0.4169301224
-0.2223544935 -0.0201503969 -0.3939575689
-0.1581547788 -0.0195523626 -0.3703951388
-0.1071836270 -0.0329494909 -0.4098648782
-0.1948514859 -0.0059664634 -0.4036632509
-0.2084146302 -0.0192497164 -0.4277278689
-0.2052510874 -0.0421207876 -0.3499337302
-0.2134168415 -0.0137798904 -0.4141135436
-0.2458055636 -0.0101135046 -0.3780775009
-0.1492875707 -0.0130491315 -0.4167371141
-0.1569689714 -0.0321734403 -0.3911765025
-0.1793398249 -0.0304948010 -0.4568033377
-0.2072283985 -0.0242665832 -0.3617802680
-0.1055544905 -0.0375935074 -0.4402647140
-0.1477429039 -0.0015545219 -0.4304886317
-0.1992427434 -0.0648354787 -0.3456208221
-0.2097387885 -0.0131903032 -0.4146957428
-0.2199816522 -0.0249299975 -0.4025449418
-0.2205251516 -0.0148129262 -0.3902855883
-0.2214724827 -0.0145313780 -0.3842295936
-0.1554212718 -0.0286680362 -0.4059983887
-0.1768368954 -0.0421706150 -0.4511617054
-0.2136332373 -0.0297029816 -0.3869817059
-0.2569416169 -0.0204901624 -0.3867623836
-0.1785187479 -0.0550966240 -0.3459022733
-0.1965133872 -0.0106664468 -0.3682598173
-0.1371922130 -0.0139443737 -0.4186299396
-0.2537388576 -0.0349900335 -0.3881553303
-0.1638312462 -0.0326771694 -0.4381361396
-0.2074061483 -0.0081911241 -0.3993091144
-0.2218521518 -0.0441015757 -0.4432270757
-0.1747076771 -0.0298154054 -0.4527883552
-0.2483252545 -0.0342660074 -0.3845839887
-0.1860383404 -0.0097444901 -0.3797209763
-0.2236083040 -0.0558766914 -0.4358956279
-0.1249945256 -0.0182249262 -0.4053075727
-0.1510980098 -0.0145116805 -0.3773401459
-0.1431879510 -0.0496181972 -0.4670072505
-0.2014333747 -0.0523602348 -0.3430764372
-0.1271854348 -0.0105542773 -0.4314589527
-0.2498159976 -0.0538551310 -0.4303448632
-0.1255981446 -0.0090586955 -0.4326157662
-0.2234871099 -0.0058371963 -0.3520864787
-0.2340133707 -0.0024300313 -0.4073645596
-0.2245228259 -0.0022893161 -0.3645301457
-0.1329112482 -0.0304044125 -0.3625206602
-0.1510075405 -0.0094331973 -0.3857048601
-0.2227088309 -0.0081010761 -0.3861538775
-0.1155856661 -0.0446587995 -0.4185228733
-0.2550979995 -0.0751681331 -0.4246575547
-0.1983829793 -0.0191901309 -0.4102662170
-0.1559236229 -0.0424796343 -0.3529459824
-0.1118126884 -0.0405693725 -0.3628845811
-0.2002476476 -0.0203407285 -0.3638103308
-0.2415131562 -0.0058627729 -0.4225274978
-0.2304432462 -0.0060802138 -0.3678857036
-0.1781298694 -0.0111407801 -0.4392064400
-0.1687833659 -0.0118515436 -0.4233973951
-0.1063229057 -0.0301089101 -0.3913604312
-0.1239865999 -0.0091063202 -0.3867940678
-0.1658281981 -0.0765809507 -0.4577763391
-0.1749023251 -0.0269524961 -0.3569639543
-0.1958325821 -0.0484013532 -0.3439069448
-0.1577470154 -0.0571721531 -0.3488036394
-0.2102816481 -0.0293844726 -0.3510277158
-0.1805407357 -0.0055722110 -0.4291346010
-0.1019728298 -0.0445749350 -0.3777588784
-0.1557038468 -0.0296586995 -0.3631301929
-0.1760491715 -0.0320376667 -0.4429065429
-0.2400863486 -0.0274146232 -0.3426585093
-0.2127821112 -0.0595479579 -0.4371904010
-0.2003701850 -0.0428139541 -0.4505833759
-0.2486791750 -0.0118722835 -0.3995031949
-0.2352088208 -0.0058943568 -0.4245609006
-0.1305671994 -0.0219099017 -0.3658037658
-0.1148928945 -0.0442882776 -0.4540792445
-0.2077624461 -0.0293958336 -0.3844952292
-0.2024036797 -0.0631018437 -0.4461504394
-0.1584014598 -0.0624440005 -0.3525028465
-0.2178729262 -0.0501956564 -0.3976489157
-0.2076501139 -0.0234559551 -0.3731400721
-0.1690515846 -0.0283897666 -0.4430180532
-0.2421658223 -0.0120762126 -0.3727418401
-0.2220428793 -0.0289347111 -0.3861152216
-0.2280195583 -0.0128148780 -0.4058542478
-0.2232740308 -0.0272602783 -0.3422977820
-0.1997421363 -0.0127939255 -0.4326842228
-0.1422745004 -0.0575196284 -0.4616155675
-0.1133826335 -0.0205940237 -0.3682846398
-0.1446762858 -0.0049783501 -0.4382943296
-0.2447350455 -0.0295157635 -0.3862366596
-0.2573104007 -0.0396793309 -0.4227356170
-0.2090465084 -0.0310155958 -0.4453070563
-0.2070133935 -0.0348941671 -0.3749647831
-0.1505933255 -0.0277275536 -0.3661823273
-0.2661339546 -0.0339053421 -0.4010810403
-0.1038083709 -0.0449699586 -0.4231053257
-0.2368805706 -0.0476888492 -0.4445496213
-0.1939843725 -0.0101141919 -0.3937111358
-0.1396905137 -0.0185044384 -0.4023522697
-0.1800808611 -0.0175483594 -0.4403773492
-0.2184111141 -0.0372280765 -0.3375128917
-0.2056029814 -0.0276944316 -0.4108306855
-0.2191492934 -0.0546388990 -0.3348214870
-0.2289709611 -0.0343648860 -0.3369487911
-0.2129865467 -0.0138285448 -0.3708130631
-0.1690276499 -0.0078945646 -0.3768895188
-0.2054088062 -0.0124745853 -0.3996425476
-0.1633883100 -0.0269764527 -0.3985285451
-0.1710229428 -0.0519400427 -0.3472595154
-0.2344245180 -0.0082974471 -0.3854875728
-0.1345910514 -0.0264567217 -0.4581600975
-0.2252540100 -0.0096083558 -0.3508426916
-0.1739562894 -0.0639106538 -0.4552281990
-0.1614178444 -0.0394681300 -0.3500813210
-0.2493030845 -0.0488673793 -0.4189333366
-0.1618713795 -0.0295962698 -0.4476024173
-0.2518526956 -0.0284359586 -0.3621315938
-0.1756822383 -0.0473952924 -0.3450208248
-0.2064827067 -0.0260118964 -0.4376532759
-0.2515022798 -0.0576236752 -0.4162994796
-0.1305758854 -0.0198371220 -0.3678058710
-0.1998441199 -0.0213792614 -0.3938834552
-0.1876673919 -0.0024966388 -0.3679338668
-0.1977541382 -0.0064609864 -0.3954817768
-0.1331819860 -0.0666923838 -0.4554282456
-0.1738555619 -0.0432585490 -0.4602124290
-0.2201371449 -0.0574752077 -0.4370853207
-0.1612903680 -0.0153515410 -0.3684376590
-0.1367379072 -0.0445603185 -0.4682238291
-0.1914971962 -0.0086773807 -0.4176303682
-0.2260637994 -0.0468784877 -0.3354644726
-0.2217141926 -0.0060915946 -0.4083740530
-0.2061508889 -0.0094411594 -0.4085486975
-0.2156783181 -0.0221591466 -0.4211215107
-0.1634231502 -0.0129536891 -0.4048175888
-0.1620153663 -0.0165398429 -0.4369586429
-0.2111443349 -0.0308243940 -0.4290510719
-0.1590568132 -0.0045969032 -0.3808684588
-0.2018291236 -0.0201304218 -0.3972108517
-0.1666383311 -0.0014545683 -0.3742264906
-0.2202521859 -0.0066154795 -0.3596676518
-0.2557890432 -0.0345939132 -0.3663658529
-0.1202071066 -0.0401099399 -0.3593027908
-0.1920156126 -0.0365351535 -0.3957262503
-0.1476691908 -0.0194467738 -0.4139935444
-0.1706759344 -0.0093695259 -0.3774582898
-0.2224933889 -0.0157562576 -0.4096298099
-0.1560440697 -0.0664500541 -0.3523577222
-0.1146549746 -0.0326111257 -0.4278949353
-0.1411139990 -0.0233405949 -0.3939281654
-0.2470289013 -0.0215628149 -0.3580955865
-0.1573835294 -0.0415207496 -0.3524018798
-0.2114558543 -0.0193911064 -0.3582038174
-0.1607959685 -0.0184971059 -0.4116462985
-0.2031239145 -0.0180374597 -0.3657137983
-0.1167177773 -0.0175819339 -0.4378273221
-0.1041104868 -0.0344683044 -0.3829326928
-0.1652046645 -0.0529861854 -0.4563373274
-0.1508527822 -0.0452464906 -0.3526978375
-0.2576329407 -0.0346097205 -0.3793867686
-0.2082936488 -0.0205198435 -0.4114477488
-0.1333577627 -0.0224057899 -0.3658708916
-0.2483501534 0.0008524227 -0.4074413687
-0.1057372398 -0.0319358007 -0.4014835182
-0.2587544957 -0.0230199731 -0.3714900160
-0.1558550160 -0.0623020407 -0.3525364751
-0.2525175129 -0.0175264029 -0.3984519780
-0.1971757073 -0.0200877088 -0.3913998928
-0.1576108783 -0.0686258525 -0.3504976630
-0.1016791435 -0.0454016686 -0.3725778160
-0.1806702349 -0.0469324321 -0.3426959405
-0.1681585813 -0.0077148437 -0.3629666616
-0.1374410850 -0.0098504593 -0.4218159638
-0.1752624421 -0.0159466256 -0.3604296179
-0.2476866621 -0.0239774022 -0.3524468264
-0.1147302240 -0.0108301332 -0.3801304996
-0.1431072220 -0.0184373743 -0.4106041095
-0.2263284976 -0.0074247815 -0.4126732815
-0.1169053788 -0.0050361777 -0.3867755001
-0.2000926317 -0.0163665188 -0.3800813782
-0.2143137377 -0.0478703048 -0.4403551520
-0.2414358354 -0.0509882363 -0.4410992453
-0.2182444122 -0.0392099684 -0.3900514081
-0.1732349943 -0.0371753606 -0.3469925771
-0.2551135282 -0.0221554138 -0.3972373771
-0.1668805463 -0.0102887691 -0.4029401430
-0.2683269548 -0.0472469541 -0.4129715865
-0.1952970981 -0.0267397017 -0.4027531339
-0.2573012491 -0.0234407207 -0.4129903770
-0.2102415723 -0.0519992339 -0.3795648838
-0.2463485183 -0.0161557630 -0.3649193585
-0.2123748934 -0.0492252167 -0.4502482721
-0.2133527602 -0.0187941782 -0.3937218123
-0.1001042223 -0.0575921184 -0.4441092328
-0.1473846608 -0.0062428653 -0.4447570949
-0.1607215156 -0.0272341846 -0.3574412150
-0.2485993465 -0.0122244570 -0.4019189154
-0.2281542187 -0.0299174005 -0.4495773796
-0.2227160925 -0.0158121239 -0.3924916301
-0.1680075221 -0.0531648852 -0.4555573759
-0.1209687751 -0.0199201538 -0.3682352237
-0.2359540651 -0.0075932309 -0.3959038266
-0.1958222819 -0.0347476822 -0.3855736380
-0.1213388017 -0.0170261570 -0.3708736205
-0.2092553946 -0.0242002031 -0.4490193890
-0.1507178451 -0.0438851313 -0.4035298069
-0.1833086758 -0.0111980268 -0.4112400378
-0.2273683963 -0.0024639022 -0.3747348839
-0.1728745603 -0.0189693964 -0.3555486592
-0.1994787099 -0.0568992724 -0.4504726256
-0.2282762569 -0.0310370934 -0.4334222076
-0.2184124761 -0.0396869791 -0.4373093744
-0.1533736570 -0.0183467591 -0.4422102110
-0.2127490526 -0.0193162273 -0.3981622410
-0.2665675019 -0.0530557962 -0.4183727743
-0.2408928181 -0.0097437301 -0.3773374042
-0.1677410649 -0.0698703216 -0.3486327946
-0.2507312491 -0.0165285023 -0.4145595785
-0.1455325559 -0.0618068743 -0.3534213752
-0.2215558883 -0.0532566030 -0.3394718721
-0.1087242493 -0.0490667502 -0.3606834065
-0.2466763540 -0.0428196147 -0.4351140566
-0.1599277622 -0.0474708878 -0.3905704747
-0.1520746570 -0.0238770774 -0.4570350095
-0.2086961454 -0.0397282390 -0.3457133582
-0.1180031459 -0.0541142514 -0.4559164824
-0.2276069302 -0.0395035125 -0.4356811294
-0.1287755787 -0.0099956894 -0.3830808063
-0.2007214891 -0.0566709819 -0.3432732676
-0.1753292164 -0.0291132627 -0.3497119566
-0.1781611580 -0.0086940604 -0.3829581398
-0.1413034407 -0.0124158929 -0.4227562777
-0.1485912371 -0.0672264300 -0.3555564414
-0.2265569253 -0.0112317638 -0.3839637583
-0.1877878004 -0.0225213791 -0.4314217751
-0.1612844984 -0.0264536929 -0.4349960852
-0.1241737028 -0.0258622940 -0.4163600623
-0.2105553607 -0.0377732512 -0.4332279071
-0.2489654980 -0.0060167525 -0.4048760495
-0.1587123871 -0.0511975884 -0.3488005698
-0.1640305631 -0.0069376249 -0.3752499082
-0.2456984774 -0.0407849053 -0.4283632000
-0.1261470715 -0.0057890965 -0.4350528443
-0.1102942154 -0.0190213770 -0.3889528215
-0.1855201922 -0.0074881302 -0.4364598648
-0.2235490131 -0.0088914953 -0.3782803962
-0.1640054907 -0.0386154132 -0.3499418987
-0.1444080063 -0.0429562365 -0.4664682920
-0.2492675376 -0.0053673372 -0.4205343409
-0.2159134347 -0.0270313854 -0.4055815633
-0.2127949801 -0.0376653627 -0.4068302756
-0.1158415907 -0.0098668915 -0.3868196856
-0.1671702767 -0.0137409168 -0.3976055462
-0.2163723898 -0.0539040970 -0.3923339159
-0.1075508073 -0.0301429980 -0.4060328042
-0.2086785927 -0.0350985018 -0.4476239131
-0.1708843936 -0.0216552011 -0.4150200773
-0.1198779553 -0.0089310327 -0.3892083574
-0.2611647230 -0.0243208064 -0.4040991379
-0.1310057272 -0.0101877539 -0.3759421257
-0.1111418844 -0.0312321553 -0.4063566859
-0.1158605069 -0.0216596645 -0.3697241622
-0.1146056561 -0.0300715884 -0.4230710073
-0.1321409350 -0.0058639400 -0.3833740791
-0.1405124744 -0.0576464879 -0.3538965758
-0.1137026546 -0.0157305483 -0.4121736785
-0.1635405222 -0.0170123251 -0.3653071259
-0.1201976085 -0.0374474327 -0.4150015331
-0.1738194130 -0.0169029920 -0.4128240460
-0.1792915416 -0.0058793242 -0.4209203315
-0.1497013754 -0.0627477045 -0.3547929387
-0.1674236398 -0.0238534576 -0.4333542607
-0.1708782899 -0.0144905851 -0.3561287783
-0.1358440004 -0.0448991737 -0.3530632943
-0.1881552595 -0.0039299819 -0.3651988021
-0.2619663873 -0.0315968376 -0.4019371871
-0.1172599349 -0.0041264495 -0.3761984696
-0.2379305454 -0.0072296071 -0.3557873533
-0.1332987715 -0.0119617391 -0.4071929972
-0.2060577812 -0.0369615622 -0.3786168033
-0.2384278625 -0.0202622805 -0.3460721970
-0.1538233167 -0.0298831513 -0.4014852822
-0.1706910833 -0.0405866508 -0.3976077128
-0.1407466233 -0.0114312712 -0.3817068338
-0.2154448591 -0.0252710140 -0.4078013621
-0.2310564369 -0.0394984484 -0.3325269073
-0.1812451753 -0.0117142241 -0.3609284165
-0.1760498668 -0.0278263431 -0.3977826966
-0.1216976358 -0.0170798499 -0.4267296210
-0.2235121258 -0.0061837795 -0.3488657089
-0.2021560434 -0.0491870007 -0.3826385202
-0.2205828966 -0.0598638837 -0.4457071189
-0.1288395433 -0.0086856714 -0.4409680327
-0.1233123831 -0.0369457200 -0.3579949417
-0.1310313933 -0.0201453437 -0.4552473280
-0.2038461806 -0.0294497811 -0.3859966710
-0.2254139447 -0.0244453352 -0.3816597774
-0.2246862711 -0.0197673676 -0.3792459240
-0.1125650127 -0.0380763832 -0.4268536177
-0.2411528375 -0.0538383063 -0.3412332856
-0.1806234546 -0.0577172189 -0.4555804049
-0.1587455916 -0.0226765287 -0.4295559641
-0.1685233197 -0.0210091994 -0.4315066889
-0.2209237222 -0.0239585067 -0.4422196650
-0.1184635457 -0.0188568813 -0.4389316504
-0.1451526837 -0.0298408410 -0.3680356384
-0.1359828276 -0.0115611494 -0.4228008756
-0.1720205860 -0.0296062380 -0.4480565640
-0.1502917759 -0.0313877131 -0.3638349280
-0.2188380006 -0.0098466287 -0.4006350520
-0.1963954481 -0.0266890307 -0.3779134235
-0.1504003043 -0.0314243791 -0.3666418952
-0.1706561355 -0.0347354995 -0.3481905244
-0.2124144212 -0.0320877841 -0.4457540173
-0.2156636597 -0.0453158400 -0.4495481874
-0.1728040538 -0.0347270331 -0.3962508327
-0.1467998138 -0.0077234899 -0.4324530069
-0.1183481291 -0.0108611388 -0.3858610690
-0.1970014899 -0.0122016609 -0.4062695829
-0.1745729062 -0.0090625048 -0.4295582663
-0.2109950816 -0.0425935034 -0.3428738059
-0.1190684752 -0.0196349126 -0.4312512536
-0.1912726209 -0.0146927881 -0.3669708381
-0.2312652199 -0.0020625358 -0.3529840824
-0.2128260944 -0.0450326021 -0.3384678603
-0.2579914524 -0.0261966596 -0.4130260524
-0.2087021589 -0.0206883187 -0.4381016912
-0.1078168961 -0.0470416113 -0.4201174053
-0.2128313797 -0.0152448195 -0.4234681398
-0.1697004429 -0.0331075830 -0.4496934317
-0.1528598407 -0.0287969507 -0.4193517729
-0.2330982710 -0.0658386305 -0.4426661957
-0.1736622291 -0.0722364282 -0.4553564695
-0.1631856751 -0.0492031105 -0.3936192191
-0.1861484944 -0.0548611669 -0.3479139757
-0.1455489115 -0.0197070269 -0.4203715469
-0.2258386984 -0.0078967551 -0.3505225778
-0.1156027532 -0.0349584775 -0.4438966021
-0.2181114964 -0.0244376201 -0.4008972409
-0.1003087423 -0.0468305484 -0.3837602993
-0.1507038020 -0.0476541783 -0.3605361069
-0.1997579029 -0.0102612232 -0.3868730634
-0.1760438606 -0.0595358202 -0.3482161998
-0.2487944006 -0.0229154339 -0.3735957551
-0.1595432789 -0.0383383440 -0.4469853463
-0.1354120970 -0.0375232045 -0.3588134348
-0.1901014489 -0.0303582669 -0.3927805829
-0.2415222849 -0.0251006948 -0.3455216389
-0.1238489803 -0.0217613786 -0.4321392824
-0.2474492475 -0.0027735561 -0.3990208743
-0.2207777022 -0.0352482736 -0.3421424910
-0.2203252625 -0.0414536032 -0.4471975026
-0.1260236289 -0.0128870834 -0.4434374783
-0.1224375505 -0.0399047037 -0.4583338984
-0.1329996782 -0.0105317696 -0.4140985978
-0.1674347656 -0.0241049762 -0.4537846926
-0.2573047440 -0.0373891162 -0.3797147718
-0.2351946464 -0.0051434748 -0.4117926198
-0.2111813096 -0.0345608372 -0.3455107292
-0.2408323892 -0.0047334047 -0.3631944367
-0.1804546597 -0.0251785629 -0.3507788959
-0.1303376909 -0.0185836701 -0.4269614968
-0.0982856078 -0.0462348362 -0.3906536659
-0.1583008314 -0.0195933566 -0.3680328616
-0.1278363706 -0.0250942953 -0.3606927426
-0.2085920397 -0.0278825232 -0.4369993131
-0.1737653460 -0.0144482359 -0.3851291891
-0.2276538014 -0.0150155977 -0.4127379984
-0.1385015908 -0.0271344197 -0.4009951686
-0.1885934527 -0.0218029260 -0.3876699574
-0.1458420564 -0.0249485137 -0.3708274426
-0.1275656319 -0.0394339619 -0.3606553996
-0.1813602718 -0.0095825879 -0.3922433111
-0.2613878232 -0.0269532931 -0.3832832606
-0.1340835479 -0.0578646462 -0.3563707200
-0.2172509759 -0.0570751410 -0.4456808594
-0.1176961612 -0.0516983582 -0.3566459868
-0.2059425228 -0.0380431777 -0.4461495441
-0.1658947904 -0.0563673965 -0.4523169871
-0.2131884695 -0.0596264963 -0.3432081682
-0.1305516147 -0.0667585706 -0.3609287940
-0.1684677402 -0.0421857263 -0.3467590707
-0.1515212028 -0.0219551824 -0.3839499870
-0.1135730435 -0.0254095097 -0.4024962485
-0.1451247203 -0.0224197240 -0.4074558292
-0.2379332658 -0.0109275176 -0.3691388408
-0.2407499385 -0.0066720556 -0.4074703735
-0.2091189227 -0.0675911518 -0.4460134074
-0.1798506837 -0.0314302130 -0.4538506073
-0.2247482513 -0.0285723670 -0.3940708505
-0.2269010837 -0.0273147348 -0.3939587412
-0.1834837645 -0.0598924691 -0.3482276574
-0.2088848775 -0.0150605469 -0.3728108675
-0.1573067158 -0.0545525706 -0.4116007860
-0.2154509869 -0.0345396252 -0.3405872910
-0.2387027312 -0.0189447326 -0.4366078576
-0.2472118128 -0.0195233931 -0.3933482736
-0.1906534693 -0.0169200724 -0.4412490353
-0.1917701628 -0.0072776455 -0.3700947978
-0.1675047615 -0.0635265359 -0.4580873393
-0.1137097753 -0.0320806227 -0.3653525345
-0.1210691531 -0.0395872544 -0.3560742684
-0.1959440437 -0.0200786281 -0.3649852954
-0.1658282189 -0.0127923498 -0.4136442648
-0.2083431151 -0.0125943515 -0.3662944773
-0.2287051231 -0.0408240259 -0.3320818543
-0.2029252694 -0.0313030881 -0.3900592370
-0.1733711894 -0.0330958187 -0.4491066270
-0.1517007098 -0.0241577095 -0.4536097071
-0.1609308672 -0.0265165356 -0.4533958119
-0.1952203035 -0.0338748264 -0.4002919801
-0.1329522989 -0.0534679887 -0.4630552889
-0.2230973780 -0.0410223797 -0.3375168758
-0.1468385011 -0.0550057404 -0.3515601754
-0.2105501616 -0.0345602499 -0.3479361696
-0.1195377241 -0.0340168928 -0.4517075071
-0.1312422953 -0.0059890093 -0.4431789669
-0.2300004831 -0.0378986127 -0.4425869325
-0.1964505166 -0.0606445260 -0.3439244032
-0.2433657944 -0.0307151321 -0.3457840979
-0.1427376594 -0.0568253620 -0.3547330926
-0.2541804302 -0.0247123007 -0.3890311995
-0.1320714465 -0.0053221036 -0.3859229970
-0.1916782165 -0.0421245745 -0.3533754738
-0.2596873288 -0.0192420222 -0.4064440692
-0.1705072669 -0.0151317807 -0.3584555713
-0.2069039288 -0.0216699883 -0.4186808282
-0.2204148625 -0.0260218094 -0.4406613609
-0.2660526476 -0.0407440472 -0.3888206369
-0.2223750934 -0.0382224690 -0.4334933245
-0.1960318061 -0.0501751840 -0.3435049399
-0.1009270464 -0.0548957966 -0.3681243451
-0.1541260767 -0.0258829115 -0.3836265907
-0.2652259750 -0.0287973293 -0.3833786625
-0.1659825706 -0.0382470181 -0.3457918052
-0.2156020477 -0.0024360643 -0.3561354792
-0.2315918869 -0.0443959221 -0.3338235843
-0.1283130239 -0.0579143397 -0.3541023127
-0.2334647352 -0.0196001831 -0.3450426443
-0.2159715009 -0.0148889751 -0.3620230010
-0.2303098724 -0.0139162122 -0.4027732192
-0.2136749669 -0.0380991673 -0.4310005076
-0.1229441346 -0.0562216956 -0.4606814456
-0.1069446100 -0.0261135088 -0.4096012130
-0.2081830188 -0.0296682897 -0.3991902679
-0.2028796687 -0.0266705305 -0.3784698991
-0.2223069446 -0.0317216589 -0.4298839717
-0.2286706340 -0.0032233189 -0.3497494521
-0.1969940839 -0.0188332911 -0.4254564336
-0.1648690227 -0.0741423513 -0.4572807026
-0.2094733145 -0.0430782836 -0.4439739091
-0.2440970785 -0.0096148365 -0.3936245217
-0.1868814481 -0.0418995838 -0.3501618311
-0.1831457288 -0.0136184857 -0.3614895033
-0.1172391405 -0.0288956026 -0.4305632120
-0.2289211974 -0.0103625855 -0.4250159961
-0.2176264823 -0.0258661039 -0.3976472130
-0.2634467096 -0.0396260588 -0.4122610508
-0.2170942818 -0.0298187775 -0.4329647387
-0.1809112867 -0.0117104582 -0.4071888713
-0.1619394948 -0.0604381298 -0.4560054744
-0.2389402865 -0.0027313096 -0.4124516176
-0.1014777797 -0.0346121091 -0.4089258743
-0.2612341444 -0.0380603497 -0.3837771492
-0.1572192311 -0.0316145457 -0.3598907888
-0.2541885994 -0.0446887386 -0.4116839567
-0.1757101890 -0.0687135302 -0.4548354319
-0.1695127280 -0.0292416271 -0.4010941056
-0.2460515200 -0.0209511339 -0.4308357040
-0.2676320248 -0.0404593113 -0.3760170838
-0.1738183281 -0.0398667050 -0.3427979919
-0.2348912785 -0.0296479379 -0.4393208042
-0.1433956688 -0.0267834918 -0.4543877679
-0.2252906159 -0.0156402981 -0.3458863355
-0.1133943741 -0.0171429616 -0.3800543266
-0.1799143811 -0.0163462849 -0.4311878303
-0.1921591782 -0.0291093617 -0.4479884858
-0.1533722963 -0.0268823836 -0.3658852912
-0.2075447498 -0.0420826963 -0.4472684504
-0.2388111283 -0.0052664250 -0.4099222686
-0.2205180618 -0.0205967457 -0.4216169973
-0.1526054438 -0.0392723081 -0.3631390237
-0.1304211831 -0.0270834102 -0.3627110588
-0.2023118522 -0.0139361614 -0.4304134643
-0.1546850950 -0.0387294590 -0.3591907918
-0.1628895718 -0.0366178120 -0.4620176740
-0.1981967281 -0.0154621738 -0.4039918711
-0.1166878127 -0.0227364557 -0.4001123168
-0.1932260620 -0.0091689135 -0.4352679212
-0.2360106709 -0.0190983312 -0.3456296602
-0.2356943602 -0.0126118306 -0.3507723225
-0.1280862483 -0.0445601381 -0.4597860317
-0.1468072628 -0.0371377101 -0.4580826638
-0.2169513851 -0.0571462214 -0.3420976996
-0.2466145938 -0.0253949934 -0.3764828176
-0.1848685694 -0.0253790282 -0.4387275225
-0.2199825038 -0.0587125302 -0.4420155719
-0.1815737562 -0.0094322703 -0.4232320663
-0.1380660238 -0.0482103742 -0.4646754131
-0.1760177600 -0.0081683067 -0.3820108329
-0.2312090235 -0.0070160335 -0.3739355821
-0.1684652414 -0.0617443311 -0.3498306403
-0.1261934200 -0.0619498549 -0.3568822205
-0.1438713402 -0.0578201467 -0.4639707603
-0.1157091490 -0.0501173949 -0.3575358718
-0.1428490069 -0.0273805797 -0.3681223856
-0.1330699331 -0.0086133976 -0.4398678174
-0.2247729614 -0.0329444643 -0.4451956035
-0.1404134183 -0.0416262114 -0.4583131910
-0.1879794315 -0.0225626157 -0.3914932900
-0.1156002436 -0.0183647738 -0.4302985789
-0.2086603639 -0.0172367007 -0.3934742152
-0.2552328290 -0.0335658822 -0.3825936182
-0.1308105699 -0.0105561725 -0.4177048040
-0.1155061979 -0.0434643482 -0.4085296951
-0.1626575946 -0.0248817068 -0.3854943029
-0.2221984934 -0.0174715416 -0.4055707344
-0.1284588953 -0.0137529952 -0.3852162711
-0.2110521465 -0.0079341536 -0.3620758995
-0.1678936660 -0.0259615196 -0.4463398789
-0.1736656956 -0.0617020904 -0.3480323535
-0.2222156677 -0.0189481252 -0.4178217711
-0.2461951985 -0.0106592616 -0.3637481295
-0.1128560743 -0.0376045667 -0.4244899378
-0.1695951284 -0.0460373680 -0.4032879718
-0.1835298130 -0.0160718439 -0.4131743264
-0.1508546675 -0.0648906127 -0.3532671221
-0.1942387097 -0.0085892855 -0.4141180515
-0.1124619579 -0.0287488873 -0.4076828959
-0.2383886753 -0.0025982273 -0.4016155581
-0.1670947561 -0.0494995385 -0.4046084959
-0.1607155982 -0.0351654904 -0.4448721340
-0.2441333106 -0.0578664565 -0.4283836169
-0.1749899089 -0.0250911415 -0.3488548696
-0.2074169753 -0.0269474785 -0.3912295552
-0.1584191020 -0.0512320748 -0.4089216641
-0.2573778957 -0.0438684628 -0.4113352937
-0.1736024395 -0.0034373648 -0.4282214876
-0.1493099535 -0.0079747061 -0.4390769393
-0.2039963044 -0.0266700790 -0.4363109633
-0.1047098840 -0.0388506231 -0.3775190557
-0.1019073825 -0.0455407450 -0.4284345248
-0.2599038689 -0.0214731609 -0.4087255883
-0.1735112578 -0.0302553943 -0.4562218255
-0.2212248292 -0.0236951332 -0.4301998418
-0.2288448718 -0.0151744043 -0.4067034737
-0.2180541140 -0.0603302385 -0.3446180048
-0.2434720305 -0.0246467526 -0.3786457782
-0.2325995890 -0.0226782112 -0.4341226797
-0.2282919641 -0.0093545919 -0.3479887116
-0.2257432528 -0.0349433380 -0.3865111731
-0.1742754079 -0.0382053871 -0.3971496040
-0.1002491851 -0.0478449109 -0.3851060374
-0.1538688897 -0.0075865795 -0.4311501147
-0.1071044895 -0.0325337167 -0.4333184312
-0.1219729097 -0.0087196814 -0.3833477144
-0.1556439718 -0.0265060341 -0.3678736026
-0.1427647793 -0.0186082671 -0.4466301775
-0.2178553132 -0.0072191127 -0.3985636711
-0.1320613893 -0.0109480190 -0.4467528022
-0.1214181632 -0.0616879314 -0.3623166680
-0.1202815671 -0.0348196718 -0.3603693443
-0.1783183650 -0.0262842053 -0.4485896132
-0.1332813775 -0.0314104895 -0.3586022183
-0.2065597878 -0.0612231971 -0.4475980298
-0.2010333054 -0.0212282475 -0.4458209243
-0.1152826526 -0.0243397339 -0.3674991047
-0.2025670207 -0.0441696550 -0.3504700175
-0.2155881012 -0.0207693707 -0.3453046401
-0.1442617745 -0.0044738874 -0.4341145355
-0.2129108836 -0.0444711558 -0.4506712232
-0.1909949827 -0.0641978957 -0.3456915298
-0.2485193921 -0.0171627797 -0.4262451945
-0.1622532859 -0.0140516066 -0.4289800003
-0.2125019278 -0.0131748060 -0.4096783330
-0.1883319695 -0.0122785234 -0.3715057198
-0.1078780277 -0.0255254298 -0.4204137092
-0.1025841479 -0.0444007734 -0.3754293224
-0.2172072913 -0.0115088135 -0.4194864379
-0.1636077778 -0.0131617809 -0.4006676694
-0.1907699089 -0.0235137867 -0.3595167274
-0.1690106291 -0.0184619598 -0.4361233333
-0.1613264842 -0.0616773006 -0.3507077971
-0.1852837279 -0.0093010198 -0.3697058558
-0.2213981282 -0.0122003424 -0.3809543244
-0.1833520583 -0.0104054683 -0.4002553703
-0.1883032471 -0.0673159808 -0.3488430679
-0.1829736692 -0.0356211776 -0.3486873923
-0.1999203930 -0.0316885926 -0.3599190715
-0.1806828075 -0.0063606027 -0.3728914273
-0.1883501299 -0.0228761646 -0.3578363891
-0.1113106573 -0.0319963227 -0.4033326665
-0.1556809582 -0.0319038084 -0.3628265258
-0.2187757823 -0.0175141535 -0.3788704432
-0.1406576912 -0.0323865557 -0.3629436328
-0.1097612224 -0.0439535026 -0.3533888701
-0.1076571287 -0.0294451256 -0.3906821769
-0.1040490128 -0.0560138634 -0.4459842813
-0.1250922068 -0.0590167794 -0.3539723007
-0.1397105753 -0.0353209304 -0.4029624740
-0.1661899676 -0.0176076163 -0.3812962916
-0.2390716974 -0.0479290430 -0.3379849191
-0.1165824429 -0.0363847462 -0.4100623129
-0.2027165846 -0.0458076342 -0.3879568984
-0.2117579982 -0.0197449932 -0.4018461558
-0.1453380038 -0.0039018520 -0.4275535258
-0.2203610788 -0.0235659287 -0.3795148548
-0.1099166389 -0.0438851111 -0.3620682249
-0.1681864667 -0.0090041749 -0.3671281882
-0.1557178014 -0.0321672890 -0.3607433828
-0.1740076525 -0.0087412601 -0.3829598121
-0.2502944358 -0.0117242688 -0.4138342777
-0.1978382858 -0.0203950137 -0.4331145965
-0.1679077707 -0.0318512844 -0.3500294146
-0.2207010258 -0.0204626536 -0.4094801159
-0.1470942069 -0.0238673396 -0.3862000497
-0.1637540515 -0.0233306973 -0.4202612494
-0.2164580886 -0.0192966891 -0.3476994250
-0.1949635245 -0.0102057970 -0.4354382186
-0.1726223085 -0.0170337655 -0.4180303429
-0.1970953391 -0.0493747796 -0.3406757767
-0.1276806046 -0.0681492173 -0.3623889906
-0.1686782882 -0.0597841242 -0.3496068123
-0.1987174898 -0.0323875155 -0.3576260656
-0.2153858581 -0.0173354196 -0.4098144259
-0.1251529207 -0.0619809441 -0.3602616787
-0.1379107263 -0.0120995447 -0.3905852624
-0.1334733670 -0.0047425328 -0.4247121151
-0.1356220022 -0.0673759058 -0.3599185050
-0.2007066523 -0.0430696060 -0.3836449392
-0.1673874021 -0.0184298592 -0.3959309271
-0.2289125285 -0.0026956263 -0.3614478699
-0.1660278725 -0.0599074697 -0.3496793188
-0.1180020130 -0.0308269490 -0.4506579539
-0.1532986027 -0.0348782977 -0.3631631738
-0.1426440420 -0.0634174424 -0.3573163795
-0.2253340408 -0.0015904721 -0.3516592457
-0.1368353963 -0.0626926944 -0.3561654091
-0.1336228450 -0.0145697061 -0.3728144742
-0.1512380764 -0.0203393428 -0.3709762990
-0.1809989113 -0.0199837956 -0.3538678074
-0.2634076394 -0.0527283945 -0.4037142443
-0.1998801218 -0.0310186737 -0.4034277366
-0.1747659794 -0.0297199637 -0.3541448847
-0.1286266788 -0.0422641452 -0.3560943295
-0.1113684027 -0.0249859902 -0.4294065440
-0.1740832388 -0.0410545063 -0.4491827226
-0.1203239983 -0.0326784320 -0.3627100947
-0.1542309043 -0.0231089007 -0.4541385335
-0.2131828103 -0.0141789698 -0.3626174220
-0.2175943628 -0.0503021888 -0.3405519873
-0.2131839793 -0.0077541846 -0.3700541034
-0.1527879685 -0.0345849991 -0.3644316196
-0.2236115155 -0.0370964688 -0.3330774608
-0.1584797487 -0.0149113682 -0.4268632906
-0.2117256529 -0.0425355674 -0.3384212181
-0.2029502637 -0.0243862448 -0.3631113904
-0.2425597272 -0.0050254390 -0.3695268707
-0.2331969502 -0.0230563238 -0.4314127862
-0.1735600428 -0.0060068981 -0.4185606234
-0.2586938520 -0.0570662473 -0.4312542929
-0.2192264269 -0.0222693461 -0.4255673925
-0.1466431248 -0.0299521033 -0.4048024506
-0.1044654133 -0.0379601808 -0.3952603341
-0.1143570238 -0.0254102283 -0.4241947940
-0.1486223594 -0.0054714666 -0.4381338107
-0.1592563209 -0.0131546352 -0.4152246118
-0.1706429422 -0.0298398106 -0.3487196267
-0.2108424188 -0.0155782883 -0.3670405677
-0.1987718618 -0.0180665899 -0.4118761937
-0.2132797388 -0.0326118979 -0.3834429776
-0.1833136732 -0.0120946034 -0.3778246702
-0.1474170721 -0.0346304074 -0.3667220498
-0.1612292148 -0.0134701157 -0.3898107791
-0.2458082871 -0.0277001438 -0.3859708824
-0.1276500588 -0.0098522205 -0.4358092419
-0.2600628415 -0.0242520132 -0.4191383336
-0.1114157648 -0.0549654976 -0.4494543073
-0.1086201103 -0.0226936319 -0.4092299374
-0.2184204105 -0.0101714441 -0.3771310725
-0.1159133288 -0.0153280716 -0.3750271428
-0.1631408432 -0.0200977800 -0.4226961196
-0.1697741394 -0.0370154627 -0.4504974126
-0.1568065645 -0.0143893505 -0.3918302778
-0.1273777520 -0.0127909065 -0.4075676399
-0.1265876486 -0.0220444436 -0.4165916491
-0.1503212690 -0.0275328612 -0.4074845686
-0.2333990133 -0.0028262410 -0.4257532916
-0.1139818355 -0.0190143976 -0.3727715909
-0.1867152201 -0.0170332003 -0.3981254244
-0.2115608590 -0.0185816208 -0.4084054063
-0.1451445436 -0.0196295607 -0.4129554649
-0.1906736293 -0.0121287908 -0.3669098950
-0.2168250701 -0.0397900352 -0.3358436169
-0.1291852425 -0.0174570060 -0.4429208042
-0.1730282891 -0.0070349837 -0.3630117474
-0.2128236977 -0.0176159482 -0.3640427221
-0.2434517621 -0.0128492811 -0.3676781354
-0.1415745918 -0.0652313490 -0.4638017525
-0.2187222527 -0.0094684750 -0.3530532001
-0.1706712682 -0.0133712270 -0.4137876387
-0.1132217447 -0.0237571189 -0.4063760986
-0.2268507019 -0.0225718769 -0.4292572780
-0.1202263744 -0.0098224680 -0.3920589931
-0.2263034474 -0.0102089299 -0.4237994259
-0.2116944313 -0.0564783459 -0.4388094716
-0.1869292386 -0.0388151461 -0.4548624176
-0.1191697395 -0.0475189313 -0.3564643368
-0.2319483899 -0.0099562227 -0.4046101666
-0.1330658319 -0.0021838346 -0.3859072930
-0.1498146492 -0.0185990034 -0.3954183238
-0.1609692059 -0.0094762835 -0.3772143753
-0.2142048967 -0.0165021621 -0.3767995978
-0.1747488724 -0.0069514836 -0.3986062046
-0.1248901409 -0.0493235092 -0.4642909925
-0.2468098362 -0.0555660130 -0.4275516791
-0.2534151065 -0.0379487506 -0.4258910156
-0.1679022934 -0.0416644316 -0.4045536534
-0.2211041005 -0.0150185233 -0.3503714071
-0.1519405276 -0.0164445725 -0.4161139837
-0.2093736934 -0.0400190556 -0.4386471713
-0.2157588487 -0.0272685241 -0.3434447997
-0.0986808881 -0.0361563075 -0.3943345632
-0.1870628399 -0.0186598439 -0.3873755747
-0.1046082720 -0.0564288546 -0.3678411525
-0.1450871968 -0.0367326857 -0.4105851145
-0.1787557155 -0.0610670261 -0.3494306207
-0.1161154956 -0.0595785876 -0.3638614615
