-0.0865853599 -0.0013587252 -0.4181069525
-0.0790295747 -0.0577944786 -0.4436447132
-0.0746197923 -0.0261359892 -0.4014373533
-0.0168238066 -0.0266329731 -0.4452441211
-0.0464796195 -0.0929118923 -0.4477833082
-0.0931721814 -0.0002731965 -0.4201171100
-0.1244690516 -0.0814607225 -0.4841241368
-0.1101730664 -0.0628007565 -0.5116062937
-0.1428279273 -0.0607823855 -0.4845645102
-0.1242694023 -0.0290672165 -0.4445428036
-0.1758876616 -0.0413238480 -0.4075997424
-0.0183721116 -0.0057962122 -0.4310495380
-0.0555724081 -0.0293862696 -0.4041480548
-0.0209699814 -0.0307608206 -0.4506650883
-0.1271092387 -0.0678641350 -0.4822439022
-0.1217502824 -0.0485849959 -0.3866449726
-0.0362877591 -0.0708715089 -0.4104515542
-0.1753433281 -0.0228180890 -0.4630022918
-0.1505868257 -0.0856558376 -0.4778300550
-0.1108651295 0.0024417498 -0.4674955345
-0.0975691279 -0.0661295804 -0.5048398824
-0.1705542201 -0.0547525880 -0.4004028458
-0.1440507202 -0.0186622660 -0.4637620306
-0.0963298551 -0.0752357877 -0.4141626906
-0.0816902518 -0.0054947999 -0.4336373806
-0.1427034222 -0.0135674193 -0.4438081214
-0.0392775771 -0.0197770956 -0.4968893423
-0.0991631194 -0.0608213477 -0.3932080735
-0.1558705329 -0.0573007369 -0.4008450212
-0.1842423826 -0.0370800011 -0.4114761651
-0.0863508202 0.0142640939 -0.4354410907
-0.0526959328 -0.0610296620 -0.4205011108
-0.0255363642 -0.0339998299 -0.4148160738
-0.0731727255 -0.0259961961 -0.3995654957
-0.1775111755 -0.0563282917 -0.4698827483
-0.1292429466 -0.0387426464 -0.4824950459
-0.0890145807 -0.0296550500 -0.4519541496
-0.1357214518 -0.0253798610 -0.4712821969
-0.1277746856 -0.0195163749 -0.3925153116
-0.0267896227 -0.0719392686 -0.4706829384
-0.1230250763 -0.0568929696 -0.4064013998
-0.1269639679 -0.0261959603 -0.4637406467
-0.1663096406 -0.0212082070 -0.4689411597
-0.0381869527 -0.0392109201 -0.4045092979
-0.1382879538 -0.0652074523 -0.4777339833
-0.1221250038 -0.0617635505 -0.4884603922
-0.0281067283 -0.0564665531 -0.4443352323
-0.0098661180 -0.0372379239 -0.4696022373
-0.1271842127 -0.0272202711 -0.4608790230
-0.1519559478 -0.0815627299 -0.4306902554
-0.0726856084 -0.0625897742 -0.4384321369
-0.1302880927 -0.0314810444 -0.3873136050
-0.1387880088 0.0062143104 -0.4179190620
-0.0564087202 -0.0182006878 -0.4675632031
-0.0731690735 -0.0306898160 -0.4004548310
-0.0719477717 -0.0545636263 -0.5050087741
-0.0875233992 -0.0513532867 -0.4018925407
-0.0759642107 -0.0734440717 -0.3995312155
-0.1148059278 -0.0243687722 -0.4544709549
-0.1100479416 -0.0034747681 -0.4230851242
-0.1048865472 -0.0851940503 -0.4853348761
-0.0107994526 -0.0400504961 -0.4708033876
-0.1076244153 -0.0802528895 -0.4397867024
-0.0876164174 -0.0095045080 -0.4079763590
-0.1165439069 -0.0208520057 -0.4410014878
-0.0613058079 -0.0204130424 -0.4891435532
-0.1660255476 0.0076698641 -0.4366428136
-0.1263454573 0.0026746522 -0.4430633384
-0.0313689180 -0.0265424709 -0.4934039936
-0.0688368752 -0.0472690918 -0.4385936845
-0.0522658932 -0.0507779678 -0.5104755542
-0.1307309688 -0.0553984891 -0.4296515078
-0.1684177823 -0.0646304185 -0.3949662443
-0.0504263381 -0.0069006009 -0.4207665619
-0.1685796075 -0.0888876308 -0.4532335003
-0.1286816103 -0.0531588465 -0.3947570144
-0.1643170855 0.0009410126 -0.4277239194
-0.0309615593 -0.0483763159 -0.4176137242
-0.0801110585 -0.0110126150 -0.4175224420
-0.0330734707 -0.0152322067 -0.4685154858
-0.0369260170 -0.0151803097 -0.4171704408
-0.0147509342 -0.0361967873 -0.4366661009
-0.1558945896 -0.0807354706 -0.4371805822
-0.0599202700 -0.0422100555 -0.3995190442
-0.0727158519 -0.0366791332 -0.3942839214
-0.1106548126 -0.0681428670 -0.4196234102
-0.0199687430 -0.0247858493 -0.4415644360
-0.1354117187 -0.0367627826 -0.3831576727
-0.0709171758 -0.0040266334 -0.4435215192
-0.1170285714 -0.0214021986 -0.4553229014
-0.1285585020 -0.0499960032 -0.3876131284
-0.0668111733 -0.0033923479 -0.4430485147
-0.0886740095 -0.1037796709 -0.4678570655
-0.0531332644 -0.0817661457 -0.4346406031
-0.0707138511 -0.0345082171 -0.3950779051
-0.0629166786 -0.0121108601 -0.4253213268
-0.1018187455 -0.0082186352 -0.4651965820
-0.1584696723 -0.0289083193 -0.3813376083
-0.0221594607 -0.0516817003 -0.4421237597
-0.0477188154 -0.0310889728 -0.5082282367
0.0187616771 -0.0755989078 -0.4651383682
-0.1456587338 -0.0190411669 -0.4395460775
-0.1368013244 -0.0721945198 -0.4184392891
-0.1357062679 -0.0142756690 -0.3922729151
-0.1230443527 -0.0240639310 -0.3923121282
-0.1509645434 -0.0634043633 -0.4892607432
-0.0529072487 -0.0389336654 -0.3996384408
-0.1508372934 -0.0304642722 -0.3817377919
-0.1124360561 -0.0130345663 -0.4114732146
-0.1400767961 -0.0888780752 -0.4331902035
-0.1296771197 -0.0597919228 -0.3913983603
-0.1083492239 -0.0159479520 -0.4591372738
-0.0232070867 -0.0091311723 -0.4413611394
-0.1870639935 -0.0515824397 -0.4406916079
-0.1227405323 -0.0192364243 -0.4662654464
-0.0703730062 -0.0137322261 -0.4274580926
-0.1052701386 -0.0393713393 -0.3896035597
-0.0403028712 -0.0365784901 -0.4022986422
-0.0680699962 -0.0270189321 -0.4872394124
-0.0448310114 -0.0254205186 -0.4062943459
-0.0330542324 -0.0371729258 -0.4970240676
-0.1526369336 -0.0368572511 -0.3901129691
-0.1282438960 -0.0090823441 -0.3976586193
-0.0213593656 -0.0487964818 -0.4586470211
-0.1320263538 -0.0344285119 -0.4543335635
-0.0306101516 0.0050199137 -0.4495159294
-0.1401879191 -0.0026293965 -0.4123004675
-0.0551827802 -0.0885129985 -0.4483933408
-0.1081585570 -0.0316229436 -0.3901438158
-0.1342725856 -0.0504127537 -0.4843028974
-0.0183256627 -0.0199974582 -0.4277774218
-0.0718182936 -0.0929350737 -0.4860292733
-0.0637569858 -0.0119968652 -0.4115867346
-0.0776009144 -0.0081930211 -0.4294281564
-0.0791140958 -0.0530775016 -0.4990764655
-0.0917034759 -0.0096624815 -0.4589035069
-0.0479642974 -0.0241613651 -0.4067747083
-0.0627278599 -0.0234906951 -0.4744956032
-0.0454150210 -0.0239429657 -0.4067924848
-0.1455495274 -0.0555000759 -0.4931873840
-0.1450556344 -0.0212341507 -0.3896176561
-0.1561205769 0.0054726787 -0.4386273153
-0.0349139565 -0.0549442974 -0.4464315061
-0.0400565274 -0.0669016599 -0.4429803903
-0.1159995120 -0.0713839280 -0.3935235596
-0.0982233037 0.0039699874 -0.4295661047
-0.0787041521 -0.0372742606 -0.4924515002
-0.1468841773 -0.0022939035 -0.4050867800
-0.1591327041 0.0016360005 -0.4183636904
-0.0948312773 -0.0009179278 -0.4559880899
-0.1816123853 -0.0606437674 -0.4584885571
-0.0352161764 -0.0616654145 -0.4349382256
-0.0850563917 -0.0796157138 -0.4227558595
-0.0652546006 -0.0730732147 -0.4359210393
-0.0923732837 -0.0527722054 -0.3975362776
-0.0417500286 -0.0216432078 -0.4678961575
-0.1137956495 -0.0852516124 -0.4806411570
-0.0745203286 -0.0329427154 -0.4734349167
-0.1242749736 -0.0357260129 -0.4950584324
-0.1646448673 -0.0220136137 -0.4385619697
-0.1129789874 -0.0912334117 -0.4813031742
-0.0609056000 -0.1000854687 -0.4678818289
-0.1401503436 -0.0072980375 -0.3974601675
-0.0888361997 -0.0692130398 -0.4997443243
-0.1078758573 -0.0483704543 -0.3956232134
-0.1732322569 -0.0756516210 -0.4483860545
-0.1719873914 -0.0665816536 -0.4439274451
-0.0985346216 -0.0658829838 -0.4205624245
-0.0378156399 -0.0438333599 -0.4074167846
-0.0723727632 -0.0693323213 -0.5062414795
-0.0575708329 -0.1049705770 -0.4804797711
-0.1695757834 -0.0246744713 -0.4439295837
-0.0652299272 -0.1030238833 -0.4807111082
-0.1517213209 -0.0028504064 -0.4466143920
-0.1532455044 -0.0002692599 -0.4438139325
-0.0245403489 -0.0409896025 -0.4296239441
-0.0163958388 -0.0582141064 -0.4551264206
-0.1709911202 -0.0339149450 -0.4049497995
-0.1743710124 -0.0338165748 -0.4046233016
-0.0981460161 0.0130234520 -0.4435935193
-0.0271315185 -0.0628164581 -0.4156685065
-0.1618225029 -0.0014772103 -0.4184560401
-0.1565884983 -0.0034555882 -0.4449131622
-0.1485121846 -0.0360948108 -0.3889611661
-0.1868724912 -0.0443375934 -0.4393886741
-0.0824104222 0.0021004896 -0.4477385302
-0.1271723398 -0.0499832036 -0.4481976257
-0.1735458556 -0.0264778156 -0.4759018040
-0.1118838489 -0.0092671392 -0.4190439880
-0.0559261078 0.0103574767 -0.4545941699
-0.1310012408 -0.0097750267 -0.3981659689
-0.1113288950 -0.0265512218 -0.3909975468
-0.1005988445 -0.0146225633 -0.4000899741
-0.1431913891 -0.0292037593 -0.3874630206
-0.1498243017 -0.0368071692 -0.3894029298
-0.0854731937 0.0036331182 -0.4472006093
-0.1444942366 -0.0230767956 -0.4739839462
-0.0880928798 -0.0544683151 -0.4063338450
-0.1016290327 -0.0271591581 -0.4915670734
-0.0328868865 -0.0224412590 -0.4180387741
-0.1134474321 -0.0087003951 -0.4220752714
-0.1809999969 -0.0520864517 -0.4569427426
-0.0758454860 -0.1041091570 -0.4766926810
-0.1420761622 -0.0366078219 -0.3876308611
-0.0707170108 -0.0861972634 -0.4093144313
-0.0409782676 -0.0195457791 -0.4794984925
-0.0744791701 -0.0449431129 -0.3962191045
-0.0238454869 -0.0418767813 -0.4628933997
-0.0686124314 -0.0140793409 -0.4199015777
-0.1286323146 -0.0381285803 -0.4387332489
-0.1455553338 -0.0456560458 -0.4873967333
-0.0317888938 -0.0511430824 -0.4974444501
-0.1465052538 -0.0152216290 -0.4549211996
-0.0764973338 -0.0321522193 -0.4640236273
-0.1375703824 -0.0317395348 -0.3849915566
-0.1076484198 -0.0443383456 -0.3915527058
-0.0298720093 -0.0270966306 -0.4671833020
-0.1310497179 -0.0197452613 -0.4564385451
-0.0310148636 -0.0247795719 -0.4679228404
-0.1157473844 -0.0238529470 -0.3920609609
-0.1360117059 -0.0541922699 -0.3973689883
-0.0796444193 -0.0061912178 -0.4362415671
-0.1831858887 -0.0325608512 -0.4334970206
-0.1572090425 -0.0589403907 -0.4247898410
-0.0658179106 -0.0340555512 -0.4438611595
-0.0850011130 -0.0618471762 -0.4201035623
-0.0804832218 -0.0047297550 -0.4375042262
-0.1390792039 -0.0271409077 -0.4696569133
-0.1197594655 -0.0034565130 -0.4486947870
-0.1093606576 -0.0156514123 -0.3989358544
-0.0800635148 -0.0069642816 -0.4298084628
-0.0600163763 -0.0044684217 -0.4367129009
-0.0321389462 -0.0021555992 -0.4381819858
-0.0808111682 -0.0460944595 -0.5076527374
-0.0937083619 -0.0066395993 -0.4594903035
-0.1299402518 -0.0578595313 -0.4836762116
-0.1303793726 -0.0050277928 -0.4098582780
-0.0590469466 -0.0708516580 -0.5032498396
-0.0945745036 -0.0676396117 -0.4260976017
-0.1324336148 -0.0564738993 -0.4000372792
-0.1066393046 -0.0698595463 -0.3952735543
-0.0581723762 -0.0393396008 -0.3982954721
-0.1635325223 -0.0173352407 -0.4422278462
-0.1027170755 -0.0434482452 -0.3896990865
-0.0174442066 -0.0352824219 -0.4505640940
-0.0596995369 0.0101461808 -0.4449245641
-0.1191584416 -0.0435354773 -0.3883211343
-0.1420486289 -0.0127903252 -0.4559546294
-0.0904138461 0.0014248994 -0.4319876134
-0.0291797003 -0.0482248043 -0.4044791760
-0.0916468402 -0.0500172255 -0.3861859277
-0.0837644008 -0.0494908457 -0.4999809359
-0.0207550602 -0.0511025239 -0.4509842858
-0.1571770832 -0.0343320593 -0.3927643597
-0.0849792566 -0.0387893142 -0.3951074673
-0.0686744323 -0.0421341107 -0.4634919201
-0.0812284292 -0.0388880969 -0.3944818127
-0.0714746195 -0.0728338135 -0.4988696165
-0.0834837610 -0.0002872426 -0.4332180534
-0.1382482616 -0.0247445542 -0.3888647940
-0.1324390260 -0.0503926220 -0.3940358761
-0.0208620511 -0.0630214054 -0.4881131113
-0.1030387482 -0.0991732747 -0.4773844975
-0.1172272105 -0.0170192731 -0.4650469600
-0.1696588213 -0.0336010884 -0.4423161290
-0.1752030286 -0.0337232878 -0.4426106626
-0.1279784659 -0.0570339902 -0.4275515871
-0.1421426046 0.0075106377 -0.4167169875
-0.1223018426 -0.0391700604 -0.4292772642
-0.1715135473 -0.0270637530 -0.4243061656
-0.0912806094 -0.0334822643 -0.3910576194
-0.1590700961 -0.0346484051 -0.3933900867
-0.0797064391 -0.0534842369 -0.4416089685
-0.1481335257 -0.0522057975 -0.3967535068
-0.0464662048 -0.0663835495 -0.5057655766
-0.1276895538 -0.0302624495 -0.4640106608
-0.1305992783 -0.0349617557 -0.3851412470
-0.1137605968 -0.0507468146 -0.4950678053
-0.1654053077 -0.0112142778 -0.4026439590
-0.1513985052 -0.0693128188 -0.4008683266
-0.1081273800 -0.0189452103 -0.4553020428
-0.0728683074 -0.1025220046 -0.4793990661
-0.0295315073 -0.0508974454 -0.4398322738
-0.0404562452 -0.0092072023 -0.4178048183
-0.1143920959 -0.0222239331 -0.4910251714
-0.1168208706 -0.0328652002 -0.4909333323
-0.1025909875 -0.0797874655 -0.3991453229
-0.1693349982 -0.0303060811 -0.4032534767
-0.0505110050 -0.0219334623 -0.4070117783
-0.1277289904 -0.0908690124 -0.4743651729
-0.1748493499 -0.0279097554 -0.4407548642
-0.0803853260 -0.0706902024 -0.4913746718
-0.1222258976 -0.0106253807 -0.4544078666
-0.1325071513 -0.0091390731 -0.4361053123
-0.1034806413 -0.0015491033 -0.4666500236
-0.1716181461 -0.0263850908 -0.4475492423
-0.1347433279 -0.0711036299 -0.3897163564
-0.0067920331 -0.0566573618 -0.4338010589
-0.1801205622 -0.0333963184 -0.4166108699
-0.0431642227 -0.0723541275 -0.4451671986
-0.1208317874 -0.0118839211 -0.4146708425
-0.0713279864 -0.0015332495 -0.4447656115
-0.1550640459 -0.0164724551 -0.4633612412
-0.0577704251 -0.0682737814 -0.4083199094
-0.1041020907 0.0044459604 -0.4541433492
-0.0806653150 -0.0071577120 -0.4193296034
-0.1711664169 -0.0477160229 -0.4073842351
-0.0626465613 -0.0342152949 -0.3976622199
-0.1104638807 -0.0302885683 -0.4965284788
-0.0335769130 -0.0645297819 -0.4409741323
-0.0825732090 -0.0145736651 -0.4028181061
-0.1427904426 -0.0019075503 -0.4097517542
-0.0080013387 -0.0638000147 -0.4342178537
-0.0722754499 -0.1063091818 -0.4751231036
-0.0942046215 -0.0704975815 -0.4976379417
-0.1540498346 -0.0151966066 -0.4704908210
-0.0723411458 -0.0386021359 -0.4885143450
-0.0413506900 -0.0198494961 -0.5005023596
-0.0218447842 -0.0323086950 -0.4539746208
-0.1428219482 -0.0311538365 -0.4510918761
-0.1064192252 -0.0417403369 -0.5021817406
-0.0928453355 -0.0566556755 -0.4098433981
-0.1082383192 -0.0294624116 -0.5029671829
-0.0977566680 -0.0696340620 -0.5048509837
-0.1327809940 -0.0733685316 -0.3854787708
-0.1554472351 0.0086520180 -0.4406330478
-0.1453809083 -0.0198754594 -0.4664856448
-0.0728322070 0.0029720462 -0.4520091243
-0.0380665114 -0.0823736517 -0.4616931251
-0.0470795341 -0.0692258554 -0.4340770769
-0.1343483311 -0.0363047421 -0.4788126253
-0.0833856287 -0.0860476504 -0.4370497636
-0.0225117490 -0.0140030851 -0.4256227927
-0.1565087744 0.0078146020 -0.4324636398
-0.0788744054 -0.0498567884 -0.4396597811
-0.0313907592 0.0076682674 -0.4439281095
-0.1524359280 -0.0262291319 -0.4887490941
-0.0830511020 -0.0722112741 -0.3871932770
-0.0654609418 -0.0137862180 -0.4193843264
-0.1009029540 -0.0422186223 -0.5054553558
-0.0925970123 -0.0011872525 -0.4190247819
-0.1625882475 -0.0246716763 -0.4409304723
-0.0855423880 -0.0727345066 -0.3983379637
-0.0930478604 -0.0510701631 -0.5021542953
-0.0631555954 -0.0590518143 -0.4181764920
-0.0615523278 -0.0285247680 -0.4745653304
-0.1552479111 -0.0654309995 -0.4157990678
-0.1234017678 -0.0724292093 -0.4057610933
-0.0752904521 -0.0691044596 -0.4095191995
-0.0736112535 -0.0505760857 -0.5012537439
-0.1753263028 -0.0528128542 -0.4726048155
-0.1350318606 -0.0787509191 -0.4809470662
-0.0573549273 -0.0146663777 -0.4097895172
-0.0359452110 -0.0114450544 -0.4124966255
-0.0203766302 -0.0691263314 -0.4769661063
-0.1616248347 -0.0235558778 -0.4779470991
-0.0895793595 0.0066538744 -0.4586393206
-0.0281382879 -0.0058013031 -0.4152156570
-0.1387129941 0.0003126415 -0.4429420711
-0.0645999923 -0.0391452938 -0.4437524962
-0.1586483721 -0.0490626578 -0.4827173373
-0.0811043295 -0.0545312424 -0.5016154336
-0.0726232497 -0.0136406205 -0.4124456873
-0.1003865835 -0.0288743832 -0.3925530779
-0.0200279263 -0.0540474379 -0.4457783456
-0.1302400085 -0.0861344328 -0.4779668955
-0.0861021575 -0.0020002294 -0.4235556665
-0.0826853767 0.0016447491 -0.4275664976
-0.1420471375 -0.0077234023 -0.4481190023
-0.0323790040 -0.0372025586 -0.4070308208
-0.1178585446 -0.0392498595 -0.3874694200
-0.0401594116 -0.0008491446 -0.4297513344
-0.1209749661 -0.0968921985 -0.4512205025
-0.0916367940 -0.0186199259 -0.4703258797
-0.1125716226 -0.0168551289 -0.4823173001
-0.1028672927 -0.0728063821 -0.3885054415
-0.1301978609 -0.0122557995 -0.3972135045
-0.1429459662 -0.0696301899 -0.3783848501
-0.0426349048 -0.0992520447 -0.4648026760
-0.1371784061 -0.0341644059 -0.4511950840
-0.0508737463 -0.0526868385 -0.4027863258
-0.1209947662 -0.0042399237 -0.4428612452
-0.0972011359 -0.0730869490 -0.4309465416
-0.0204779976 -0.0615228118 -0.4179639303
-0.1544560526 -0.0692043723 -0.4129454334
-0.1084721549 0.0113766515 -0.4456733678
-0.0619027220 -0.0392181483 -0.4990233200
-0.0050187139 -0.0499891935 -0.4434974040
-0.1398848036 0.0097928579 -0.4387239850
-0.0657916308 -0.0269319840 -0.4534480373
-0.1285042375 -0.0363569226 -0.3855058463
-0.1031720731 -0.0088170044 -0.4801493785
-0.0696639055 -0.0284991390 -0.5033561502
-0.0558711231 -0.0169558009 -0.4878123237
-0.0318861376 -0.0531429509 -0.4144980413
-0.1303986341 -0.0256587660 -0.3917234348
-0.0663403001 -0.0143095886 -0.4227236087
-0.1524672173 -0.0785212031 -0.4309349212
-0.0727738163 -0.0285089153 -0.5015510903
-0.0144481111 -0.0452867810 -0.4822966877
-0.0434682880 -0.0472339554 -0.5085201119
-0.0816298712 -0.0389083642 -0.4715868575
-0.1238600858 -0.0549487274 -0.4868967107
-0.0984823295 -0.0460100732 -0.5005786723
-0.1629116464 -0.0392318269 -0.3971379731
-0.0625137253 -0.0213612981 -0.4800530424
-0.0140694640 -0.0168188151 -0.4720712808
-0.0262795934 -0.0616767602 -0.4721762987
-0.1415570657 0.0093480617 -0.4434977074
-0.0380582981 -0.0576250548 -0.4245352191
-0.0400827607 -0.0777259735 -0.4590676789
-0.1158722101 -0.0083656945 -0.4511159537
-0.0243310873 -0.0138609759 -0.4211043148
-0.1168153526 -0.0132044101 -0.4164459675
-0.0146260761 -0.0671317991 -0.4676094825
-0.1117500581 -0.0727794708 -0.4279736465
-0.1174184877 -0.0980152457 -0.4533964694
-0.0804549395 -0.0084609642 -0.4228847645
-0.0343455677 -0.0731144571 -0.4592828737
-0.1611391241 -0.0207452421 -0.4756410047
-0.1289579350 -0.0364313246 -0.4472605590
-0.1643837147 -0.0384482997 -0.3972116215
-0.1320564747 -0.0037097766 -0.4499515116
-0.1715225159 -0.0314026771 -0.4841524935
-0.0734169285 -0.0578685044 -0.5002944860
-0.0961929513 -0.0989174862 -0.4791182813
-0.1210042637 -0.0086834289 -0.4405436987
-0.0348195973 -0.0222457391 -0.4827197976
-0.1441320808 0.0097358077 -0.4324004711
-0.0459435507 -0.0696904103 -0.4090742330
-0.1421488822 -0.0595078809 -0.4044136815
-0.0306425124 -0.0723316089 -0.4213935712
-0.0956409059 -0.0190489617 -0.3998623840
-0.1199452827 -0.0102756578 -0.4204167247
-0.0246784995 -0.0738143209 -0.4307721791
-0.1410275310 0.0094476929 -0.4268876159
-0.0274663502 -0.0278457047 -0.4793205995
-0.0953606746 -0.0678649263 -0.3858732842
-0.0215041041 -0.0285554423 -0.4684222670
-0.1144657867 -0.0103990142 -0.4692362774
-0.1103040916 -0.0237482969 -0.3946207830
-0.0339372822 -0.0061167742 -0.4247992022
-0.0667361671 -0.0540946970 -0.4040619043
-0.0679099573 -0.0301864523 -0.4013363434
-0.0287069007 -0.0187297732 -0.4625439520
-0.0820043958 -0.0797963668 -0.4222032248
-0.0303030477 0.0008406425 -0.4373462881
-0.1124563414 -0.0343973012 -0.4462291464
-0.0132808937 -0.0309843204 -0.4378522829
-0.0211495916 -0.0350518589 -0.4563691404
-0.1385767782 -0.0208597718 -0.4775075421
-0.0237502151 -0.0659050028 -0.4225091065
-0.1114552041 -0.0770204539 -0.4057411676
-0.0984079441 0.0103668941 -0.4342094637
-0.1729416653 -0.0520286205 -0.4120731004
-0.0303420167 -0.0464330572 -0.4174198654
-0.1493424418 -0.0258550622 -0.4788850664
-0.1753026527 -0.0359605367 -0.4367297645
-0.0494340451 -0.0223713935 -0.4985395349
-0.0640163949 -0.0198414192 -0.4166853852
-0.1020951369 -0.0537558852 -0.4040211985
-0.0981454137 -0.0214237989 -0.4986047455
-0.0493689924 0.0074301162 -0.4436163902
-0.1075846867 -0.0392420988 -0.3893071964
-0.0439205361 -0.0791278159 -0.4077455954
-0.0475000475 -0.0035627284 -0.4254707972
-0.0819477364 -0.0789966136 -0.4415384233
-0.1823036888 -0.0344766161 -0.4665849676
-0.0251593001 -0.0489632070 -0.4397329816
-0.1412817131 -0.1002985476 -0.4470264767
-0.0821608388 -0.0282379672 -0.4554651046
-0.0502798656 -0.0488261301 -0.5081084270
-0.0321867887 -0.0733793684 -0.4400611741
-0.1421351789 -0.0791174243 -0.4842093688
-0.0973998796 -0.0872564136 -0.4286123109
-0.1302859564 -0.0460030755 -0.3882184466
-0.0437386031 0.0041610623 -0.4411528011
-0.0100789121 -0.0343939938 -0.4661897619
-0.1321960638 -0.0276723954 -0.4692623028
-0.1603852076 -0.0213828867 -0.3948569992
-0.0741786057 -0.0316642791 -0.4843190071
-0.1788980539 -0.0390620929 -0.4712884398
-0.0780409459 -0.1017605145 -0.4803579850
-0.0401644962 -0.0952080462 -0.4699494482
-0.0982498376 -0.0254855425 -0.4893653447
-0.0976685340 -0.0683553772 -0.4269464475
-0.0671079574 -0.0263004920 -0.4661536481
-0.0748337824 -0.0164758871 -0.4042307486
-0.1347274208 -0.0558418750 -0.3867688867
-0.1338669211 -0.0893551709 -0.4789395406
-0.0658387596 -0.0097508136 -0.4104016418
-0.1711621586 -0.0787964044 -0.4448067754
-0.0139376528 -0.0387376865 -0.4572478795
-0.1792150978 -0.0318408497 -0.4313855271
-0.1221039086 -0.0117436237 -0.4101973033
-0.0676622321 -0.0335754584 -0.4413161934
-0.0386046150 -0.0861062091 -0.4672786383
-0.0956963754 -0.0720117582 -0.3994622606
-0.0800237982 -0.0827807007 -0.4932614175
-0.1775617290 -0.0728757297 -0.4406148487
-0.1531713458 -0.0833091235 -0.4760143063
-0.0989802388 -0.0992110623 -0.4589934040
-0.0683488648 -0.0559814379 -0.4149974182
-0.0528489686 -0.0986289727 -0.4825373610
-0.0958086315 -0.0401299486 -0.4998506693
-0.1002528930 -0.0093259440 -0.4071569589
-0.0907774836 0.0144886462 -0.4485932623
-0.0258540627 -0.0467869420 -0.4390175403
-0.1241676432 -0.0691265974 -0.3993473296
-0.1587573060 -0.0156577668 -0.4686898270
-0.0300456432 -0.0578849152 -0.4575678907
-0.1329423276 -0.0892418202 -0.4744459936
-0.0813963935 -0.0608444677 -0.4172295400
-0.0303240282 -0.0300189489 -0.4689425434
-0.0350158691 -0.0637564005 -0.4422095379
-0.1653057041 -0.0567859419 -0.4265560534
-0.1302008608 -0.0206023355 -0.4610081448
-0.1300911918 -0.0592442847 -0.4984550603
-0.0232254435 -0.0327163338 -0.4301304260
-0.0775878892 -0.0338504366 -0.3946502051
-0.0657471571 -0.0012525361 -0.4597522197
-0.0741067363 -0.0048090273 -0.4427036075
-0.0728953108 -0.0052535278 -0.4435477853
-0.0442090533 -0.0873025381 -0.4499776638
-0.1424898524 -0.0229273100 -0.4847083779
-0.0667879024 0.0005280238 -0.4570249806
-0.1081048595 -0.0156540665 -0.4786298025
-0.0278496058 -0.0449610651 -0.4831110916
-0.1535486252 -0.0186160870 -0.3882897449
-0.1069467202 -0.0983044641 -0.4565840782
-0.0641998750 -0.1014098324 -0.4672312651
-0.1179855993 -0.0635560993 -0.4133329071
-0.1471180136 -0.0088716312 -0.3927878722
-0.1624790741 -0.0651336896 -0.4869767216
-0.0252363091 -0.0381095598 -0.4719475852
-0.1708933387 -0.0482164162 -0.4090642331
-0.0879940228 -0.0777264893 -0.4134844115
-0.0740575654 -0.0373964944 -0.5042171527
-0.1625769456 -0.0726380395 -0.4209846506
-0.0319453625 -0.0472264039 -0.4043837933
-0.0265239636 -0.0528976927 -0.4572513755
-0.0466351770 -0.0469449870 -0.4061848521
-0.0403323501 -0.0250245480 -0.4677039289
-0.1262607183 -0.0942203116 -0.4773341892
-0.0614705158 -0.0255811005 -0.4816816720
-0.1249021818 -0.0434002893 -0.4367229016
-0.1685319883 -0.0360921741 -0.4845911591
-0.1126854156 -0.0977260800 -0.4546008539
-0.0468667976 0.0003209703 -0.4619582040
-0.0773007838 -0.0715955100 -0.4883308291
-0.0508750875 -0.0734760296 -0.4442227690
-0.1395418380 0.0107650517 -0.4415933004
-0.0394021978 0.0088551484 -0.4490708918
-0.0243748613 -0.0691235937 -0.4261503174
-0.1256595040 -0.0615660626 -0.4814461853
-0.1025391337 -0.0941090752 -0.4502045450
-0.0196303081 -0.0501671440 -0.4747356598
-0.1757008376 -0.0645400810 -0.4800221427
-0.0686603409 -0.0755636198 -0.5020455497
-0.0717074094 -0.0289228728 -0.4846574449
-0.0292002811 -0.0529216802 -0.4139183559
-0.1408456641 -0.0227328556 -0.4764396469
-0.0492299148 0.0015818301 -0.4624409180
-0.1173656326 -0.0548655074 -0.4934547849
-0.1080254220 -0.0149883607 -0.4026575987
-0.1173192678 -0.0575618813 -0.5061934637
-0.1111381799 -0.0607786141 -0.4109490216
-0.0871170060 -0.0229890500 -0.4570060573
-0.0679881647 -0.0190841928 -0.4063271085
-0.0886430584 -0.0000098433 -0.4146249997
-0.1136018492 -0.0222546441 -0.3924676647
-0.0905338442 -0.0754009480 -0.4001743541
-0.0947956621 -0.0638025704 -0.4205255977
-0.0760539365 -0.0131215020 -0.4193621434
-0.1233568912 -0.0139159691 -0.4000966251
-0.0235430161 -0.0134002187 -0.4438211141
-0.0635718035 -0.0857008949 -0.4345044998
-0.0816465023 -0.0646256431 -0.4240277396
-0.1249315830 -0.0131896023 -0.4011946218
-0.0579116084 -0.0415177606 -0.3980578581
-0.1268848056 -0.0072036607 -0.3939099756
-0.1036345327 -0.1009239426 -0.4622557542
-0.0850398764 -0.0822592974 -0.4460395575
-0.1033893599 -0.0623420803 -0.5127994495
-0.0271692517 -0.0700130566 -0.4482411035
-0.1111457675 0.0025377421 -0.4458201567
-0.0789726622 -0.0034167591 -0.4313005269
-0.0447491763 -0.0757680830 -0.4165087181
-0.1257279440 -0.0126614785 -0.4051285702
-0.1326937107 -0.0318894470 -0.4589942671
-0.0681631455 -0.0168015587 -0.4075099100
-0.1034756861 0.0140584722 -0.4269905706
-0.1213713311 -0.0299809643 -0.3873662730
-0.0774810597 -0.0714206234 -0.4027918311
-0.1130314253 -0.0186426952 -0.4666555167
-0.0938100434 -0.0427891533 -0.4981406522
-0.0605144538 -0.0116078248 -0.4272609651
-0.0384681779 -0.0288151315 -0.4836366545
-0.1017501511 -0.0143608415 -0.4769137280
-0.1354525711 -0.0461233202 -0.3869474398
-0.0552592465 -0.0606017195 -0.4215350579
-0.0429509343 -0.0697706104 -0.4441720015
-0.0553981842 -0.0019370603 -0.4670122443
-0.1150202927 -0.0330723193 -0.4976248576
-0.0432233139 -0.0021654018 -0.4254325531
-0.0388266402 -0.0357583288 -0.4862284403
-0.0930319632 -0.0828002371 -0.4917914801
-0.0842492773 -0.0761770424 -0.4983268705
-0.1256821898 -0.0284479740 -0.4544275853
-0.0933584716 -0.0796743854 -0.4130653031
-0.0675764691 -0.0409073639 -0.4599185482
-0.0988095830 -0.0133125967 -0.4663693359
-0.1449597117 -0.0147318141 -0.4592198562
-0.1504775251 -0.0090823721 -0.3950897647
-0.0577176938 -0.0520231490 -0.4098455478
-0.0405872686 -0.0340675940 -0.4866173201
-0.1208760994 -0.0197123041 -0.4851900740
-0.0212982472 -0.0585552147 -0.4522252117
-0.0394113741 -0.0283850872 -0.4921715072
-0.1353272492 0.0028153473 -0.4263877286
-0.1412983741 0.0015929849 -0.4414573469
-0.0909044567 0.0153395907 -0.4505983599
-0.1746149044 -0.0680833472 -0.4354004450
-0.0810715372 -0.0060398911 -0.4351493995
-0.1812545694 -0.0357894769 -0.4151876873
-0.0270476720 -0.0458715551 -0.4221185649
-0.0764503783 -0.0892228035 -0.3848859262
-0.0152302872 -0.0553939907 -0.4281990846
-0.1856012218 -0.0722530814 -0.4098015062
-0.0678007958 -0.0143103186 -0.4165321629
-0.0454977491 -0.0108291215 -0.4150737843
-0.1312774855 -0.0198646201 -0.4368834012
-0.0875972203 -0.0745187023 -0.4913333562
-0.0911061426 -0.0642994168 -0.4899640920
-0.0109580806 -0.0333840437 -0.4430119394
-0.1155166018 -0.0405878299 -0.4896755399
-0.1674713119 -0.0761609632 -0.4757063749
-0.0910209471 -0.0319381903 -0.3927780840
-0.1310674294 -0.0079313640 -0.4593649722
-0.1387799828 0.0160340160 -0.4282798848
-0.1681421015 -0.0844892346 -0.4644126483
-0.0872003199 -0.0387214161 -0.3945897041
-0.1407683900 -0.0334595877 -0.4581055173
-0.1381984285 -0.0907508526 -0.4412024717
-0.0795868951 0.0014087302 -0.4592661481
-0.0864913517 -0.0987972682 -0.4818267395
-0.1203395508 -0.1014008528 -0.4606493216
-0.0706646415 -0.0556132306 -0.4144685943
-0.1322045184 -0.0133531630 -0.4515586266
-0.1304731090 -0.0385793881 -0.3892240047
-0.0323557711 -0.0197601043 -0.4685074393
-0.1845697026 -0.0463444940 -0.4242520246
-0.0770705479 -0.0530631077 -0.3975583082
-0.0667202979 -0.0885876278 -0.4457382016
-0.0083359887 -0.0548692219 -0.4363796836
-0.1520669480 -0.0060918074 -0.3951384486
-0.1270383777 -0.0382514031 -0.4800541921
-0.0688706911 -0.0508159329 -0.3955109661
-0.0603323615 -0.0899947726 -0.4440777670
-0.0298420570 -0.0758632273 -0.4174139746
-0.1364963558 -0.0336786668 -0.4882351372
-0.0086193445 -0.0655573536 -0.4549929952
-0.1423064239 -0.0246606958 -0.3920610846
-0.0606856298 -0.0215374908 -0.4044694567
-0.1873747485 -0.0538435092 -0.4378460348
-0.0237225853 -0.0479400662 -0.4910298225
-0.1393497571 0.0015104300 -0.4276879912
-0.0499537286 -0.0574036143 -0.4036557427
-0.0776534655 -0.0294953724 -0.3968182278
-0.1317129653 -0.0149513279 -0.3935321886
-0.0185187153 -0.0428547357 -0.4473447511
-0.0154772135 -0.0471124312 -0.4223434701
-0.1563324576 -0.0070496694 -0.4508093978
-0.1633769965 -0.0787273261 -0.4405107997
-0.1809114436 -0.0425353153 -0.4752721162
-0.0790392048 -0.0018953720 -0.4411157497
-0.1524880541 -0.0234843238 -0.4904454222
-0.0725347663 -0.0226917656 -0.4428629694
-0.1471891691 -0.0805893204 -0.4781943709
-0.0754824531 -0.0364127757 -0.3942008508
-0.1865379028 -0.0486346000 -0.4191468798
-0.0178108408 -0.0212101193 -0.4327871177
-0.1142298555 -0.0158531428 -0.4064067729
-0.0894812838 -0.0095721370 -0.4047007158
-0.1163247156 -0.0816225184 -0.4822573154
-0.0985907472 -0.0201750316 -0.4954462712
-0.0986709571 0.0000826788 -0.4548289378
-0.1038139940 -0.0223591038 -0.4895940293
-0.1722928680 -0.0689769445 -0.4761132900
-0.0283821065 -0.0520390203 -0.4078478800
-0.1669774724 -0.0242831497 -0.4617356136
-0.1844321629 -0.0297444907 -0.4186125212
-0.1590396564 -0.0127684870 -0.4537912144
-0.0272174560 -0.0030875572 -0.4487697109
-0.1389819279 -0.0656618418 -0.4870280870
-0.0880640583 0.0138791849 -0.4499640755
-0.0996996279 -0.0232691502 -0.4965120023
-0.0631219745 -0.0530805289 -0.4104826628
-0.0875111081 -0.0243915962 -0.3968483204
-0.0496450537 -0.0711251886 -0.5111987478
-0.1699546404 -0.0549644719 -0.4278763438
-0.1199108589 -0.0404525888 -0.4878595677
-0.0370102133 -0.0000295394 -0.4653641142
-0.0358134997 -0.0699861000 -0.4594181797
-0.1276533589 -0.0332615070 -0.4421977179
-0.1291842039 -0.0069420705 -0.4067301754
-0.1112454550 -0.1003854377 -0.4706437180
-0.1451849090 -0.0381607807 -0.4860887922
-0.1398729384 -0.0192053131 -0.4646972107
-0.1746613406 -0.0394193178 -0.4459982383
-0.0731955054 -0.0583334503 -0.5107874005
-0.1344655760 -0.0417122932 -0.4502503769
-0.0272454875 -0.0637104262 -0.4708475653
-0.0323233073 -0.0707061621 -0.4465463829
-0.0745906582 -0.0487502259 -0.4966982169
-0.1006590728 -0.0112511649 -0.3953698212
-0.1442230970 0.0171719870 -0.4335784921
-0.0257790726 -0.0291449413 -0.4149451989
-0.0277396419 -0.0584129772 -0.4920176385
-0.0373317999 -0.0873688101 -0.4743523493
-0.0806517674 -0.0223217756 -0.4676664442
-0.1265054123 -0.0339235649 -0.4320440072
-0.0876145401 -0.0223988596 -0.3978106722
-0.0284436778 -0.0697109899 -0.4708592594
-0.0754916931 -0.0042957911 -0.4446744117
-0.0695134719 -0.0559425865 -0.4990410996
-0.1218060849 -0.0133095359 -0.4381986487
-0.0916228062 -0.0224930827 -0.4925844532
-0.0901639249 0.0101362538 -0.4480323068
-0.0301042344 -0.0195281811 -0.4156266430
-0.0974653230 -0.0622943009 -0.4191387814
-0.0890593002 -0.0639433849 -0.5152382922
-0.0855208384 0.0052825370 -0.4421861770
-0.1345975873 -0.0392582008 -0.4544804792
-0.0864877079 -0.0049654043 -0.4553636126
-0.1441988434 -0.0535252361 -0.3851665530
-0.0803586130 -0.0149304147 -0.4490182986
-0.1564566884 -0.0411133559 -0.4882942828
-0.1542697939 -0.0707041841 -0.4099224857
-0.0420124350 -0.0981470850 -0.4813553077
-0.1725946644 -0.0547360893 -0.4068131700
-0.0239280681 -0.0597098794 -0.4489240123
-0.0087225802 -0.0358496277 -0.4584715973
-0.1796965972 -0.0468960054 -0.4586176020
-0.1678156818 -0.0536169819 -0.4186010503
-0.0382983163 -0.0440010428 -0.4045226276
-0.0297875773 -0.0088564378 -0.4276725024
-0.0636085938 -0.0723498973 -0.4071384654
-0.0416765274 0.0093468055 -0.4539952478
-0.0245561784 -0.0013958015 -0.4377114953
-0.0587654830 -0.0209034820 -0.4919486389
-0.0486376326 -0.0922943072 -0.4499095486
-0.0488495981 -0.0683923808 -0.4100334581
-0.0415236868 -0.0311039366 -0.4840918444
-0.1005843360 -0.0193728091 -0.3975776354
-0.1204861205 -0.0195723255 -0.3944620609
-0.0956515118 -0.0462470331 -0.3905558364
-0.0865891485 -0.0241603084 -0.4810379437
-0.0978643122 -0.0652921828 -0.3864859959
-0.0443551195 0.0087457482 -0.4562811532
-0.0950805614 -0.0738945312 -0.4051117222
-0.1379261638 -0.0511259337 -0.3924265308
-0.0554361403 0.0077067793 -0.4518668311
-0.0400893042 -0.0505320204 -0.4126085789
-0.1137517839 -0.0216941875 -0.4758334941
-0.0953500975 -0.1009435242 -0.4761589559
-0.0364440058 -0.0236108110 -0.4733246347
-0.1226291909 -0.0344337943 -0.3873394052
-0.0990665191 -0.0574908996 -0.4950532513
-0.0788558307 -0.0031417848 -0.4261138465
-0.0405320480 -0.0141260636 -0.4123828255
-0.0318090407 -0.0287767565 -0.4785444616
-0.1703379209 -0.0160625358 -0.4053409869
-0.0426488314 -0.0179377975 -0.4120277095
-0.0578051354 -0.0339578537 -0.3993511678
-0.1431939819 -0.0289865689 -0.3848976593
-0.1231108114 -0.0314225245 -0.3898756885
-0.0997874829 -0.0567341684 -0.4076282054
-0.0310113332 -0.0672037367 -0.4948705063
-0.0719177734 -0.0427859384 -0.4984467670
-0.1693955271 -0.0299930286 -0.4896772115
-0.0417053448 -0.0235606368 -0.4705142976
-0.1705623805 -0.0367873549 -0.4042091071
-0.0397049933 -0.0487732287 -0.4118926028
-0.0849986449 -0.0416106265 -0.3904410824
-0.1710987520 -0.0227001214 -0.4309938212
-0.0767903316 -0.1003750335 -0.4773958503
-0.1054521127 -0.0761825989 -0.4907089756
-0.0500884437 -0.0137229609 -0.4802264636
-0.0293935143 -0.0656614071 -0.4484748775
-0.0578928434 -0.0065848912 -0.4101134876
-0.0532139324 -0.0073020681 -0.4802347798
-0.0421047549 -0.0652007120 -0.4480682712
-0.0407953766 -0.0304709873 -0.5042287610
-0.1304796492 -0.0445027073 -0.4318488127
-0.0892093135 -0.0284467430 -0.4674707971
-0.0705116093 -0.0402113274 -0.3934741616
-0.1231104936 -0.0042970673 -0.4485580677
-0.1282662634 -0.0096118091 -0.4392604287
-0.1819259956 -0.0440034096 -0.4526945110
-0.1450882538 -0.0325665262 -0.4467895054
-0.0423879560 -0.0173053889 -0.4928988282
-0.0828015655 -0.0006767305 -0.4393583536
-0.0346676282 0.0045195638 -0.4559587744
-0.1766590760 -0.0351843420 -0.4585099160
-0.1324659020 -0.0570521466 -0.4807402721
-0.1476517236 0.0134144396 -0.4263817601
-0.1347672661 -0.0048067647 -0.4414971533
-0.0576977617 -0.0168008783 -0.4917145549
-0.1591409127 0.0050406454 -0.4399377812
-0.1522058235 -0.0231145666 -0.3911205155
-0.0336391979 -0.0270435881 -0.4175646641
-0.0580435277 -0.0805478941 -0.4326436400
-0.0801257828 -0.0307245026 -0.3969364575
-0.0039670985 -0.0493317815 -0.4477755587
-0.1030861603 -0.1023417189 -0.4671824487
-0.1526368161 -0.0217727106 -0.3900909722
-0.0920906703 -0.0914778466 -0.4532155438
-0.0545405759 -0.0853483638 -0.4318833902
-0.0260577914 -0.0366121928 -0.4146784986
-0.0213189702 -0.0536672239 -0.4668058837
-0.0794475692 -0.0871607341 -0.4339358826
-0.0435322970 -0.0459424213 -0.4052664345
-0.0747297769 -0.0688165434 -0.3995200674
-0.0272082265 -0.0460085220 -0.4731210939
-0.0776647399 -0.0092238686 -0.4255470578
-0.1190454084 -0.0168495101 -0.4459099956
-0.1533288211 -0.0000917357 -0.4097617567
-0.0580342359 -0.0407042876 -0.3989438396
-0.0904723671 -0.0491651169 -0.3890653408
-0.0803603323 -0.0352873139 -0.4579444818
-0.1419783822 -0.0696513294 -0.3980961019
-0.0787906580 -0.0038662758 -0.4337911531
-0.0733113926 -0.0331841849 -0.3990393111
-0.0601848769 -0.0239497409 -0.5029037189
-0.1045165434 -0.0813939571 -0.4421845078
-0.0552825216 0.0003959172 -0.4399232727
-0.0326216427 -0.0311051826 -0.4856599059
-0.0196029811 0.0012036659 -0.4277329540
-0.0367012242 -0.0760592550 -0.4592066383
-0.0687456969 -0.0982537872 -0.4631029056
-0.1169084767 -0.0092624292 -0.4165151011
-0.1475995034 -0.0141297085 -0.3904933333
-0.1106129727 -0.0367150514 -0.3875348438
-0.0427773239 0.0101702738 -0.4435557362
-0.0381094776 -0.0048523698 -0.4225451793
-0.1430253332 -0.0644438207 -0.4864590971
-0.0564262788 -0.0759866484 -0.4223430579
-0.1496841958 -0.0234925869 -0.4903410480
-0.0344557287 -0.0806169143 -0.4713849719
-0.1288004970 -0.0352852092 -0.4517348358
-0.1052654446 -0.0194575786 -0.3973296625
-0.1178413771 -0.0587928641 -0.4078967274
-0.0272222272 -0.0386982087 -0.4676079726
-0.1703205212 -0.0777299948 -0.4718149984
-0.0605510787 -0.0079335739 -0.4296155510
-0.0538770807 -0.0511160156 -0.4026240426
-0.0627990136 -0.0728308406 -0.5036508286
-0.0348746986 -0.0134086308 -0.4702645884
-0.1563570262 -0.0336002555 -0.3917119838
-0.0287604530 -0.0402631631 -0.4079322112
-0.0849389657 -0.0360394461 -0.3919720469
-0.1369386080 -0.0107571127 -0.3973529406
-0.0032066136 -0.0565492817 -0.4521228876
-0.0086288420 -0.0370071677 -0.4462471822
-0.1030986682 -0.0707993880 -0.4274951816
-0.0567163166 -0.0428981526 -0.5004244234
-0.1661135833 -0.0690544020 -0.4073877545
-0.1446880985 -0.0504637600 -0.4835990176
-0.1333819546 -0.0933558764 -0.4419854733
-0.0379988979 -0.0564614469 -0.4223843756
-0.1364579030 -0.0480642496 -0.3837194334
-0.0766897872 -0.0859021672 -0.4318453367
-0.0859013033 -0.0194988874 -0.4005223526
-0.0888702719 -0.0582571722 -0.5073771482
-0.0891303415 -0.0241975552 -0.4627949885
-0.1199429955 -0.1005667764 -0.4660462247
-0.1458951831 -0.0032204201 -0.4063692093
-0.1679748156 -0.0245164223 -0.4002388314
-0.1303804903 -0.0545936971 -0.4360355731
-0.0587602073 -0.0516299319 -0.5035983238
-0.0728389914 -0.0246184764 -0.4514689892
-0.1298943158 -0.0592856931 -0.4073291317
-0.1616327377 -0.0242069455 -0.3902241303
-0.1287933971 -0.0047003491 -0.4223473619
-0.0932792720 -0.0907214689 -0.4028322306
-0.0991219955 0.0037957002 -0.4492906202
-0.0412693342 -0.0917307510 -0.4870132061
-0.0707739693 -0.0598795017 -0.4157405795
-0.0313327933 -0.0765804680 -0.4733841171
-0.0156497279 -0.0283740066 -0.4479532965
-0.1623400013 -0.0786965275 -0.4762908674
-0.1590654618 -0.0233712789 -0.4846050073
-0.1259834355 -0.0842241738 -0.4788970452
-0.1394511478 0.0032376469 -0.4243341594
-0.0939874226 -0.0940229169 -0.4505841718
-0.1576498530 -0.0489054077 -0.3971631907
-0.0306254628 -0.0560508357 -0.4326511446
-0.1549637977 -0.0243932721 -0.3894803944
-0.1081526360 -0.0313711616 -0.3924953197
-0.1721796939 -0.0175093469 -0.4802953294
-0.0947523270 -0.0961862968 -0.4819219128
-0.0734055679 -0.0809210934 -0.4897427863
-0.0269280259 -0.0713895874 -0.4887193775
-0.0923734158 -0.0474949626 -0.3926384961
-0.1745467769 -0.0569188283 -0.4262467117
-0.0929546794 -0.0093924314 -0.4071792247
-0.1325973034 -0.0335469149 -0.4822248243
-0.1493469357 -0.0188074192 -0.4707652124
-0.1561761051 -0.0635043532 -0.4150014818
-0.0881478659 -0.0338309662 -0.4510255632
-0.0278025985 -0.0655474946 -0.4689858182
-0.0310501703 -0.0496322739 -0.4947828581
-0.0806490640 -0.0834420426 -0.4298216521
-0.1398487739 -0.0299787137 -0.4503906111
-0.1566799294 0.0100725752 -0.4264021738
-0.1299029755 0.0032651221 -0.4399806541
-0.0317044734 -0.0725783078 -0.4674461326
-0.1230801892 -0.0340927191 -0.4337439590
-0.1455573738 -0.0009158846 -0.4143745154
-0.0252232961 -0.0596098653 -0.4745700092
-0.1111706783 -0.0064227969 -0.4173274856
-0.1236963617 -0.0269200100 -0.4855956816
-0.0587565298 -0.0191629587 -0.4587616027
-0.0652199160 -0.0060699214 -0.4359262497
-0.1398964565 -0.0550388218 -0.3989939534
-0.1553564216 -0.0255237636 -0.4851959804
-0.1264008953 -0.0340445475 -0.4843191113
-0.1674742111 -0.0142220230 -0.4032070946
-0.0552556851 -0.0259612398 -0.4964293560
-0.1518267869 -0.0434292655 -0.4829400091
-0.1819398876 -0.0395048581 -0.4306271727
-0.0760341426 -0.0162906446 -0.4930996311
-0.1519388260 -0.0330687173 -0.4912056881
-0.0775272801 -0.0744971769 -0.4365585846
-0.0408365290 -0.0742211838 -0.4987645458
-0.1357344070 -0.0096112737 -0.3994736412
-0.0729203734 -0.0217438317 -0.4024469426
-0.0698022359 -0.0669320860 -0.4283054092
-0.1445707629 -0.0449160128 -0.4811470872
-0.1666698524 -0.0863454918 -0.4596424583
-0.0543948853 -0.0400593684 -0.5036330421
-0.0940580112 -0.0562318476 -0.5030058050
-0.1560645422 -0.0217454269 -0.4761287305
-0.0927101441 -0.0816556895 -0.4973288323
-0.0477025257 -0.0418521742 -0.4006974656
-0.1057026165 -0.0755160025 -0.4931365583
-0.0419230436 -0.0079794631 -0.4094579072
-0.0691483303 -0.0945596417 -0.4523949786
-0.1302303685 -0.0390246701 -0.3835690417
-0.0123421493 -0.0413327461 -0.4440276285
-0.0185961321 -0.0547114826 -0.4472739316
-0.1414341248 -0.0289487878 -0.4871298394
-0.0183970460 -0.0436893077 -0.4443487633
-0.1619069123 -0.0404354842 -0.4801122026
-0.0273929131 -0.0388967284 -0.4147449440
-0.1129777334 -0.0736090083 -0.4271657612
-0.0237834321 -0.0553894547 -0.4908718906
-0.0559606153 -0.0191611599 -0.4053576210
-0.1523125170 -0.0733564473 -0.4045892320
-0.0095100537 -0.0304013592 -0.4414399434
-0.0790066074 -0.0487960670 -0.4581975508
-0.0841242953 -0.0671229440 -0.4020433457
-0.1841725232 -0.0381816266 -0.4643544730
-0.1001725645 -0.0759450546 -0.4344480715
-0.0302931142 -0.0696378612 -0.4137630745
-0.0615385884 -0.0953900388 -0.4576753172
-0.1342608407 -0.0039104974 -0.4172669798
-0.1274326555 -0.0378586710 -0.4419194395
-0.0142435337 -0.0446432992 -0.4701117026
-0.0348027177 -0.0607215102 -0.5006444970
-0.0224354274 -0.0137300739 -0.4353470184
-0.1804684048 -0.0407786387 -0.4083808873
-0.0063729540 -0.0558179690 -0.4511502669
-0.0630967843 -0.0743070017 -0.5001549496
-0.0249025847 -0.0450266610 -0.4350651176
-0.1587383001 0.0071532730 -0.4222526479
-0.1424386182 -0.0000242299 -0.4475628076
-0.1683615812 -0.0266794562 -0.4871572069
-0.1592460277 0.0100447591 -0.4306900752
-0.1599974697 -0.0211766158 -0.4802193444
-0.1511243382 0.0024723038 -0.4419807924
-0.0552628736 -0.0486527865 -0.5052078434
-0.1573879997 -0.0781844238 -0.4791405364
-0.0256590241 -0.0757333307 -0.4272462995
-0.1412030147 -0.0907806715 -0.4322833772
-0.0831888316 -0.0572485065 -0.4963148443
-0.1153769937 -0.0317407689 -0.3895571706
-0.1009765019 -0.0005756019 -0.4231739630
-0.0696843944 0.0048204121 -0.4488581309
-0.1719789021 -0.0167488251 -0.4277728185
-0.0296758792 -0.0616206922 -0.4696940409
-0.1349132630 -0.0884279341 -0.3993226102
-0.1281596203 -0.0417036586 -0.3857554420
-0.0834939716 -0.1007375886 -0.4782258029
-0.1327131377 -0.0746626858 -0.3912636146
-0.0868014362 0.0031587899 -0.4372210075
-0.0348566605 -0.0785312187 -0.4611346617
-0.0330047709 -0.0149981343 -0.4608815038
-0.1372629000 -0.0097124098 -0.4407337048
-0.1560842220 -0.0286568868 -0.4831886385
-0.0814226509 -0.0768933534 -0.4389631151
-0.0314633250 -0.0392883075 -0.4635408576
-0.0650699336 -0.0089253619 -0.4718497426
-0.0060306566 -0.0221745613 -0.4366111407
-0.0365348589 -0.0782417464 -0.4331747032
-0.0486721993 -0.0722505996 -0.5078047046
-0.0672676590 -0.0591454165 -0.5113775949
-0.1265476040 -0.0573680021 -0.4921700728
-0.1549317118 -0.0659456209 -0.4194988901
-0.1164628035 -0.0529384271 -0.5050719855
-0.0218085477 -0.0622757218 -0.4448339963
-0.1188343711 -0.0146396572 -0.4401199260
-0.0261979180 -0.0258963757 -0.4152614918
-0.1028197085 -0.0768860019 -0.3918856281
-0.0080853001 -0.0298108939 -0.4686810570
-0.0636651193 -0.0644933410 -0.5035646731
0.0167375062 -0.0774778333 -0.4542796731
-0.0627838844 0.0008492166 -0.4467902682
-0.1668839916 -0.0489460379 -0.4012132257
-0.1360714337 -0.0500169239 -0.3811331432
-0.0563466501 -0.0263484930 -0.4660342017
-0.0398276686 -0.0614647115 -0.4398491381
-0.0730162228 -0.0308940576 -0.4644911233
-0.1703608244 -0.0348228021 -0.4857924875
-0.0250674609 -0.0657244234 -0.4409975885
-0.0276886820 -0.0237957082 -0.4155292505
-0.0703073526 -0.0840479982 -0.4328666760
-0.0705381263 -0.0265120376 -0.3975464486
-0.1229777041 -0.0385159022 -0.3859550390
-0.1424645407 -0.0367804941 -0.4838430495
-0.1108718450 -0.0103390934 -0.4587466042
-0.0918261585 0.0023914358 -0.4283440596
-0.1009058232 -0.0219461638 -0.3972842991
-0.0391960889 -0.0107980268 -0.4168896377
-0.1468226344 -0.0389144231 -0.3860257449
-0.1768479597 -0.0358321470 -0.4719698112
-0.0187039953 -0.0313356891 -0.4309330881
-0.0579913235 -0.0516769827 -0.4025054894
-0.0403099881 -0.0699056875 -0.4553526384
-0.0949793299 -0.0525506678 -0.4949222957
-0.0269426175 -0.0290268205 -0.4690392119
-0.1029609078 -0.0196934448 -0.3973135472
-0.0233721731 -0.0312717573 -0.4315546999
-0.1534056962 -0.0298692510 -0.3890914023
-0.1187188490 -0.0397926642 -0.4341274290
-0.1375549767 -0.0948593157 -0.4707806192
-0.0329774961 -0.0647667962 -0.4603606070
-0.0782056805 -0.0192438402 -0.4024564760
-0.1581813143 -0.0506823211 -0.4020832799
-0.0303929203 -0.0637171684 -0.4724833492
-0.1400918701 -0.0355340242 -0.4820249285
-0.1878360398 -0.0373078543 -0.4204509137
-0.1666879713 -0.0105413732 -0.4578189273
-0.1726629515 -0.0078134515 -0.4425657201
-0.0641451724 -0.0379763532 -0.5017516789
-0.0186024228 -0.0558380240 -0.4440291631
-0.0842996316 -0.0699825460 -0.4296175866
-0.0536016154 0.0015045513 -0.4401820937
-0.0348022607 -0.0614476761 -0.4576152376
-0.0854177074 -0.0412729738 -0.3927427785
-0.1267430626 -0.0373961595 -0.4842987689
-0.0539103235 -0.0161693369 -0.4936516631
-0.1022402266 0.0006006992 -0.4546356296
-0.0303675796 -0.0511752057 -0.4441432627
-0.0579620063 -0.0529550414 -0.4104496821
-0.1124216482 -0.0616411150 -0.4117511799
-0.1391481501 -0.0146608212 -0.4602376712
-0.0933125860 -0.0740738177 -0.4330056912
-0.0901489745 -0.0387411379 -0.3908542192
-0.0312878212 0.0030911996 -0.4346703077
-0.0830265287 -0.0070120219 -0.4176322385
-0.1065022639 -0.0128719254 -0.4710596644
-0.0459352981 -0.0605305799 -0.5052684931
-0.0754430532 -0.0499297354 -0.4632679449
-0.0859997874 0.0001486332 -0.4299687192
-0.1589451249 -0.0766464564 -0.4279977809
-0.1206054972 -0.0719880895 -0.4940457239
-0.0646030408 -0.0202789448 -0.4733870345
-0.0611489332 -0.0579149276 -0.4144754396
-0.0298053772 -0.0216058256 -0.4686297069
-0.0430505347 -0.0767195038 -0.4503771996
-0.0702988701 -0.0202906427 -0.4442310371
-0.0333883553 -0.0188337095 -0.4735850155
-0.0984573111 -0.0960012289 -0.4812872236
-0.0277431350 -0.0042715913 -0.4442269161
-0.0796628830 -0.0020711257 -0.4335104640
-0.0983128699 -0.0294737140 -0.3930455911
-0.1005075622 -0.0770797251 -0.4203149319
-0.1255076643 -0.0167372441 -0.4527072013
-0.1420346474 -0.0380430982 -0.4766459994
-0.0176380252 -0.0578594090 -0.4296415309
-0.0849173063 -0.0353928745 -0.4470589077
-0.1468383035 -0.0658557348 -0.3957726928
-0.1312211043 -0.0242462451 -0.4419083289
-0.1535250396 0.0011590581 -0.4167644978
-0.0419031543 -0.0263920105 -0.4705844339
-0.1050025773 -0.0094047121 -0.4101155274
-0.1278320555 -0.0486132069 -0.4867857435
-0.0950062378 -0.0140482907 -0.4007197229
-0.0958187208 -0.0741587132 -0.4350327104
-0.1314001387 -0.0526717563 -0.4318887809
-0.0331770126 -0.0006053598 -0.4448006918
-0.0200710713 -0.0428068895 -0.4132302233
-0.1215481761 -0.0103930358 -0.4182911266
-0.1173210314 -0.0241292453 -0.4581486777
-0.1346701613 -0.0467605259 -0.3888573583
-0.0929013614 -0.0707335462 -0.4103065772
-0.1077389558 -0.0455225762 -0.3848952621
-0.0216479556 -0.0394335983 -0.4119414003
-0.0773621589 -0.0255006411 -0.4755839342
-0.0482272299 -0.0511725017 -0.4098050356
-0.0400058682 -0.0726776112 -0.4552888048
-0.1401261898 -0.0300145372 -0.4674518255
-0.0576186970 -0.0187383370 -0.4741220210
-0.0650036585 -0.0833538790 -0.4366409201
-0.0432595658 -0.0208131931 -0.4771359132
-0.0514097417 -0.0716035460 -0.5046841900
-0.1627126212 -0.0130773730 -0.4421307844
-0.0168025421 -0.0114375652 -0.4281882120
-0.0222359867 -0.0544415657 -0.4440432309
-0.1541973125 -0.0548365632 -0.4860827325
-0.0293522332 -0.0494245154 -0.4923087694
-0.1056116210 -0.1026423258 -0.4726281134
-0.1406005148 -0.0766004937 -0.4081307502
-0.1000704489 -0.0185252474 -0.4728593629
-0.0726358452 -0.0577039388 -0.4169348055
-0.1349865410 -0.0224318720 -0.4395353074
-0.1263250090 -0.0229224820 -0.4537234824
-0.1466194004 -0.0151810564 -0.4656973648
-0.0318521089 -0.0842061679 -0.4675536375
-0.1094466650 -0.0738413084 -0.4978527731
-0.0411121857 -0.0803131979 -0.4419295511
-0.1630455480 -0.0528537302 -0.3934622803
-0.0589278323 -0.0480891441 -0.5083928781
-0.1205247047 -0.0340677874 -0.3881325011
-0.1263229847 -0.0476850607 -0.3912808597
-0.0708863261 -0.0376614169 -0.5038241184
-0.1570397015 -0.0727814730 -0.4099378422
-0.1032163038 -0.0287522574 -0.4950868611
-0.1330096169 -0.0524663813 -0.3971855126
-0.1751484337 -0.0769917320 -0.4587467226
-0.0587896145 -0.0047315693 -0.4704986638
-0.1241009679 -0.0107555058 -0.4510978220
