0.3750183717 -0.0427975119 -0.1911389144
0.3582854746 0.0467141200 -0.2432950784
0.3703018490 -0.0391636031 -0.1949930404
0.3579257299 -0.0328906105 -0.2125661585
0.3579089397 0.0045286175 -0.2607781963
0.3661831660 0.0469285011 -0.2636335662
0.3399610817 -0.0108033600 -0.2208751440
0.3456905967 0.0137083411 -0.2285750756
0.3677843758 0.0171588626 -0.2619293916
0.3729734522 0.0070731806 -0.2681826847
0.3635629668 0.0117190439 -0.2620767021
0.3397477132 -0.0103765027 -0.2180934106
0.3408669995 -0.0183894562 -0.2219819965
0.3460184387 0.0139500862 -0.2256924742
0.3577016246 -0.0329225643 -0.2055837162
0.3522505894 -0.0056574250 -0.2505954964
0.3431484158 -0.0202634158 -0.2282918765
0.3426766341 -0.0032337065 -0.2276451580
0.3601820000 0.0297919470 -0.2568296448
0.3654057429 -0.0401507494 -0.1833104912
0.3281240833 -0.0158835355 -0.1854233243
0.3629971938 0.0246340125 -0.2608877920
0.3410342862 -0.0207199519 -0.2256858506
0.3359741836 -0.0258563289 -0.1729499084
0.3831434228 0.0418305198 -0.2752831565
0.3461101108 0.0242718592 -0.2182642285
0.3497095410 0.0061291081 -0.2325452276
0.3837528881 0.0396840031 -0.2748953439
0.3574500834 0.0420490597 -0.2435569512
0.3458651414 0.0243753602 -0.2210769888
0.3424529880 -0.0038971960 -0.2213011384
0.3526201060 -0.0351071168 -0.1607697163
0.3510342227 -0.0077858360 -0.2525381603
0.3620706776 -0.0412125405 -0.1711590956
0.3483995911 0.0122399722 -0.2381988531
0.3827336184 0.0189411352 -0.2629325827
0.3454068003 -0.0252066687 -0.2132750040
0.3483847976 0.0019906510 -0.2445066520
0.3577413509 -0.0338003232 -0.2096439206
0.3355956545 -0.0084569231 -0.2034414053
0.3613084146 0.0466144801 -0.2561039497
0.3679228416 0.0366455576 -0.2632546834
0.3484604061 -0.0275424588 -0.2133059651
0.3754625667 0.0117482566 -0.2638683255
0.3558610197 0.0121963130 -0.2526164769
0.3574636285 0.0445018092 -0.2403791944
0.3597116562 0.0447657527 -0.2467817164
0.3681571984 0.0323269655 -0.2630442250
0.3446477506 -0.0104961364 -0.2357290628
0.3524345216 0.0265799607 -0.2386212866
0.3576719169 0.0366735904 -0.2547217800
0.3539984610 -0.0000784505 -0.2581688041
0.3504509731 0.0460859645 -0.2256397153
0.3808660387 0.0390834545 -0.2740864666
0.3430951752 -0.0227361455 -0.2177415660
0.3532876699 0.0066789135 -0.2506406291
0.3629577324 0.0496190496 -0.2558311458
0.3681093877 -0.0382447401 -0.2341390577
0.3703010678 -0.0376610234 -0.2267388850
0.3513282703 0.0288598670 -0.2361795837
0.3480395534 0.0265829242 -0.2304627873
0.3607977362 0.0296512229 -0.2585695396
0.3624200370 0.0469404813 -0.2536537289
0.3651826912 0.0246650873 -0.2615217383
0.3454006128 0.0244982314 -0.2114352339
0.3433564952 -0.0183205646 -0.2307344186
0.3428695672 -0.0083287248 -0.2334344006
0.3509631530 0.0139422473 -0.2404729594
0.3532132384 0.0342738383 -0.2430167120
0.3482041971 -0.0080853245 -0.2429328716
0.3436665237 0.0127526661 -0.2196903974
0.3510543188 0.0117811910 -0.2459708500
0.3530617410 0.0346831673 -0.2411561532
0.3552984714 0.0394450726 -0.2406169874
0.3369765282 -0.0241309777 -0.1889088601
0.3662346728 0.0394280864 -0.2631321935
0.3568070118 0.0497171365 -0.2420462838
0.3357507505 -0.0180313800 -0.2006873157
0.3434310686 -0.0110668829 -0.2356145294
0.3589629391 0.0492961735 -0.2455969202
0.3634344013 0.0450471701 -0.2615394304
0.3480830066 -0.0028976643 -0.2407435198
0.3654300325 -0.0369469001 -0.1973464629
0.3481721194 0.0113305566 -0.2348306448
0.3630577867 0.0445647212 -0.2578679115
0.3470245110 0.0211551038 -0.2167787511
0.3585860735 0.0486449640 -0.2433018833
0.3645229913 -0.0364331522 -0.1998235037
0.3669906855 0.0473051853 -0.2612887025
0.3728283661 0.0200504755 -0.2619946933
0.3533243573 -0.0317163554 -0.1931733934
0.3515379763 -0.0307948320 -0.2282298383
0.3323212381 -0.0107637527 -0.1924991402
0.3659205053 0.0443953974 -0.2630370699
0.3512333986 -0.0006397514 -0.2504595656
0.3426505450 -0.0210937710 -0.2228275900
0.3471495341 0.0020996623 -0.2332876089
0.3378810702 -0.0206573847 -0.2031495992
0.3659512689 0.0452128804 -0.2659748497
0.3605987952 0.0170330073 -0.2606289921
0.3434039767 -0.0129474032 -0.2408959205
0.3518544814 0.0507208998 -0.2267704975
0.3447499590 -0.0291136809 -0.1799549819
0.3883417350 0.0442338466 -0.2764304726
0.3762496502 0.0415383834 -0.2730815677
0.3510353064 0.0218039689 -0.2383437793
0.3562702193 0.0122963902 -0.2552989432
0.3520371398 0.0238922289 -0.2379800615
0.3543792256 -0.0049977343 -0.2547224774
0.3783206933 0.0142642439 -0.2630943384
0.3422071901 -0.0102066341 -0.2260914914
0.3372470200 -0.0110216180 -0.2159001106
0.3501155365 0.0417771642 -0.2206972474
0.3453623354 0.0164611936 -0.2233764976
0.3510735109 0.0166676629 -0.2453758381
0.3633060956 0.0274748269 -0.2608348828
0.3542234376 0.0440512786 -0.2381806895
0.3409106369 -0.0152762734 -0.2342742985
0.3517563685 0.0488253904 -0.2270108897
0.3561254052 0.0213742579 -0.2541797923
0.3526448746 -0.0301139451 -0.2103039221
0.3545943146 0.0222459795 -0.2452947727
0.3414663619 -0.0112197030 -0.2278451661
0.3431313250 -0.0105238166 -0.2311802948
0.3560166806 0.0061050502 -0.2583368570
0.3515557245 0.0365954100 -0.2361175853
0.3932102148 0.0395329632 -0.2778712815
0.3754590974 0.0414570627 -0.2717942195
0.3548677128 0.0465637535 -0.2328907950
0.3507340634 0.0366391579 -0.2306417021
0.3546453310 -0.0340950004 -0.1737884857
0.3302739794 -0.0106644302 -0.1907403653
0.3447914307 -0.0280430533 -0.1930585561
0.3510500005 0.0368134341 -0.2288896543
0.3677272567 0.0217813831 -0.2614749871
0.3438137407 -0.0224228580 -0.2255388520
0.3344347621 -0.0106232616 -0.1968743844
0.3400617796 -0.0236914871 -0.2007480588
0.3631645530 -0.0334427543 -0.2329934959
0.3544908278 -0.0337678497 -0.1769339085
0.3527953929 -0.0055214442 -0.2531895337
0.3474744809 0.0045539029 -0.2334730457
0.3599590503 -0.0339598991 -0.2108578280
0.3491027653 0.0366976559 -0.2259702086
0.3802585964 0.0144577299 -0.2629414465
0.3751721990 -0.0423453968 -0.1976953669
0.3500951881 0.0093842888 -0.2432874785
0.3477019437 0.0144506485 -0.2283332946
0.3460025281 -0.0080020358 -0.2380886917
0.3499875516 0.0435504168 -0.2204848155
0.3626341067 0.0371346940 -0.2584850434
0.3443884816 -0.0003870032 -0.2255754195
0.3301322275 -0.0211990320 -0.1809699801
0.3654376161 -0.0412474730 -0.1645942108
0.3856960470 0.0388125199 -0.2751030803
0.3285225137 -0.0157665927 -0.1878115506
0.3435944751 -0.0289720853 -0.1755785241
0.3420792936 -0.0210569574 -0.2179092571
0.3334400678 -0.0203501749 -0.1930711929
0.3431813121 -0.0247671008 -0.2133291413
0.3473214812 0.0047221573 -0.2311838731
0.3423160727 -0.0051346654 -0.2222919953
0.3884346152 0.0442940817 -0.2837560843
0.3503768896 -0.0300921313 -0.2232977283
0.3459950384 -0.0299590879 -0.1784701951
0.3598786920 -0.0343023435 -0.1944623687
0.3730068303 -0.0413427217 -0.1942794457
0.3626231996 -0.0399031441 -0.1657126706
0.3943307102 0.0397485979 -0.2796596587
0.3452439106 -0.0182672027 -0.2354777080
0.3503005389 0.0093649444 -0.2406360556
0.3700376399 0.0296022258 -0.2631762426
0.3586147287 0.0393454039 -0.2512782143
0.3928517355 0.0420113589 -0.2787528937
0.3701262118 0.0469051806 -0.2690305245
0.3600961389 -0.0329188174 -0.2279451266
0.3821540419 0.0100106009 -0.2663184046
0.3852364214 0.0095988242 -0.2671451456
0.3652018726 -0.0406404380 -0.1729859536
0.3707471508 0.0464249612 -0.2707926437
0.3578695864 0.0071457182 -0.2608346568
0.3549644152 0.0362470224 -0.2384080589
0.3535809397 0.0416319319 -0.2380318071
0.3522546460 0.0168427647 -0.2392432733
0.3433484025 -0.0182251904 -0.2343506654
0.3872020785 0.0471953530 -0.2757690280
0.3705573541 0.0349579066 -0.2657976264
0.3324808501 -0.0182511807 -0.1925447082
0.3529206420 0.0414885143 -0.2363481798
0.3431514969 -0.0293136270 -0.1721594721
0.3556807389 0.0066422413 -0.2534564351
0.3534913044 0.0357639288 -0.2431700660
0.3651280545 -0.0411628815 -0.1939029481
0.3526340127 0.0294049451 -0.2332556993
0.3474428992 0.0213884987 -0.2236121075
0.3546430121 0.0369563464 -0.2368545123
0.3449834589 -0.0105102027 -0.2383540073
0.3975457136 0.0466884151 -0.2783474221
0.3535278010 0.0266737669 -0.2459567971
0.3607466201 0.0342127325 -0.2555459976
0.3546175612 0.0298309628 -0.2393748065
0.3597105633 0.0446168879 -0.2439725395
0.3659813027 -0.0428982124 -0.1578105152
0.3531683999 -0.0296079421 -0.2273987682
0.3563091989 0.0165756833 -0.2559857075
0.3474116734 0.0342516277 -0.2180348926
0.3601430081 -0.0313396691 -0.2323022028
0.3560107548 0.0467381768 -0.2353792314
0.3573823837 -0.0337307715 -0.1923146374
0.3397683530 -0.0126803916 -0.2170050499
0.3348930779 -0.0209049281 -0.1930135477
0.3362394984 -0.0238263176 -0.1881677379
0.3473272831 0.0315726579 -0.2133902287
0.3495623944 0.0049536340 -0.2373903989
0.3527554642 0.0117268919 -0.2447056332
0.3474694240 0.0299137830 -0.2256886373
0.3497598731 0.0189519071 -0.2304861711
0.3440031068 -0.0245724658 -0.2262915146
0.3706671385 -0.0382273763 -0.2270084969
0.3501663709 0.0099393328 -0.2381317666
0.3549419052 0.0346766956 -0.2392180272
0.3648274311 -0.0374509938 -0.2276399438
0.3600134595 0.0293654157 -0.2522435585
0.3502276107 0.0343174510 -0.2282073939
0.3273181663 -0.0156486352 -0.1832156565
0.3513623459 -0.0327954329 -0.1750197603
0.3537734449 -0.0337146409 -0.1767787486
0.3502047559 0.0343182010 -0.2307866623
0.3556108653 0.0351154651 -0.2412212756
0.3407545601 -0.0200057992 -0.2207994550
0.3597665499 -0.0366147730 -0.1731828888
0.3512074206 0.0292884604 -0.2385809051
0.3559146796 0.0441501081 -0.2383277678
0.3656610975 0.0066824963 -0.2649776427
0.3615190569 -0.0363583943 -0.1836270434
0.3474676527 -0.0259669970 -0.2127763281
0.3555536726 0.0440530031 -0.2357500811
0.3451492184 -0.0075781204 -0.2330174714
0.3578903889 0.0266360061 -0.2482778685
0.3461879998 0.0166340478 -0.2255908907
0.3459599699 -0.0132025332 -0.2420468227
0.3441407656 0.0237735236 -0.2212926486
0.3608017827 -0.0377231377 -0.1679836826
0.3290131986 -0.0087410584 -0.1922149137
0.3521217965 0.0096694622 -0.2426763422
0.3563087689 0.0265855936 -0.2483987849
0.3595960703 -0.0394013547 -0.1552409553
0.3553906984 0.0263255871 -0.2460608930
0.3409670916 -0.0127992380 -0.2226082466
0.3368886411 -0.0180161316 -0.2119342387
0.3398366711 -0.0208983055 -0.2139828505
0.3888861246 0.0367472916 -0.2751653074
0.3604680855 -0.0393248608 -0.1574944917
0.3659272812 0.0058951225 -0.2672484757
0.3998694191 0.0501275935 -0.2792516043
0.3621597252 0.0394059539 -0.2530547671
0.3538237736 0.0493084779 -0.2331100181
0.3856000116 0.0491951712 -0.2748843034
0.3914326294 0.0423517716 -0.2769205030
0.3498231471 0.0248069610 -0.2329166398
0.3694001734 -0.0394027196 -0.1910212040
0.3586281947 -0.0334053212 -0.1979640290
0.3461738263 0.0073156014 -0.2307282177
0.3524801731 0.0419118532 -0.2306859116
0.3643145844 -0.0427202872 -0.1722988630
0.3551646139 0.0325607431 -0.2418486062
0.3500975252 0.0095329439 -0.2340156908
0.3354621187 -0.0233049781 -0.1851338574
0.3488988954 0.0412616008 -0.2186002634
0.3511511981 0.0251809657 -0.2423116118
0.3399942815 -0.0206373790 -0.2159552872
0.3535364262 0.0490460112 -0.2284246088
0.3493761122 0.0099333497 -0.2368703634
0.3538675271 0.0490691376 -0.2308312908
0.3704495399 0.0143213021 -0.2628134813
0.3472534941 0.0097654616 -0.2281925596
0.3387070660 -0.0134246935 -0.2202962836
0.3747770419 0.0240427676 -0.2632004876
0.3410875364 -0.0158492499 -0.2283291739
0.3481689566 0.0245105170 -0.2280801808
0.3368870748 -0.0182522476 -0.1975771349
0.3439961320 -0.0157846167 -0.2387740440
0.3499329246 -0.0290974518 -0.1999746188
0.3610872675 0.0393966675 -0.2588327725
0.3488461524 0.0040381001 -0.2430173308
0.3501787253 0.0042234281 -0.2436950489
0.3680134517 0.0493501755 -0.2659006856
0.3614353147 0.0404040600 -0.2605751906
0.3432360987 -0.0263333111 -0.1977329214
0.3345251028 -0.0236051829 -0.1824573705
0.3564443819 0.0214186318 -0.2563288232
0.3473619166 -0.0101369261 -0.2431147385
0.3522448664 0.0273146363 -0.2314734931
0.3925104999 0.0375285324 -0.2830447585
0.3500040133 -0.0279338167 -0.2128263490
0.3459893190 -0.0014958218 -0.2392135460
0.3408568203 -0.0285160430 -0.1715313941
0.3496454452 0.0023697239 -0.2416694360
0.3554062862 -0.0329703266 -0.1902070830
0.3689537951 0.0493232367 -0.2677765553
0.3556214131 0.0317719733 -0.2479801729
0.3733715301 0.0350305721 -0.2683206375
0.3573163355 0.0023834396 -0.2593799260
0.3354177292 -0.0186585922 -0.1982019683
0.3512159749 0.0018738152 -0.2529790665
0.3481755021 0.0321399136 -0.2262026245
0.3503580646 -0.0275476345 -0.2147437678
0.3483138231 0.0245097706 -0.2333006404
0.3507545922 0.0421254026 -0.2231322820
0.3949397576 0.0415429709 -0.2805137200
0.3426165404 -0.0204842524 -0.2254877575
0.3481389802 0.0318390919 -0.2236111200
0.3748595255 0.0189132103 -0.2618540799
0.3644345701 0.0044270293 -0.2665505111
0.3953187210 0.0426642722 -0.2793321037
0.3377188496 -0.0154047560 -0.2132617520
0.3523325490 0.0149958314 -0.2445637125
0.3679687735 0.0425401517 -0.2640622640
0.3755031335 0.0095298657 -0.2658896118
0.3478971035 -0.0054374510 -0.2405504650
0.3478539639 0.0264914044 -0.2281735141
0.3580202206 0.0299377408 -0.2514308662
0.3655117259 0.0268641348 -0.2617457045
0.3491796854 0.0341456439 -0.2309772484
0.3427906558 -0.0079418125 -0.2309986241
0.3573534574 0.0465685642 -0.2358083282
0.3754860110 0.0372761654 -0.2710728138
0.3703940734 0.0368466466 -0.2656817000
0.3503740721 0.0292626735 -0.2310346915
0.3511964515 0.0018484102 -0.2483021260
0.3552429583 -0.0307622880 -0.2074459115
0.3328907645 -0.0232686852 -0.1810856636
0.3512162692 0.0245901910 -0.2379505606
0.3343549669 -0.0086287167 -0.2023656070
0.3551643765 0.0026590246 -0.2550322282
0.3810336830 0.0295228254 -0.2682111093
0.3458150728 0.0315073888 -0.2130312486
0.3656682071 -0.0375904422 -0.2023187254
0.3506228899 -0.0003206318 -0.2480413211
0.3508915527 0.0222859453 -0.2435505182
0.3938362564 0.0445911645 -0.2814024561
0.3459342117 0.0317553701 -0.2117930490
0.3545897540 0.0120324335 -0.2507007006
0.3598158669 0.0350842622 -0.2503540297
0.3558754769 0.0140225633 -0.2556247682
0.3515120553 0.0434366037 -0.2315195147
0.3689866770 -0.0410798252 -0.1855042097
0.3457630323 0.0039693240 -0.2261358910
0.3581059351 0.0093499776 -0.2615821057
0.3462572701 -0.0252812689 -0.2202780801
0.3851653447 0.0427558506 -0.2846199431
0.3576705231 0.0001376860 -0.2623333140
0.3360963762 -0.0035901667 -0.2003310968
0.3523758760 -0.0292798161 -0.2151316512
0.3568856453 0.0292439541 -0.2446197028
0.3440278365 -0.0199742220 -0.2364175830
0.3604082256 0.0273755271 -0.2582067091
0.3481610969 0.0311817902 -0.2334165349
0.3577664657 0.0094477759 -0.2582242917
0.3976426429 0.0366786500 -0.2808230378
0.3529793833 0.0242462624 -0.2432295462
0.3548553135 0.0314441523 -0.2456066612
0.3480202579 0.0022926932 -0.2386067957
0.3534499971 0.0096258860 -0.2486068835
0.3606711596 0.0142963267 -0.2607783850
0.3582689435 -0.0307856015 -0.2302900944
0.3570787013 0.0019258751 -0.2614403069
0.3524883074 0.0373087770 -0.2334380693
0.3728597824 0.0342827179 -0.2655630860
0.3495330353 0.0024042667 -0.2388190515
0.3438793719 0.0252907872 -0.2090886086
0.3587230517 0.0315409418 -0.2593345629
0.3336184216 -0.0109573247 -0.2008901513
0.3600518116 -0.0366694144 -0.1854302517
0.3289308166 -0.0130325855 -0.1900869380
0.3493518686 -0.0301637264 -0.1922428856
0.3599172128 0.0474046979 -0.2458219452
0.3528076743 0.0095016232 -0.2461027695
0.3483662243 0.0371489411 -0.2241781194
0.3437796989 -0.0151620329 -0.2356488747
0.3913159668 0.0368494689 -0.2845337093
0.3481310613 0.0188612841 -0.2232616922
0.3596897625 0.0325681865 -0.2514367335
0.3912537101 0.0372738492 -0.2839883242
0.3496727447 0.0271295061 -0.2335456377
0.3631129020 0.0491929766 -0.2583651650
0.3430903723 -0.0150307793 -0.2410283584
0.3628671828 -0.0378172645 -0.1831068394
0.3537656260 0.0389372446 -0.2406340126
0.3431312618 -0.0259568155 -0.2002460489
0.3658034379 -0.0382121746 -0.2049488644
0.3800991717 0.0337022445 -0.2690113005
0.3489152341 -0.0274800201 -0.2196595412
0.3510840807 0.0342913688 -0.2328495985
0.3760359231 0.0469235718 -0.2729110630
0.3652526286 0.0393801569 -0.2608976628
0.3377855718 -0.0263592135 -0.1786594838
0.3441640437 0.0278207771 -0.2087495029
0.3551042852 0.0397932521 -0.2382086148
0.3605929060 0.0122109740 -0.2609511258
0.3442481011 -0.0038884330 -0.2327242270
0.3475857050 0.0147024316 -0.2308707944
0.3483429939 0.0192478795 -0.2259262266
0.3514450769 0.0446303850 -0.2289378292
0.3681903085 -0.0409079117 -0.1771581908
0.3575864316 0.0442892606 -0.2427852018
0.3714489617 -0.0407140390 -0.1888159115
0.3552281912 0.0441384959 -0.2414779428
0.3608455251 0.0471335702 -0.2486784606
0.3673844731 0.0296433324 -0.2623723375
0.3560712785 -0.0009347865 -0.2627246529
0.3555285534 -0.0361054859 -0.1603451207
0.3452895284 0.0229104739 -0.2115200013
0.3438868346 0.0150654182 -0.2171132033
0.3853339109 0.0122066063 -0.2650574642
0.3357955932 -0.0230503890 -0.1923186020
0.3668464646 -0.0340114511 -0.2344895931
0.3781550422 0.0345005986 -0.2682847851
0.3555969544 -0.0006920744 -0.2610225372
0.3396830873 -0.0148313677 -0.2176705764
0.3396448679 -0.0242094691 -0.1983857749
0.3501811645 0.0199259230 -0.2366144036
0.3404155821 -0.0080502650 -0.2217415795
0.3533796843 -0.0276004365 -0.2307301388
0.3542448282 0.0335870758 -0.2470491081
0.3427390920 -0.0035925635 -0.2254496468
0.3397359407 -0.0081224100 -0.2190673094
0.3807742927 0.0271183651 -0.2655411552
0.3475566767 0.0044524691 -0.2363714004
0.3569588197 0.0148390945 -0.2522759682
0.3481333202 0.0170607610 -0.2280380262
0.3733842207 0.0396851015 -0.2710761510
0.3461197029 0.0369075144 -0.2154224041
0.3360258615 -0.0154872892 -0.2157045068
0.3457911190 -0.0222340049 -0.2331862957
0.3574722510 0.0392476709 -0.2439138105
0.3540338955 0.0416132397 -0.2412520485
0.3573465822 -0.0356859777 -0.1708695105
0.3529669400 0.0295115535 -0.2354105473
0.3481913570 0.0341301031 -0.2209233172
0.3410239674 -0.0127442712 -0.2253643722
0.3537503972 0.0368968801 -0.2383583841
0.3483677249 0.0319861481 -0.2299074422
0.3445032019 0.0189347249 -0.2143889022
0.3492049078 0.0192690150 -0.2283395380
0.3522242913 0.0042978477 -0.2414738947
0.3628380834 0.0144416911 -0.2613950116
0.3521073759 -0.0076295971 -0.2505884767
0.3454408010 -0.0062510327 -0.2353976963
0.3505531600 -0.0284116277 -0.2230551462
0.3530598460 0.0465733411 -0.2282020887
0.3578593349 0.0268398622 -0.2531552321
0.3665771186 0.0042780093 -0.2676100433
0.3472517978 0.0243579835 -0.2211542804
0.3609401571 -0.0382937940 -0.1651690874
0.3451867039 0.0169456967 -0.2210007023
0.3595923334 0.0420093033 -0.2488601580
0.3487918273 0.0022511599 -0.2405431832
0.3510015560 0.0168133460 -0.2431135429
0.3717561414 -0.0400255323 -0.2050462444
0.3500788351 0.0071779971 -0.2381920230
0.3614165278 0.0473779839 -0.2582780009
0.3257699954 -0.0143144264 -0.1797690539
0.3586236406 0.0352859651 -0.2567815940
0.3667708458 -0.0430215110 -0.1659652494
0.3778443187 0.0341987275 -0.2703459114
0.3448893538 -0.0027799228 -0.2311107594
0.3669318489 -0.0427812175 -0.1664839946
0.3627721200 -0.0386235375 -0.1758525914
0.3587202212 0.0243538115 -0.2581765485
0.3387430866 -0.0179939236 -0.2183890894
0.3432676115 -0.0226173038 -0.2230702495
0.3530136886 -0.0331167667 -0.1778968204
0.3887722784 0.0395631942 -0.2758565495
0.3389473220 -0.0274891159 -0.1726264393
0.3629468695 -0.0355966354 -0.2031565681
0.3496232698 -0.0250336817 -0.2322981694
0.3331150568 -0.0200242616 -0.1973843480
0.3465162318 0.0317259437 -0.2187315817
0.3514055549 0.0504366557 -0.2249991010
0.3378704517 -0.0136362679 -0.2042937147
0.3495822630 0.0122042268 -0.2264633433
0.3463770568 0.0316975662 -0.2158720028
0.3682797417 -0.0408323112 -0.2002226708
0.3581001194 0.0143935499 -0.2582274707
0.3544636453 0.0117677551 -0.2475667399
0.3589199015 0.0213359065 -0.2579695961
0.3371987890 -0.0237060384 -0.1905978282
0.3572702469 0.0150904634 -0.2555398785
0.3576122467 0.0491780138 -0.2413958590
0.3584333140 0.0218171143 -0.2560698732
0.3366796374 -0.0163572282 -0.2131725103
0.3886868992 0.0468708195 -0.2833609450
0.3363720477 -0.0157802527 -0.2176867425
0.3425768627 -0.0239030628 -0.2103828322
0.3561121444 0.0013148659 -0.2609307526
0.3475570291 0.0103022242 -0.2225621320
0.3709394407 0.0200944973 -0.2620323873
0.3553710794 0.0010327885 -0.2639240920
0.3449075478 -0.0004074866 -0.2311593330
0.3582266010 -0.0331013741 -0.2199027626
0.3712827861 0.0193640674 -0.2618847787
0.3631485355 0.0321405215 -0.2605328787
0.3405823423 -0.0104086693 -0.2228677782
0.3350779744 -0.0030078415 -0.1919183264
0.3293963029 -0.0112666006 -0.1878383210
0.3711045836 0.0166510321 -0.2623552106
0.3693642857 -0.0365583027 -0.2292281951
0.3547797699 -0.0347410683 -0.1691329093
0.3558370964 0.0345782370 -0.2464500188
0.3607909804 -0.0352346334 -0.1931451325
0.3558967995 -0.0315538523 -0.2038758397
0.3338628411 -0.0221727611 -0.1879009977
0.3729948586 0.0295853121 -0.2641982401
0.3580874061 -0.0331326694 -0.2156062806
0.3548182526 -0.0288875731 -0.2310375881
0.3538273960 0.0142521071 -0.2507794325
0.3472687127 -0.0257526946 -0.2208177681
0.3711777419 -0.0428511128 -0.1871899750
0.3727859826 0.0264988883 -0.2632941906
0.3361335921 -0.0133039937 -0.2158099633
0.3933720972 0.0444904716 -0.2777102249
0.3470196747 0.0215617768 -0.2217197273
0.3509223461 0.0183546152 -0.2471213341
0.3551353536 0.0072519024 -0.2512474972
0.3437831582 -0.0232426678 -0.2199974823
0.3377333976 -0.0035763665 -0.2002993242
0.3638989550 -0.0426463536 -0.1649226124
0.3455119888 -0.0034469486 -0.2396235636
0.3513318300 0.0310244542 -0.2389725745
0.3575075522 -0.0365270158 -0.1644739568
0.3363132179 -0.0171158705 -0.2024894059
0.3671381652 -0.0378322498 -0.1955563870
0.3537233593 0.0439373997 -0.2408623388
0.3610019088 0.0214681452 -0.2600477139
0.3681422570 0.0516842271 -0.2618849813
0.3463118248 -0.0276585497 -0.2205844470
0.3253858230 -0.0156701244 -0.1791064945
0.3598285882 0.0224409128 -0.2583705025
0.3528458678 0.0117930040 -0.2483066615
0.3522194275 -0.0005078652 -0.2491484150
0.3923034433 0.0438446864 -0.2830084318
0.3478003348 0.0171229936 -0.2356840683
0.3727495245 0.0114664479 -0.2642067348
0.3528801754 0.0292937646 -0.2379947131
0.3461357913 0.0189992440 -0.2227322352
0.3649896233 0.0368171973 -0.2611628908
0.3522141674 -0.0028371121 -0.2506099040
0.3457786174 0.0020859045 -0.2304450616
0.3434489255 -0.0028714020 -0.2301828663
0.3577826244 0.0394075447 -0.2462538351
0.3855280290 0.0140264038 -0.2632937623
0.3423228133 -0.0132660785 -0.2305837274
0.3452981815 0.0220572594 -0.2183636432
0.3446658169 0.0217882549 -0.2153137605
0.3631804462 0.0196777550 -0.2608134415
0.3427474554 -0.0129474768 -0.2327094842
0.3403908540 -0.0263942415 -0.1879816572
0.3657022776 0.0465594668 -0.2609469912
0.3461845420 0.0088685587 -0.2319659038
0.3577236898 0.0244066735 -0.2531701189
0.3527477187 -0.0071844463 -0.2548128948
0.3646104250 0.0466886585 -0.2585809174
0.3481801599 -0.0036731151 -0.2435882166
0.3658586085 0.0418121226 -0.2627017199
0.3551648477 -0.0356340632 -0.1622767999
0.3533537568 0.0519236263 -0.2281449232
0.3569037979 0.0420902143 -0.2391636381
0.3423936523 -0.0292561809 -0.1701257029
0.3560464722 -0.0311345543 -0.2124043916
0.3600491293 0.0241845423 -0.2587116074
0.3605813928 0.0419518404 -0.2504034387
0.3634248616 0.0476985573 -0.2610606882
0.3504743204 0.0069290797 -0.2455304712
0.3573486133 0.0372416390 -0.2458587104
0.3826921347 0.0317162316 -0.2706755998
0.3501503368 -0.0081858042 -0.2501974702
0.3733707454 0.0372177821 -0.2697814613
0.3447499052 -0.0285445947 -0.1827608400
0.3807142757 0.0322033446 -0.2692647528
0.3672505780 0.0269310859 -0.2618705347
0.3462079167 0.0062323529 -0.2355047315
0.3679457009 0.0415368490 -0.2680320044
0.3727019131 0.0518481079 -0.2685006261
0.3669846654 0.0151802311 -0.2618106604
0.3537274156 0.0469417131 -0.2307390186
0.3362130863 -0.0225221023 -0.1959345586
0.3498034199 -0.0279983516 -0.2259908759
0.3973855838 0.0473433992 -0.2831577978
0.3362430533 -0.0135676470 -0.2174722652
0.3932495713 0.0501174591 -0.2810511887
0.3471959185 0.0320341013 -0.2160261274
0.3830534789 0.0162763771 -0.2628119567
0.3576640239 0.0443527612 -0.2457392772
0.3368643443 -0.0112140484 -0.2046076670
0.3569521606 0.0448953137 -0.2387003601
0.3434575091 -0.0175220852 -0.2379121947
0.3637080560 -0.0403698276 -0.1740542987
0.3911307258 0.0470546993 -0.2759804619
0.3478167388 -0.0262343749 -0.2155702328
0.3953488690 0.0493917896 -0.2763012825
0.3546646686 -0.0005320884 -0.2557021262
0.3832752905 0.0219424728 -0.2637681092
0.3420831549 -0.0230707950 -0.2125566437
0.3665560782 0.0487602483 -0.2650624216
0.3663972866 0.0495478733 -0.2631810790
0.3725204807 0.0447224356 -0.2715505040
0.3423153995 -0.0227031549 -0.2155983090
0.3537186751 0.0466008948 -0.2334578902
0.3673512068 0.0143582603 -0.2626836971
0.3533038243 -0.0299960856 -0.2153537159
0.3677601205 0.0098603313 -0.2641410510
0.3459384235 0.0087391201 -0.2346003064
0.3684705674 0.0239939789 -0.2617961323
0.3652649663 0.0292055918 -0.2615601458
0.3530291659 0.0319312222 -0.2355429931
0.3683406837 -0.0362191564 -0.2331919326
0.3481959848 0.0394641522 -0.2241486827
0.3514228536 0.0441715871 -0.2256037303
0.3423945000 -0.0271028864 -0.1873342163
0.3500961348 -0.0055452558 -0.2483828661
0.3696085663 -0.0401564524 -0.2035819858
0.3422969912 -0.0278177099 -0.1845724832
0.3420110279 -0.0147438771 -0.2254252742
0.3585432021 0.0296873429 -0.2535330120
0.3526383135 0.0072284503 -0.2482916932
0.3708567949 0.0272105162 -0.2629958201
0.3422923011 -0.0280905006 -0.1800387224
0.3481120046 0.0395624608 -0.2218529435
0.3528753320 0.0460412328 -0.2261641026
0.3661203625 -0.0425911201 -0.1821229423
0.3678154790 0.0392729299 -0.2634776543
0.3503704391 0.0441731406 -0.2234491727
0.3567809463 0.0504826717 -0.2406807393
0.3376800859 -0.0180290537 -0.2157592124
0.3560943816 0.0493162633 -0.2379582280
0.3657545149 0.0342023820 -0.2619034946
0.3399077546 -0.0210948240 -0.2109204669
0.3377255931 -0.0232451391 -0.1935307467
0.3506656849 -0.0275924653 -0.2280018685
0.3596438601 -0.0351184074 -0.2094328263
0.3589481621 0.0436189074 -0.2498302034
0.3506152907 0.0390950524 -0.2278936128
0.3931086252 0.0485917989 -0.2826295021
0.3649978090 -0.0391238816 -0.1772903505
0.3427504847 -0.0084969667 -0.2284744508
0.3854804253 0.0344811029 -0.2731326725
0.3628139378 0.0420264283 -0.2604206900
0.3479049988 0.0218722749 -0.2261165080
0.3409595402 -0.0153419935 -0.2255740787
0.3485449141 0.0220600127 -0.2285424881
0.3580250791 0.0416601881 -0.2459941216
0.3489267436 0.0341905623 -0.2231764081
0.3334974010 -0.0058537443 -0.1953163270
0.3531681850 0.0014071090 -0.2534405583
0.3332748673 -0.0111904625 -0.1982891446
0.3528341345 0.0017939651 -0.2516683356
0.3624540333 -0.0385480448 -0.1735026288
0.3414177489 -0.0058628654 -0.2277678806
0.3511431181 0.0418300802 -0.2280911256
0.3502764186 0.0164590397 -0.2383205329
0.3482161240 0.0214651401 -0.2312899920
0.3409835895 -0.0103907762 -0.2249643008
0.3462726047 0.0147089681 -0.2339996097
0.3346173404 -0.0243630924 -0.1784926193
0.3885852038 0.0348649568 -0.2751494150
0.3505641940 0.0188943664 -0.2406659523
0.3730514677 0.0247907093 -0.2625285613
0.3530788518 -0.0032309051 -0.2584356716
0.3808152562 0.0076778021 -0.2691121082
0.3726338655 0.0171788499 -0.2622798823
0.3764353560 0.0399801461 -0.2732438300
0.3477591533 0.0189768858 -0.2308300813
0.3756248674 0.0392410420 -0.2711721590
0.3521396614 0.0194524844 -0.2407658836
0.3525988338 0.0194076236 -0.2435282576
0.3485963301 -0.0072813639 -0.2519476176
0.3535238688 -0.0354567730 -0.2106096254
0.3353409147 -0.0061881588 -0.1982770386
0.3502110999 0.0014987951 -0.2438938169
0.3453001214 -0.0080077220 -0.2357026086
0.3680645223 0.0465734244 -0.2660543017
0.3548727015 -0.0320926625 -0.1935587814
0.3655011297 0.0492279296 -0.2611139321
0.3596975372 0.0247321986 -0.2561167543
0.3601467522 0.0191756474 -0.2577904106
0.3805015294 0.0422621937 -0.2855612431
0.3483349474 -0.0004248415 -0.2405253380
0.3582003600 0.0120952789 -0.2578910062
0.3381639159 -0.0134004093 -0.2183238069
0.3569764221 0.0391449840 -0.2395552431
0.3397847256 -0.0181490363 -0.2151561077
0.3580994280 0.0265765468 -0.2557907198
0.3374504529 -0.0184232277 -0.2033594992
0.3548665937 0.0423737449 -0.2388678096
0.3646520130 -0.0363807307 -0.2085715387
0.3487859153 -0.0036480191 -0.2503781909
0.3604428847 -0.0341913280 -0.2032501412
0.3352306165 -0.0208969327 -0.1954567164
0.3476782147 -0.0311454943 -0.1737625925
0.3558271127 0.0418773072 -0.2410007402
0.3654769746 -0.0411340826 -0.1684361143
0.3624401791 0.0474005648 -0.2509718491
0.3507469354 0.0064551275 -0.2430779092
0.3420999171 -0.0187229021 -0.2232951249
0.3470574009 -0.0289295847 -0.1884506530
0.3632181832 0.0493557262 -0.2532802199
0.3536694000 -0.0014662636 -0.2601476912
0.3470906740 -0.0287673628 -0.1918332049
0.3437182533 -0.0055515291 -0.2326921301
0.3419429381 -0.0185732196 -0.2245498144
0.3503140792 0.0391620658 -0.2207293734
0.3483068586 0.0164735889 -0.2303880058
0.3531854465 0.0296867464 -0.2432668709
0.3352904009 -0.0155373535 -0.2004744575
0.3644395712 -0.0352256679 -0.2273746053
0.3724968151 -0.0423892892 -0.1975109789
0.3607767850 0.0365150252 -0.2531252708
0.3602334419 0.0370295842 -0.2508301372
0.3313002950 -0.0227498904 -0.1799907755
0.3330291249 -0.0082049211 -0.1931972331
0.3430780831 -0.0006323083 -0.2283755402
0.3478908101 -0.0276155336 -0.2171482127
0.3801081648 0.0342263571 -0.2712030975
0.3320267454 -0.0161571293 -0.1924333317
0.3729012753 0.0226509902 -0.2625559704
0.3680219226 -0.0407064433 -0.1831580640
0.3467645943 0.0332167670 -0.2113525867
0.3807024043 0.0473263984 -0.2742884369
0.3478054895 -0.0296763470 -0.1828485069
0.3450583038 0.0119563771 -0.2206569979
0.3571201738 -0.0016688041 -0.2595253770
0.3550138510 0.0022063024 -0.2580077074
0.3579248465 -0.0328663419 -0.2258740538
0.3453660272 0.0117291115 -0.2237055148
0.3723428249 -0.0387338083 -0.2278068066
0.3707345217 -0.0392211078 -0.2007113247
0.3629771671 -0.0393340753 -0.1677921857
0.3528472508 0.0144092186 -0.2421778606
0.3682473704 0.0470215439 -0.2679952918
0.3630597422 0.0297572753 -0.2608290691
0.3459431754 -0.0083977059 -0.2405720563
0.3553567764 0.0190577360 -0.2503287546
0.3758547902 0.0349501781 -0.2697919607
0.3681686549 0.0516858946 -0.2656232121
0.3335963848 -0.0181149412 -0.1986609284
0.3760399889 0.0446875402 -0.2737644661
0.3600753787 -0.0412920189 -0.1577978770
0.3626609468 0.0044534193 -0.2655005728
0.3306433870 -0.0205909864 -0.1850518900
0.3557793830 0.0292605337 -0.2480358626
0.3459296418 0.0268596117 -0.2157761070
0.3466931994 0.0271695332 -0.2173922437
0.3461911009 -0.0206981019 -0.2355625496
0.3460610904 0.0336246835 -0.2162585806
0.3438853060 0.0215455268 -0.2142917712
0.3635472377 -0.0405744240 -0.1572306509
0.3580104573 -0.0364971688 -0.1679069884
0.3634554259 -0.0400980375 -0.1819764008
0.3530043123 0.0363436351 -0.2364379425
0.3464461188 0.0344263951 -0.2133400332
0.3676939070 -0.0400805455 -0.1810888559
0.3461437837 0.0288249182 -0.2125668435
0.3500455170 0.0142432675 -0.2356361698
0.3508076346 0.0314010160 -0.2359043448
0.3478902368 0.0288374448 -0.2279119238
0.3711104310 0.0494264324 -0.2703305318
0.3926992438 0.0472732348 -0.2764776825
0.3462172659 0.0288404444 -0.2257755226
0.3753922542 0.0493353879 -0.2728625582
0.3466876745 0.0289728977 -0.2287411317
0.3485497682 0.0292659705 -0.2330129862
0.3304242227 -0.0161817401 -0.1906062622
0.3481381506 0.0365337929 -0.2203974683
0.3545338863 0.0445805603 -0.2324444627
0.3560858123 0.0395775896 -0.2427901934
0.3513814013 0.0470087481 -0.2309453934
0.3584684628 0.0418947459 -0.2480975222
0.3530360646 0.0270720044 -0.2438526415
0.3564185066 0.0411457862 -0.2435754333
0.3519415855 0.0217649154 -0.2386824638
0.3538888076 -0.0313029134 -0.2128667368
0.3710918983 0.0416508840 -0.2704888665
0.3432110116 -0.0002883134 -0.2308109383
0.3515214026 0.0428285711 -0.2246876061
0.3730889521 0.0372687266 -0.2667852938
0.3328428026 -0.0240754123 -0.1774717870
0.3497294479 -0.0000010475 -0.2387063283
0.3732739961 0.0319686032 -0.2654024561
0.3454338831 -0.0103059214 -0.2446009500
0.3480339636 0.0167732647 -0.2331422222
0.3463783190 0.0214415984 -0.2208957821
0.3330251331 -0.0106130402 -0.1956532713
0.3464229590 0.0269244338 -0.2255650097
0.3566277691 0.0435811201 -0.2434450350
0.3462269698 0.0263668725 -0.2235598418
0.3658367852 -0.0413431652 -0.1805594121
0.3469976701 0.0074903283 -0.2283210860
0.3582970810 -0.0356494260 -0.1782580446
0.3775258170 0.0419751840 -0.2857234308
0.3521850279 -0.0329635846 -0.2164290894
0.3307760288 -0.0182421313 -0.1882607086
0.3369000074 -0.0216672826 -0.1944329278
0.3549738432 0.0489461553 -0.2356316744
0.3499296807 0.0222729192 -0.2342123326
0.3729849417 0.0149184913 -0.2626996197
0.3630116208 0.0344701868 -0.2602640942
0.3883151506 0.0138656848 -0.2637448603
0.3783350968 0.0094835194 -0.2663420533
0.3347082127 -0.0103010770 -0.2002859690
0.3527466135 0.0048858181 -0.2472819624
0.3519014674 0.0118177227 -0.2401338026
0.3534636255 -0.0010489133 -0.2526511289
0.3682617351 -0.0379749124 -0.2026566538
0.3402301599 -0.0276411871 -0.1746848761
0.3531003022 -0.0299091893 -0.2028689121
0.3877607286 0.0419689640 -0.2840075493
0.3400107554 -0.0162887466 -0.2208275034
0.3687292253 0.0516387668 -0.2677013542
0.3479624421 -0.0259374579 -0.2237588975
0.3784869611 0.0269345371 -0.2658824772
0.3543842071 0.0130370401 -0.2440212562
0.3599185666 -0.0369264925 -0.1706717440
0.3683583980 0.0389754447 -0.2658542717
0.3382967071 -0.0256137304 -0.1829043061
0.3630365274 -0.0371113128 -0.2076621533
0.3470715582 -0.0125475544 -0.2418034226
0.3555625025 0.0372201607 -0.2433775383
0.3453344062 -0.0011728118 -0.2335711966
0.3602584367 0.0318757181 -0.2532412365
0.3409924010 -0.0158598410 -0.2229600928
0.3603078482 0.0319344032 -0.2562311434
0.3454075571 0.0221001772 -0.2233419996
0.3606525933 -0.0388364464 -0.1606539708
0.3583508308 0.0370751774 -0.2496658585
0.3791942692 0.0105550001 -0.2652611034
0.3485706865 0.0265419404 -0.2356695308
0.3901336061 0.0376231925 -0.2760676028
0.3406753218 -0.0126586285 -0.2334845892
0.3452261106 0.0265244401 -0.2133286425
0.3526162584 -0.0290380573 -0.2232126562
0.3829805635 0.0365129933 -0.2734931140
0.3629420872 -0.0379933523 -0.1854502979
0.3513194983 0.0312645746 -0.2398860636
0.3495857701 0.0142415543 -0.2382875764
0.3556329359 0.0097195067 -0.2505283601
0.3531953121 0.0342582628 -0.2363264255
0.3810613649 0.0115230101 -0.2646620618
0.3534121320 0.0337825366 -0.2383133057
0.3438114019 -0.0108769574 -0.2399512181
0.3446864173 0.0270010237 -0.2107169483
0.3331023265 -0.0053117357 -0.1937354404
0.3438271844 0.0193618206 -0.2132928679
0.3411161983 -0.0128494168 -0.2302984412
0.3496746162 0.0327132768 -0.2245009673
0.3776571646 0.0125899272 -0.2638800303
0.3482640780 0.0267973162 -0.2323903071
0.3526082039 0.0388598274 -0.2287254184
0.3444601335 -0.0300282806 -0.1718544330
0.3529071122 0.0441252690 -0.2264646297
0.3549752197 0.0045667248 -0.2551140526
0.3906287379 0.0390472512 -0.2762413540
0.3563060234 0.0066057280 -0.2562467659
0.3534828722 0.0008640220 -0.2595862746
0.3784845935 0.0173803475 -0.2626085370
0.3600889743 0.0025426791 -0.2634374371
0.3795264661 0.0162776373 -0.2625008821
0.3835118118 0.0441484336 -0.2755161157
0.3602432609 0.0022636575 -0.2655248344
0.3494838260 -0.0254364440 -0.2304827131
0.3473337332 0.0097008388 -0.2312386440
0.3570208304 -0.0340762660 -0.1827132260
0.3527218118 0.0395856315 -0.2333672713
0.3402255644 -0.0182740836 -0.2206907937
0.3525575374 0.0397552639 -0.2306752637
0.3526850603 -0.0059663147 -0.2558826089
0.3389061513 -0.0080359041 -0.2203792836
0.3472297952 0.0044430427 -0.2285807002
0.3574263186 0.0448662592 -0.2362487439
0.3553515236 -0.0325313471 -0.2249591211
0.3908615665 0.0469577937 -0.2831538040
0.3659668207 0.0195882604 -0.2614939546
0.3634219732 -0.0350301758 -0.2292886132
0.3827865280 0.0466155360 -0.2748237021
0.3610623381 0.0393169394 -0.2558683157
0.3631202126 0.0394296440 -0.2604199424
0.3452795744 -0.0236596726 -0.2208068669
0.3538255302 0.0168274586 -0.2507112476
0.3475285059 -0.0079249968 -0.2405285348
0.3427675557 -0.0104397323 -0.2293673204
0.3936751187 0.0428829268 -0.2806570232
0.3660747501 0.0164784146 -0.2619566467
0.3295627741 -0.0138387848 -0.1872490369
0.3441569507 0.0077440343 -0.2214304656
0.3556840137 -0.0335345957 -0.1874907010
0.3477167487 0.0363901829 -0.2181693912
0.3800422454 0.0227064847 -0.2633318285
0.3527804406 0.0241501828 -0.2403510719
0.3552383761 0.0242417970 -0.2462644426
0.3830654983 0.0422111181 -0.2846921795
0.3412183523 -0.0058448615 -0.2235629298
0.3279213453 -0.0134388224 -0.1854489479
0.3482000217 -0.0056837502 -0.2498161603
0.3408322554 -0.0057035130 -0.2205356694
0.3580193131 0.0468086140 -0.2401738368
0.3925437270 0.0344730501 -0.2771185483
0.3553986259 -0.0323457712 -0.2102337077
0.3963373669 0.0349830501 -0.2781786717
0.3486081745 0.0016768911 -0.2470385289
0.3475628193 -0.0235597905 -0.2308168850
0.3856009049 0.0191766654 -0.2632720277
0.3350641276 -0.0011655149 -0.1953900976
0.3526382049 0.0419995648 -0.2253498932
0.3392513889 -0.0244244648 -0.1948299333
0.3674848516 -0.0391978709 -0.1904146130
0.3659149805 0.0347399335 -0.2626663993
0.3956555527 0.0367943720 -0.2780922228
0.3592904557 0.0419647813 -0.2516605482
0.3754145438 0.0168118345 -0.2621899366
0.3496406797 0.0217372862 -0.2278648108
0.3325178454 -0.0240943089 -0.1761042345
0.3500869111 -0.0080197050 -0.2481127407
0.3479462518 0.0091735362 -0.2380653110
0.3483565524 0.0290716556 -0.2302396633
0.3530136982 0.0442593418 -0.2305576279
0.3449442983 0.0066552280 -0.2233110666
0.3703644033 -0.0374561512 -0.2327671341
0.3823184862 0.0085475449 -0.2687675372
0.3544449583 0.0148188468 -0.2448787618
0.3666648919 -0.0376809394 -0.2095146257
0.3931567743 0.0393298917 -0.2828969925
0.3470542729 -0.0212178659 -0.2336298525
0.3703018013 -0.0379082068 -0.2307435434
0.3914696041 0.0494407219 -0.2752866202
0.3795300916 0.0086262148 -0.2675116806
0.3782723079 0.0393073617 -0.2732265993
0.3455477410 0.0013372807 -0.2328425233
0.3784197569 0.0501622669 -0.2714231312
0.3624108274 0.0223550620 -0.2606339232
0.3611987444 0.0343987403 -0.2582097922
0.3306888391 -0.0209297897 -0.1831632072
0.3551832709 0.0423036556 -0.2365037618
0.3476531206 0.0169022087 -0.2233239443
0.3662549555 0.0295928903 -0.2624765635
0.3579241380 0.0241805711 -0.2506282200
0.3683927501 -0.0378973024 -0.1981310823
0.3719832566 -0.0415543956 -0.1916415527
0.3502597436 0.0044076845 -0.2459280901
0.3476429727 0.0139996716 -0.2225811936
0.3602905141 0.0494210569 -0.2459949485
0.3578637474 0.0109463503 -0.2532680657
0.3498822178 -0.0028775534 -0.2456380565
0.3610165642 -0.0344454524 -0.1971944079
0.3475710133 0.0270588957 -0.2245002108
0.3830582339 0.0078908981 -0.2682679571
0.3656661561 0.0120826342 -0.2626235145
0.3703498716 0.0519309476 -0.2659399968
0.3473802231 -0.0055724294 -0.2383165302
0.3705890384 0.0516338813 -0.2686538393
0.3558231594 0.0169507959 -0.2472518337
0.3503873342 -0.0307847397 -0.1896518814
0.3861249005 0.0442212105 -0.2844198808
0.3678897665 0.0342378867 -0.2631541025
0.3459056925 -0.0061558717 -0.2370982976
0.3356606524 -0.0107525161 -0.1985001108
0.3623023122 -0.0344245126 -0.2263818317
0.3456665015 -0.0209136682 -0.2305259872
0.3558066468 0.0146650037 -0.2531143062
0.3558568040 0.0464543313 -0.2410886582
0.3649973354 -0.0381179827 -0.1885969973
0.3559546823 -0.0314943317 -0.1998216866
0.3551688194 0.0288386491 -0.2457478041
0.3316419721 -0.0183686782 -0.1905972213
0.3480103958 0.0073021125 -0.2379726967
0.3565024906 0.0266378418 -0.2505442724
0.3437858772 0.0192485824 -0.2157618463
0.3382473104 -0.0228862613 -0.2002773065
0.3671674426 -0.0418555677 -0.1697697979
0.3453227246 -0.0035439879 -0.2340455129
0.3450931464 0.0169431869 -0.2184570155
0.3509331286 0.0164691978 -0.2404960338
0.3597605119 0.0427017595 -0.2465569597
0.3647881339 -0.0408188080 -0.1623973955
0.3439632958 -0.0085706885 -0.2385562247
0.3803776291 0.0369346181 -0.2728959945
0.3434027834 -0.0082473199 -0.2361943399
0.3457323969 -0.0057673718 -0.2406968373
0.3701635523 0.0317180247 -0.2638202152
0.3499176581 0.0368482560 -0.2214589792
0.3778520413 0.0320167093 -0.2676894139
0.3527092426 0.0266216884 -0.2410285143
0.3482100570 0.0386495759 -0.2180963609
0.3537067019 -0.0033072332 -0.2556202056
0.3460028265 -0.0205136905 -0.2332537409
0.3602499261 0.0342401065 -0.2529253195
0.3861100305 0.0471374995 -0.2751610364
0.3497261034 0.0199766436 -0.2339199033
0.3332777946 -0.0181411807 -0.1954158516
0.3444360505 -0.0227045411 -0.2156945624
0.3554121796 -0.0353942122 -0.1660181939
0.3362351656 -0.0062678657 -0.2028005868
0.3312105223 -0.0196168610 -0.1909659734
0.3608561124 -0.0348413710 -0.2276381166
0.3355215386 -0.0059637598 -0.2011166874
0.3798602124 0.0442266322 -0.2852505594
0.3631558295 -0.0389300245 -0.1706151117
0.3550114407 0.0052677331 -0.2522684017
0.3514030420 0.0221699588 -0.2414069500
0.3431986156 0.0271926255 -0.2140334010
0.3536815639 0.0042521688 -0.2557062630
0.3535290072 0.0116711178 -0.2535040828
0.3453978673 -0.0303286155 -0.2223756342
0.3447182664 -0.0082126910 -0.2298758617
0.3539053566 0.0120403945 -0.2506541363
0.3548108041 -0.0011774738 -0.2576914430
0.3660604060 0.0417045690 -0.2660656869
0.3686168130 0.0069523144 -0.2661493867
0.3634004794 0.0493505622 -0.2513773202
0.3581869233 0.0242415795 -0.2563563799
0.3452204835 0.0117883912 -0.2184520204
0.3334479078 -0.0157223157 -0.1981880735
0.3623374509 0.0495255058 -0.2489328608
0.3754643250 0.0343336388 -0.2684432397
0.3380968069 -0.0006738559 -0.2007562133
0.3562956054 0.0191113485 -0.2544881825
0.3384863376 -0.0127369798 -0.2149987072
0.3558255876 0.0198472277 -0.2522894294
0.3571448387 0.0272842255 -0.2448364037
0.3629723765 0.0463038028 -0.2586546002
0.3626992160 0.0474896090 -0.2561914437
0.3545835846 0.0339810905 -0.2356083082
0.3611885416 0.0463394488 -0.2530425384
0.3404937840 -0.0274781804 -0.1784871925
0.3565048080 0.0467703711 -0.2377896243
0.3416911581 0.0084955509 -0.2236445276
0.3661464563 0.0368683123 -0.2630734258
0.3588325977 -0.0418634117 -0.1578281373
0.3580351904 0.0220335600 -0.2512150312
0.3582673247 0.0216696373 -0.2533051027
0.3852136639 0.0423609510 -0.2756891230
0.3471944332 -0.0238086618 -0.2284926772
0.3609326335 0.0192546438 -0.2603841810
0.3669915646 0.0438061673 -0.2637043744
0.3487914169 -0.0006729662 -0.2454720934
0.3476208305 -0.0231525096 -0.2330342703
0.3679510968 0.0442899939 -0.2658476038
0.3629712127 -0.0374033110 -0.1880754552
0.3545647545 0.0366857728 -0.2338512662
0.3630351056 0.0089417275 -0.2633442760
0.3405724980 -0.0078245724 -0.2231178182
0.3923354735 0.0459715156 -0.2832472725
0.3432117975 -0.0282866540 -0.1827750489
0.3387867858 -0.0158375389 -0.2203903994
0.3504223003 -0.0030133169 -0.2482288135
0.3496869260 0.0368003826 -0.2187622124
0.3496484505 0.0299030179 -0.2271432811
0.3903591984 0.0450359320 -0.2765431093
0.3453245804 -0.0247321073 -0.2163760980
0.3462542925 0.0038423286 -0.2283677808
0.3559296961 0.0092301725 -0.2527941825
0.3622797430 0.0373050477 -0.2561316192
0.3780855021 0.0220891710 -0.2628973437
0.3621455138 0.0371922869 -0.2542160503
0.3531569691 -0.0031934399 -0.2529242307
0.3577585701 -0.0343583998 -0.1867442911
0.3295404315 -0.0087267011 -0.1892607510
0.3351221075 -0.0081911110 -0.1980974028
0.3557816735 -0.0305379605 -0.2276150465
0.3490064093 -0.0296024959 -0.2227216829
0.3600654915 0.0096553281 -0.2609280495
0.3511855907 0.0185794105 -0.2453035202
0.3757717711 0.0296000245 -0.2656100383
0.3549797456 0.0214092731 -0.2480364994
0.3631247318 0.0396023938 -0.2581508327
0.3435455337 0.0194767209 -0.2178352488
0.3958447149 0.0370960178 -0.2809457483
0.3637660593 -0.0354948454 -0.2055084184
0.3505588444 0.0267886618 -0.2378864103
0.3480293243 0.0395480008 -0.2163320536
0.3457051891 0.0117704745 -0.2257634739
0.3451185720 -0.0232635783 -0.2277051316
0.3477282973 0.0368790328 -0.2155557547
0.3603128725 -0.0334875987 -0.2073230098
0.3596527675 0.0496604044 -0.2440267588
0.3902724940 0.0498097139 -0.2834683446
0.3477528149 -0.0259000943 -0.2280976332
0.3437417338 -0.0203713337 -0.2320898823
0.3489151387 0.0347093137 -0.2259689464
0.3350913225 -0.0130513041 -0.1970120939
0.3709255220 0.0096967005 -0.2647589952
0.3612188702 0.0421719587 -0.2587957958
0.3514094416 0.0389493257 -0.2337151550
0.3447907613 -0.0267958280 -0.1969816378
0.3635150859 0.0419901431 -0.2577634882
0.3461420894 0.0268511850 -0.2208942990
0.3594699409 -0.0364558662 -0.1782692956
0.3394501770 -0.0242973632 -0.1915629372
0.3539627790 -0.0324135162 -0.2234864682
0.3554558088 -0.0301119927 -0.2305142992
0.3794405758 0.0466552153 -0.2744840384
0.3605738294 0.0422960162 -0.2537218650
0.3870951633 0.0116291606 -0.2656955184
0.3777242009 0.0193814936 -0.2624943812
0.3379694087 -0.0265323409 -0.1751882834
0.3736696627 0.0511109536 -0.2705387390
0.3309313466 -0.0113782643 -0.1951173398
0.3951091951 0.0447735994 -0.2790227568
0.3552552148 0.0369937103 -0.2406410062
0.3958279187 0.0491327018 -0.2807385629
0.3780689652 0.0420992769 -0.2739399020
0.3977072364 0.0494908349 -0.2784299335
0.3508272345 0.0393511456 -0.2258335155
0.3308779597 -0.0065331223 -0.1930896292
0.3526981615 0.0169731843 -0.2430708738
0.3604240229 0.0395934126 -0.2507864170
0.3628282150 0.0394362137 -0.2559824685
0.3488600707 0.0443123384 -0.2257949480
0.3474630957 -0.0266836410 -0.2096419610
0.3446073532 0.0195993949 -0.2147158831
0.3625393576 0.0350664274 -0.2524821021
0.3574138580 0.0074049288 -0.2562207777
0.3604768113 0.0448156579 -0.2490282833
0.3343152249 -0.0033146674 -0.1970415108
0.3496356309 -0.0314854945 -0.1770645635
0.3540286320 0.0315132891 -0.2463408565
0.3498348233 -0.0076040764 -0.2441773288
0.3464453353 0.0092807713 -0.2298220511
0.3542663232 -0.0346747412 -0.1667696841
0.3560986606 0.0354523043 -0.2533192922
0.3634992540 0.0056362809 -0.2651555538
0.3309671794 -0.0152649547 -0.1953324207
0.3630263481 0.0069281417 -0.2633309960
0.3597176738 -0.0360631208 -0.1875429243
0.3829259351 0.0250287953 -0.2645793534
0.3800270462 0.0242329111 -0.2638775290
0.3432567918 -0.0216419817 -0.2203744821
0.3340844097 -0.0249340552 -0.1768458644
0.3782471329 0.0472630265 -0.2736367585
0.3484790793 0.0146208241 -0.2350165085
0.3506603956 0.0293734305 -0.2408642560
0.3462483673 -0.0289310935 -0.1904298646
0.3501899362 0.0370783417 -0.2236275341
0.3302216679 -0.0106735919 -0.1939454898
0.3503568790 0.0368709073 -0.2254792688
0.3620524785 -0.0413415921 -0.1550324168
0.3499757904 0.0274107440 -0.2316867519
0.3511431005 -0.0060655193 -0.2530987653
0.3376642764 -0.0040209759 -0.2020605356
0.3498571495 0.0267319173 -0.2291258365
0.3482297760 -0.0247832712 -0.2306713375
0.3756603313 0.0368678827 -0.2691628397
0.3955154658 0.0470806091 -0.2802240685
0.3802204603 0.0491869996 -0.2733918045
0.3384460298 -0.0128609123 -0.2248118960
0.3587551272 0.0391392922 -0.2482980297
0.3571118404 0.0218464748 -0.2492484666
0.3573870821 -0.0424935667 -0.1581723407
0.3498301953 -0.0258414252 -0.2287055925
0.3605492690 0.0067288124 -0.2633187938
0.3561541581 -0.0336927870 -0.2223455104
0.3731539795 0.0471185293 -0.2709538997
0.3733353497 0.0463897272 -0.2725284185
0.3556614462 0.0342751438 -0.2437706732
0.3519498419 -0.0336268952 -0.1692800378
0.3284531734 -0.0184413313 -0.1827499587
0.3573321099 0.0242079585 -0.2479727601
0.3523657562 0.0320901014 -0.2316064680
0.3655906258 -0.0404700567 -0.1704349506
0.3385604606 -0.0106375188 -0.2200161062
0.3374328023 -0.0153765804 -0.2032802819
0.3548650654 -0.0315047292 -0.2229221671
0.3597655206 0.0398379637 -0.2446468584
0.3439839010 0.0170248107 -0.2152158396
0.3501719335 -0.0028744485 -0.2422349595
0.3436814838 0.0170713820 -0.2180380216
0.3554743341 0.0044346245 -0.2577965209
0.3451903128 0.0240290751 -0.2135813303
0.3446032093 -0.0123705849 -0.2342512979
0.3394378374 -0.0266688498 -0.1774137629
0.3464155862 0.0296561919 -0.2212272948
0.3520467723 -0.0024451505 -0.2479970291
0.3527559074 0.0141203038 -0.2484254059
0.3301836366 -0.0063287086 -0.1916542052
0.3619687822 0.0254211863 -0.2572850754
0.3406303954 -0.0205391135 -0.2179049933
0.3453960092 0.0243400752 -0.2161048976
0.3498916302 -0.0281166079 -0.2076825023
0.3481913348 0.0071640233 -0.2325431296
