-0.2354417741 0.0788352787 -0.4184699059
-0.2355251461 0.0785247758 -0.4209396839
-0.2337398082 0.0784520507 -0.4210672081
-0.2325715423 0.0783017650 -0.4219703376
-0.2242958099 0.0775931776 -0.4256971180
-0.2231092304 0.0774533227 -0.4265642166
-0.2595383227 0.0793232322 -0.4097869992
-0.2570765018 0.0792958438 -0.4093095958
-0.2559536994 0.0791189745 -0.4103021324
-0.2528388202 0.0791739449 -0.4090558589
-0.2510572076 0.0790784284 -0.4092846811
-0.2486207932 0.0790629238 -0.4087542295
-0.2468462437 0.0789724365 -0.4089617133
-0.2450738847 0.0788841769 -0.4091599584
-0.2433037311 0.0787981823 -0.4093488753
-0.2421807498 0.0786349401 -0.4102885425
-0.2410540432 0.0784730241 -0.4112238884
-0.2399236411 0.0783125088 -0.4121549726
-0.2387896031 0.0781533271 -0.4130817354
-0.2382847816 0.0779143870 -0.4147740602
-0.2371403873 0.0777575448 -0.4156945944
-0.2359923422 0.0776020885 -0.4166106284
-0.2348406613 0.0774479955 -0.4175224006
-0.2349268496 0.0771296620 -0.4199889898
-0.2331441194 0.0770607367 -0.4201145768
-0.2254986316 0.0762650222 -0.4246565402
-0.2243151069 0.0761234239 -0.4255282581
-0.2600110471 0.0780878514 -0.4078655839
-0.2582213283 0.0779864490 -0.4081327021
-0.2564334571 0.0778873637 -0.4083904028
-0.2553132772 0.0777103677 -0.4093806148
-0.2522007525 0.0777768120 -0.4081331491
-0.2504216433 0.0776850805 -0.4083599448
-0.2486446053 0.0775956288 -0.4085773826
-0.2468696684 0.0775084570 -0.4087855220
-0.2444458753 0.0775060281 -0.4082297087
-0.2433262765 0.0773408860 -0.4091737568
-0.2422029674 0.0771771148 -0.4101135135
-0.2410759181 0.0770147294 -0.4110489190
-0.2399451584 0.0768536702 -0.4119800627
-0.2394467741 0.0766094029 -0.4136739671
-0.2383056432 0.0764506832 -0.4145989120
-0.2371608466 0.0762933418 -0.4155194163
-0.2353855520 0.0762232989 -0.4156613052
-0.2348604202 0.0759828687 -0.4173474610
-0.2337047458 0.0758296847 -0.4182548821
-0.2325455099 0.0756779164 -0.4191578329
-0.2266959548 0.0749397725 -0.4236061871
-0.2249164432 0.0748858079 -0.4236868024
-0.2237356454 0.0747441202 -0.4245561659
-0.2618264556 0.0766981170 -0.4074027836
-0.2600345016 0.0765976235 -0.4076800644
-0.2575727403 0.0765826628 -0.4072115719
-0.2557874024 0.0764873177 -0.4074671566
-0.2546696961 0.0763101876 -0.4084548056
-0.2522224486 0.0763035640 -0.4079501927
-0.2504429519 0.0762151554 -0.4081775844
-0.2486655116 0.0761290342 -0.4083956480
-0.2451169640 0.0759636164 -0.4088036120
-0.2433459610 0.0758842751 -0.4089936316
-0.2422222495 0.0757199973 -0.4099334180
-0.2394650728 0.0751468837 -0.4134936333
-0.2371784747 0.0748298690 -0.4153392911
-0.2360297292 0.0746734440 -0.4162555337
-0.2348772883 0.0745184198 -0.4171674848
-0.2278876752 0.0736175030 -0.4225460291
-0.2267103642 0.0734722465 -0.4234268367
-0.2255295217 0.0733283833 -0.4243032038
-0.2243452817 0.0731859356 -0.4251751006
-0.2231575400 0.0730448812 -0.4260424078
-0.2604923248 0.0753775015 -0.4057505727
-0.2587057650 0.0752812177 -0.4060231447
-0.2569210231 0.0751873031 -0.4062861502
-0.2551381886 0.0750956982 -0.4065398276
-0.2533572614 0.0750064179 -0.4067840278
-0.2515782714 0.0749194771 -0.4070187509
-0.2498013228 0.0748348013 -0.4072442055
-0.2486834526 0.0746631324 -0.4082087874
-0.2475617975 0.0744928271 -0.4091691077
-0.2457852364 0.0744141415 -0.4093714952
-0.2440108806 0.0743377432 -0.4095645249
-0.2422386855 0.0742635801 -0.4097483158
-0.2388443798 0.0737774447 -0.4125421643
-0.2383386940 0.0735253543 -0.4142333567
-0.2371932417 0.0733670816 -0.4151540995
-0.2366710454 0.0731165186 -0.4168438017
-0.2355152518 0.0729605928 -0.4177581966
-0.2337349802 0.0729005635 -0.4178899825
-0.2325750142 0.0727478489 -0.4187931716
-0.2290737629 0.0722981468 -0.4214760959
-0.2278995961 0.0721510351 -0.4223614931
-0.2267219424 0.0720053688 -0.4232424200
-0.2255407721 0.0718610734 -0.4241189063
-0.2243561447 0.0717182085 -0.4249908626
-0.2231680602 0.0715767592 -0.4258582890
-0.2629791796 0.0738991499 -0.4060000777
-0.2605099976 0.0738931894 -0.4055552483
-0.2580484450 0.0738905966 -0.4050957859
-0.2562662065 0.0738004074 -0.4053568244
-0.2544858754 0.0737125501 -0.4056083858
-0.2527074814 0.0736270398 -0.4058505893
-0.2515940368 0.0734515414 -0.4068263173
-0.2504767179 0.0732774660 -0.4077977836
-0.2480414063 0.0732911676 -0.4072688222
-0.2457995564 0.0729517713 -0.4091802537
-0.2433766276 0.0729732439 -0.4086182415
-0.2372050583 0.0719050169 -0.4149637818
-0.2366826385 0.0716501102 -0.4166530967
-0.2349025160 0.0715916604 -0.4167923033
-0.2320363224 0.0710329786 -0.4202844799
-0.2296425551 0.0710813627 -0.4196116328
-0.2290832251 0.0708328485 -0.4212864339
-0.2279087156 0.0706853047 -0.4221719205
-0.2261283845 0.0706399530 -0.4222609997
-0.2249500155 0.0704956427 -0.4231352210
-0.2243642062 0.0702512562 -0.4248015285
-0.2237686366 0.0700075105 -0.4264678955
-0.2623138130 0.0725018159 -0.4050717354
-0.2598471940 0.0725034624 -0.4046254158
-0.2580626905 0.0724141821 -0.4048964381
-0.2556083500 0.0724219903 -0.4044233561
-0.2544994056 0.0722426772 -0.4054102302
-0.2520547211 0.0722561330 -0.4049131274
-0.2516068220 0.0719844103 -0.4066287279
-0.2498290986 0.0719063506 -0.4068552554
-0.2487105876 0.0717335641 -0.4078199565
-0.2469341010 0.0716596693 -0.4080302715
-0.2464620918 0.0713922009 -0.4097364843
-0.2433876246 0.0715188086 -0.4084230363
-0.2366913408 0.0701844469 -0.4164573252
-0.2332109958 0.0697180852 -0.4191877544
-0.2326584458 0.0694624037 -0.4208710492
-0.2308727950 0.0694142580 -0.4209858775
-0.2296984047 0.0692644864 -0.4218783379
-0.2285204381 0.0691161305 -0.4227662385
-0.2273389250 0.0689691976 -0.4236496985
-0.2255547792 0.0689287260 -0.4237349927
-0.2249654979 0.0686796382 -0.4254031181
-0.2237735838 0.0685369968 -0.4262730479
-0.2219884843 0.0685019270 -0.4263378084
-0.2207928300 0.0683625415 -0.4271963537
-0.2190104574 0.0683314353 -0.4272452295
-0.2616454065 0.0711129680 -0.4041393697
-0.2591812015 0.0711221993 -0.4036915302
-0.2573992908 0.0710366294 -0.4039605856
-0.2556192577 0.0709534585 -0.4042201936
-0.2545099556 0.0707735717 -0.4052070081
-0.2520648837 0.0707941428 -0.4047110379
-0.2509537041 0.0706180036 -0.4056842625
-0.2504987419 0.0703427866 -0.4073977172
-0.2487197667 0.0702699199 -0.4076180458
-0.2469429225 0.0701993555 -0.4078289568
-0.2464706153 0.0699274689 -0.4095347226
-0.2440439612 0.0699628815 -0.4089774787
-0.2416254729 0.0700014904 -0.4084059596
-0.2332158238 0.0682517737 -0.4189871848
-0.2320481539 0.0680986941 -0.4198885858
-0.2302653044 0.0680543706 -0.4200016856
-0.2297022045 0.0677968338 -0.4216779768
-0.2285238951 0.0676480532 -0.4225659370
-0.2267397791 0.0676092058 -0.4226586819
-0.2255576104 0.0674636811 -0.4235353768
-0.2249679416 0.0672102943 -0.4252030551
-0.2237756997 0.0670672506 -0.4260730743
-0.2219902724 0.0670356750 -0.4261384904
-0.2207942903 0.0668958873 -0.4269971251
-0.2190115303 0.0668682978 -0.4270465970
-0.2623348832 0.0695306435 -0.4046546221
-0.2605449855 0.0694449767 -0.4049388766
-0.2580822408 0.0694636777 -0.4044827223
-0.2562989295 0.0693832934 -0.4047454894
-0.2545175254 0.0693052560 -0.4049988091
-0.2520720661 0.0693329945 -0.4045038819
-0.2509605587 0.0691562667 -0.4054772258
-0.2498451620 0.0689809844 -0.4064462483
-0.2487259805 0.0688070804 -0.4074110389
-0.2462946326 0.0688450858 -0.4068736136
-0.2464762181 0.0684635565 -0.4093278646
-0.2434009314 0.0686122999 -0.4080176950
-0.2416303605 0.0685519800 -0.4082013071
-0.2337612361 0.0670512095 -0.4170995355
-0.2325999290 0.0668966621 -0.4180030227
-0.2320498377 0.0666327477 -0.4196829498
-0.2308782488 0.0664806515 -0.4205799401
-0.2297031730 0.0663300082 -0.4214724898
-0.2279191166 0.0662927851 -0.4215726554
-0.2267400920 0.0661453977 -0.4224538803
-0.2255575955 0.0659994557 -0.4233306944
-0.2249676436 0.0657417700 -0.4249978960
-0.2237750292 0.0655983090 -0.4258680344
-0.2219892889 0.0655702129 -0.4259340465
-0.2213795036 0.0653157607 -0.4275945723
-0.2195932716 0.0652913079 -0.4276469946
-0.2609798312 0.0682559758 -0.4029879868
-0.2591954172 0.0681745484 -0.4032676518
-0.2574127614 0.0680954829 -0.4035378098
-0.2549602389 0.0681251362 -0.4030655324
-0.2538532317 0.0679445490 -0.4040498734
-0.2520763576 0.0678726137 -0.4042918086
-0.2509645224 0.0676953569 -0.4052651525
-0.2491887212 0.0676276758 -0.4054909050
-0.2474149913 0.0675623342 -0.4057072997
-0.2456433922 0.0674993023 -0.4059143662
-0.2451764196 0.0672195330 -0.4076140225
-0.2427550554 0.0672702417 -0.4070540667
-0.2409871370 0.0672137216 -0.4072357714
-0.2325990051 0.0654358491 -0.4177927971
-0.2320486158 0.0651675835 -0.4194723070
-0.2308767438 0.0650150403 -0.4203693569
-0.2303098887 0.0647484735 -0.4220470488
-0.2285223752 0.0647143051 -0.4221500754
-0.2267376333 0.0646823719 -0.4222441018
-0.2255547494 0.0645360053 -0.4231209159
-0.2249644995 0.0642740279 -0.4247877002
-0.2231787294 0.0642476156 -0.4248611331
-0.2219855040 0.0641055703 -0.4257245660
-0.2207888514 0.0639650077 -0.4265833199
-0.2201721668 0.0637073591 -0.4282411635
-0.2609827816 0.0667801499 -0.4027679265
-0.2591980100 0.0667019486 -0.4030481279
-0.2567403615 0.0667358264 -0.4025890529
-0.2549621761 0.0666629151 -0.4028477371
-0.2538548410 0.0664817616 -0.4038321674
-0.2520776391 0.0664131194 -0.4040746987
-0.2503024638 0.0663468391 -0.4043078721
-0.2491893917 0.0661708787 -0.4052744210
-0.2474153638 0.0661088452 -0.4054914415
-0.2456434518 0.0660491362 -0.4056990743
-0.2445249408 0.0658783764 -0.4066478908
-0.2427545041 0.0658228844 -0.4068394899
-0.2416314632 0.0656553879 -0.4077772498
-0.2405047864 0.0654893443 -0.4087106586
-0.2376041412 0.0652770922 -0.4098019004
-0.2371025831 0.0649996921 -0.4114852250
-0.2359612435 0.0648393184 -0.4124014676
-0.2348162383 0.0646804050 -0.4133132994
-0.2336676270 0.0645228699 -0.4142208695
-0.2331363261 0.0642490610 -0.4158990383
-0.2325953543 0.0639758632 -0.4175775945
-0.2314298302 0.0638218373 -0.4184767902
-0.2296490818 0.0637882352 -0.4185894132
-0.2290881127 0.0635181069 -0.4202619195
-0.2273065299 0.0634882152 -0.4203609228
-0.2255277336 0.0634604916 -0.4204508066
-0.2243508548 0.0633145049 -0.4213230610
-0.2243625373 0.0629280731 -0.4237785637
-0.2231724411 0.0627842024 -0.4246464968
-0.2219789326 0.0626417696 -0.4255098701
-0.2207819968 0.0625008047 -0.4263688028
-0.2195816338 0.0623613186 -0.4272231460
-0.2616631687 0.0651926771 -0.4032668173
-0.2598752379 0.0651172325 -0.4035502672
-0.2574143708 0.0651577115 -0.4030949473
-0.2556330264 0.0650875866 -0.4033569396
-0.2538535297 0.0650198162 -0.4036094546
-0.2527419925 0.0648395270 -0.4045896232
-0.2503005266 0.0648914576 -0.4040863812
-0.2491871417 0.0647149533 -0.4050529599
-0.2474128157 0.0646562204 -0.4052706361
-0.2456406206 0.0645998493 -0.4054788947
-0.2445218116 0.0644285455 -0.4064276516
-0.2427510321 0.0643763840 -0.4066199064
-0.2416277230 0.0642083809 -0.4075576365
-0.2405007184 0.0640418008 -0.4084911644
-0.2400092036 0.0637576133 -0.4101801217
-0.2382356524 0.0637129247 -0.4103452563
-0.2370975912 0.0635506138 -0.4112659395
-0.2359559238 0.0633898228 -0.4121821523
-0.2341835648 0.0633511394 -0.4123245776
-0.2330377102 0.0631936044 -0.4132296741
-0.2318882793 0.0630374700 -0.4141305089
-0.2319709510 0.0626387596 -0.4165805578
-0.2314229459 0.0623622723 -0.4182566106
-0.2296419144 0.0623320639 -0.4183698893
-0.2284720689 0.0621808916 -0.4192578495
-0.2266933471 0.0621548146 -0.4193551540
-0.2249173671 0.0621309727 -0.4194433391
-0.2237433493 0.0619849302 -0.4203134477
-0.2237577885 0.0615907200 -0.4227654636
-0.2225705534 0.0614468493 -0.4236311615
-0.2219695598 0.0611788034 -0.4252902269
-0.2201858014 0.0611634105 -0.4253490567
-0.2623405457 0.0635984316 -0.4037594199
-0.2605494261 0.0635257140 -0.4040461481
-0.2574106753 0.0636901557 -0.4028659761
-0.2563008070 0.0635054111 -0.4038598835
-0.2545181811 0.0634404570 -0.4041156769
-0.2527374327 0.0633779019 -0.4043619335
-0.2509587109 0.0633177087 -0.4045988917
-0.2485219091 0.0633796379 -0.4040848911
-0.2467501909 0.0633246601 -0.4043006003
-0.2449807376 0.0632720515 -0.4045070708
-0.2432133853 0.0632218048 -0.4047040939
-0.2420964986 0.0630522817 -0.4056437314
-0.2422662824 0.0626402050 -0.4080874026
-0.2411359400 0.0624726526 -0.4090234041
-0.2400019318 0.0623065867 -0.4099550843
-0.2388642281 0.0621419214 -0.4108825028
-0.2377228588 0.0619787276 -0.4118055999
-0.2359477729 0.0619411469 -0.4119578600
-0.2341751903 0.0619058907 -0.4121009111
-0.2330290228 0.0617478564 -0.4130061269
-0.2318792790 0.0615912825 -0.4139070213
-0.2319615632 0.0611843616 -0.4163558483
-0.2314132303 0.0609035343 -0.4180313647
-0.2302435637 0.0607500859 -0.4189262092
-0.2284618467 0.0607251748 -0.4190333188
-0.2272881418 0.0605750233 -0.4199169576
-0.2255087942 0.0605542175 -0.4200081825
-0.2243312895 0.0604073815 -0.4208805561
-0.2237463146 0.0601333380 -0.4225411713
-0.2225587666 0.0599890314 -0.4234068990
-0.2219574004 0.0597167425 -0.4250654578
-0.2201733887 0.0597048067 -0.4251249731
-0.2598654032 0.0621688329 -0.4030848444
-0.2580787241 0.0621022917 -0.4033601284
-0.2562938333 0.0620381683 -0.4036259353
-0.2538420260 0.0620986111 -0.4031490386
-0.2527298629 0.0619171634 -0.4041292369
-0.2509508729 0.0618602559 -0.4043668807
-0.2491738945 0.0618057661 -0.4045950770
-0.2467418611 0.0618776791 -0.4040704072
-0.2456261963 0.0617038682 -0.4050235450
-0.2438556403 0.0616564490 -0.4052237868
-0.2427354753 0.0614859760 -0.4061659276
-0.2416115850 0.0613169409 -0.4071037173
-0.2411261052 0.0610230267 -0.4087933004
-0.2399918586 0.0608564466 -0.4097251296
-0.2388537973 0.0606912822 -0.4106525481
-0.2377121598 0.0605275743 -0.4115757346
-0.2359368056 0.0604933873 -0.4117286205
-0.2347909063 0.0603330210 -0.4126405716
-0.2336413413 0.0601740964 -0.4135482609
-0.2324882746 0.0600166470 -0.4144515693
-0.2325671464 0.0596010946 -0.4169017375
-0.2314006835 0.0594457388 -0.4178010523
-0.2296191007 0.0594224110 -0.4179156423
-0.2284487039 0.0592703708 -0.4188037515
-0.2266694456 0.0592511408 -0.4189023674
-0.2248929292 0.0592341870 -0.4189919233
-0.2237182707 0.0590873510 -0.4198620021
-0.2231360823 0.0588093922 -0.4215197861
-0.2219513804 0.0586650595 -0.4223833382
-0.2213528603 0.0583889075 -0.4240389764
-0.2195717841 0.0583808385 -0.4240969419
-0.2612111568 0.0604469478 -0.4042943418
-0.2594183385 0.0603826270 -0.4045754373
-0.2558383048 0.0602614060 -0.4051092267
-0.2540512085 0.0602044091 -0.4053619802
-0.2522660792 0.0601498522 -0.4056053758
-0.2504829466 0.0600976907 -0.4058393240
-0.2473876625 0.0603036769 -0.4045782089
-0.2469228953 0.0600005053 -0.4062792361
-0.2444950044 0.0600843281 -0.4057372510
-0.2427233756 0.0600421354 -0.4059314430
-0.2415991724 0.0598725863 -0.4068692923
-0.2411134243 0.0595743209 -0.4085583091
-0.2393396795 0.0595378242 -0.4087321460
-0.2382044494 0.0593726188 -0.4096572101
-0.2370655388 0.0592088625 -0.4105778635
-0.2352929413 0.0591784790 -0.4107289910
-0.2341498286 0.0590180680 -0.4116386473
-0.2330030650 0.0588590987 -0.4125438929
-0.2324735671 0.0585683957 -0.4142174423
-0.2319342792 0.0582782999 -0.4158913791
-0.2307706922 0.0581228621 -0.4167884290
-0.2296034843 0.0579689331 -0.4176809788
-0.2278243750 0.0579512753 -0.4177871048
-0.2260479778 0.0579359196 -0.4178840816
-0.2242743373 0.0579228289 -0.4179718792
-0.2231025547 0.0577759370 -0.4188397825
-0.2225231677 0.0574940927 -0.4204945862
-0.2213413715 0.0573497638 -0.4213558733
-0.2207456976 0.0570697002 -0.4230087101
-0.2607548833 0.0586486496 -0.4057831168
-0.2596296072 0.0584597103 -0.4067900181
-0.2564938962 0.0586617850 -0.4055966437
-0.2540376782 0.0587378852 -0.4051180780
-0.2522523105 0.0586865805 -0.4053620398
-0.2498088926 0.0587689616 -0.4048569798
-0.2473734915 0.0588546768 -0.4043374658
-0.2462543398 0.0586793423 -0.4052931070
-0.2438291460 0.0587707721 -0.4047499299
-0.2427083999 0.0585992560 -0.4056920707
-0.2415839285 0.0584291667 -0.4066299200
-0.2410978228 0.0581265502 -0.4083183408
-0.2406020463 0.0578244515 -0.4100074470
-0.2388243526 0.0577927865 -0.4101776481
-0.2370491177 0.0577634536 -0.4103386402
-0.2352762967 0.0577364340 -0.4104903638
-0.2341328710 0.0575755537 -0.4114000499
-0.2329858541 0.0574161001 -0.4123053551
-0.2318352312 0.0572581328 -0.4132063985
-0.2319164425 0.0568266809 -0.4156516194
-0.2313671112 0.0565328971 -0.4173253775
-0.2301965356 0.0563780889 -0.4182204306
-0.2290224284 0.0562247783 -0.4191110134
-0.2272395343 0.0562120341 -0.4192132652
-0.2248573154 0.0563411154 -0.4185203910
-0.2236820608 0.0561933927 -0.4193906188
-0.2219076008 0.0561874956 -0.4194656610
-0.2207286209 0.0560431443 -0.4203246832
-0.2207252532 0.0556181334 -0.4227699637
-0.2189468741 0.0556174219 -0.4228270054
-0.2627628148 0.0567675829 -0.4077093899
-0.2609567940 0.0567097627 -0.4079953134
-0.2578151524 0.0569217838 -0.4068090618
-0.2553528845 0.0570040233 -0.4063369334
-0.2535613477 0.0569550395 -0.4065867066
-0.2504519224 0.0571786873 -0.4053490460
-0.2473563701 0.0574066676 -0.4040917456
-0.2462369055 0.0572307594 -0.4050474763
-0.2431605309 0.0574658476 -0.4037588835
-0.2420424968 0.0572942533 -0.4046985507
-0.2415657789 0.0569866970 -0.4063855708
-0.2404373437 0.0568175912 -0.4073191583
-0.2399442047 0.0565115921 -0.4090052247
-0.2388053536 0.0563449524 -0.4099327326
-0.2370298505 0.0563189685 -0.4100943506
-0.2347399741 0.0559938960 -0.4119229913
-0.2329657823 0.0559740327 -0.4120618403
-0.2324356586 0.0556746982 -0.4137341678
-0.2318957299 0.0553760044 -0.4154069126
-0.2313460559 0.0550779179 -0.4170800149
-0.2295638025 0.0550648496 -0.4171966016
-0.2290008217 0.0547689050 -0.4188656509
-0.2272177041 0.0547596104 -0.4189687371
-0.2248352915 0.0548959598 -0.4182771146
-0.2236597985 0.0547478683 -0.4191474319
-0.2224808484 0.0546012484 -0.4200132489
-0.2212984413 0.0544560924 -0.4208746552
-0.2201126665 0.0543124638 -0.4217315316
-0.2189234644 0.0541702993 -0.4225839376
-0.2634183466 0.0551376157 -0.4081755877
-0.2609376013 0.0552195497 -0.4077366590
-0.2577957213 0.0554424413 -0.4065523744
-0.2559991181 0.0553938076 -0.4068148732
-0.2548672855 0.0552091412 -0.4078038037
-0.2493071407 0.0555413254 -0.4060639441
-0.2475245446 0.0555034056 -0.4062837660
-0.2444420904 0.0557485521 -0.4050022066
-0.2420217842 0.0558571294 -0.4044498503
-0.2408997864 0.0556864515 -0.4053853452
-0.2397740483 0.0555172972 -0.4063163996
-0.2399225831 0.0550652519 -0.4087552726
-0.2381475121 0.0550407171 -0.4089243710
-0.2370077521 0.0548754819 -0.4098451734
-0.2358643264 0.0547117144 -0.4107616246
-0.2347173095 0.0545494631 -0.4116737545
-0.2323191911 0.0546773374 -0.4110451639
-0.2317917943 0.0543741025 -0.4127144814
-0.2318721712 0.0539263077 -0.4151571393
-0.2307077199 0.0537695400 -0.4160542488
-0.2295396626 0.0536142513 -0.4169469178
-0.2289763838 0.0533140190 -0.4186153412
-0.2271930426 0.0533081442 -0.4187190533
-0.2248105109 0.0534518175 -0.4180288613
-0.2236347347 0.0533032976 -0.4188992083
-0.2224555314 0.0531562604 -0.4197651446
-0.2212728709 0.0530107170 -0.4206264615
-0.2206761390 0.0527178869 -0.4222775400
-0.2188973278 0.0527241342 -0.4223359525
-0.2622584403 0.0534486584 -0.4089277983
-0.2591107190 0.0536814891 -0.4077507555
-0.2573079765 0.0536351167 -0.4080190063
-0.2568328083 0.0533066392 -0.4097482562
-0.2450695932 0.0541610792 -0.4054926336
-0.2426462024 0.0542763546 -0.4049441516
-0.2415208966 0.0541047342 -0.4058821201
-0.2410337925 0.0537890159 -0.4075685441
-0.2398980707 0.0536199138 -0.4085004032
-0.2381228209 0.0535987131 -0.4086701572
-0.2369828075 0.0534330048 -0.4095909894
-0.2352093309 0.0534160994 -0.4097447693
-0.2334383726 0.0534015447 -0.4098894000
-0.2316699475 0.0533893146 -0.4100249112
-0.2311452180 0.0530821979 -0.4116910398
-0.2312283069 0.0526266657 -0.4141300917
-0.2300667018 0.0524698533 -0.4150248468
-0.2295127660 0.0521646552 -0.4166922271
-0.2289491147 0.0518601350 -0.4183599949
-0.2271655947 0.0518577136 -0.4184644222
-0.2259867340 0.0517064594 -0.4193439186
-0.2242056578 0.0517082401 -0.4194324017
-0.2230229974 0.0515604056 -0.4203006327
-0.2224293649 0.0512618050 -0.4219554961
-0.2212366909 0.0511165895 -0.4228170812
-0.2188684195 0.0512789860 -0.4220829308
-0.2604223192 0.0519062765 -0.4089412689
-0.2579479516 0.0520077981 -0.4084835351
-0.2561439872 0.0519667082 -0.4087456167
-0.2450432330 0.0527149737 -0.4052321017
-0.2426196635 0.0528373979 -0.4046849608
-0.2414941192 0.0526652448 -0.4056229293
-0.2410067022 0.0523452051 -0.4073086977
-0.2398707122 0.0521755517 -0.4082405865
-0.2387310565 0.0520074256 -0.4091680944
-0.2369549721 0.0519915372 -0.4093318284
-0.2351813167 0.0519779883 -0.4094863236
-0.2340368479 0.0518151782 -0.4103960991
-0.2322651297 0.0518059321 -0.4105347097
-0.2311165333 0.0516465120 -0.4114333987
-0.2305817753 0.0513357297 -0.4130993187
-0.2294229716 0.0511788949 -0.4139917195
-0.2288718373 0.0508698188 -0.4156561494
-0.2277028561 0.0507155620 -0.4165421128
-0.2265303880 0.0505628102 -0.4174236357
-0.2253543884 0.0504115634 -0.4183008075
-0.2247736305 0.0501064844 -0.4199592471
-0.2235875726 0.0499578528 -0.4208298624
-0.2223980725 0.0498107150 -0.4216959774
-0.2217943221 0.0495085828 -0.4233503044
-0.2188367695 0.0498348549 -0.4218248129
-0.2592502832 0.0502244718 -0.4096726775
-0.2581029236 0.0500356741 -0.4106743634
-0.2456647009 0.0511180647 -0.4057104886
-0.2425902784 0.0513994545 -0.4044209123
-0.2414645106 0.0512268171 -0.4053588212
-0.2403349429 0.0510556400 -0.4062924087
-0.2392017543 0.0508859567 -0.4072218537
-0.2380648702 0.0507177971 -0.4081468880
-0.2369242758 0.0505510718 -0.4090677798
-0.2351504713 0.0505409092 -0.4092229903
-0.2333791703 0.0505330972 -0.4093690217
-0.2328574061 0.0502158627 -0.4110381901
-0.2317054421 0.0500555821 -0.4119392931
-0.2305499315 0.0498968102 -0.4128360450
-0.2293908447 0.0497395061 -0.4137284160
-0.2282282710 0.0495837219 -0.4146165252
-0.2276701629 0.0492714755 -0.4162780941
-0.2264973819 0.0491182804 -0.4171596766
-0.2253211886 0.0489666089 -0.4180368781
-0.2241414934 0.0488164611 -0.4189096093
-0.2229583263 0.0486678034 -0.4197779298
-0.2217717022 0.0485206842 -0.4206417501
-0.2211707681 0.0482147038 -0.4222930968
-0.2432057410 0.0498064719 -0.4048975408
-0.2420766801 0.0496328436 -0.4058380127
-0.2409438938 0.0494607091 -0.4067741036
-0.2398074120 0.0492900684 -0.4077059925
-0.2380316108 0.0492789000 -0.4078779221
-0.2368907630 0.0491116978 -0.4087987542
-0.2351167947 0.0491048843 -0.4089546502
-0.2333453149 0.0491004586 -0.4091014266
-0.2328232080 0.0487788878 -0.4107699096
-0.2316709906 0.0486181676 -0.4116710126
-0.2305152267 0.0484589338 -0.4125677943
-0.2293559462 0.0483012013 -0.4134601653
-0.2288041264 0.0479835533 -0.4151231945
-0.2270267159 0.0479902588 -0.4152318537
-0.2264616340 0.0476748124 -0.4168907702
-0.2258867770 0.0473600775 -0.4185499847
-0.2247036844 0.0472090989 -0.4194251001
-0.2235171050 0.0470596477 -0.4202957749
-0.2223270833 0.0469117388 -0.4211618900
-0.2217226475 0.0466011241 -0.4228148162
-0.2193509787 0.0467851087 -0.4220871925
-0.2431704849 0.0483668484 -0.4046229124
-0.2420411855 0.0481927171 -0.4055633247
-0.2415497452 0.0478591658 -0.4072494507
-0.2397714108 0.0478489436 -0.4074312449
-0.2386310250 0.0476793014 -0.4083588421
-0.2368544489 0.0476734340 -0.4085247517
-0.2350802720 0.0476699509 -0.4086814523
-0.2339350432 0.0475057513 -0.4095911980
-0.2327861935 0.0473430343 -0.4104966223
-0.2322539836 0.0470178351 -0.4121648371
-0.2310948819 0.0468577072 -0.4130639732
-0.2293182164 0.0468639657 -0.4131869674
-0.2281551212 0.0467073061 -0.4140749872
-0.2275962979 0.0463864729 -0.4157352149
-0.2264230698 0.0462324470 -0.4166168869
-0.2252463400 0.0460799374 -0.4174940884
-0.2246645540 0.0457620360 -0.4191505313
-0.2234777212 0.0456121676 -0.4200211763
-0.2222874612 0.0454638638 -0.4208872914
-0.2210937440 0.0453170948 -0.4217490256
-0.2193109244 0.0453403257 -0.4218133688
-0.2431323677 0.0469283722 -0.4043433070
-0.2413583249 0.0469179638 -0.4045369029
-0.2402280569 0.0467452854 -0.4054705203
-0.2390941381 0.0465740822 -0.4063999057
-0.2379565239 0.0464044027 -0.4073250592
-0.2368152291 0.0462362505 -0.4082458317
-0.2350409478 0.0462361127 -0.4084032476
-0.2345217019 0.0459044613 -0.4100745320
-0.2333695740 0.0457408391 -0.4109824002
-0.2322138101 0.0455787517 -0.4118859172
-0.2316714972 0.0452499278 -0.4135538340
-0.2298915833 0.0452591404 -0.4136798680
-0.2287251502 0.0451016128 -0.4145703018
-0.2275551707 0.0449456312 -0.4154563546
-0.2263817042 0.0447911657 -0.4163379669
-0.2252047211 0.0446382277 -0.4172151983
-0.2246225327 0.0443161093 -0.4188708365
-0.2228403986 0.0443369746 -0.4189563394
-0.2216530740 0.0441886485 -0.4198202193
-0.2204623073 0.0440418646 -0.4206796587
-0.2186825424 0.0440689474 -0.4207425117
-0.2437387705 0.0453233607 -0.4048022330
-0.2413171977 0.0454838835 -0.4042531550
-0.2401867062 0.0453106798 -0.4051867425
-0.2390525043 0.0451390035 -0.4061160982
-0.2379146665 0.0449688509 -0.4070411623
-0.2361408919 0.0449700914 -0.4072061181
-0.2349987924 0.0448034331 -0.4081201255
-0.2338530719 0.0446382612 -0.4090298712
-0.2327037305 0.0444746055 -0.4099353552
-0.2315508276 0.0443124808 -0.4108364582
-0.2316281646 0.0438076891 -0.4132691920
-0.2304619104 0.0436477661 -0.4141663611
-0.2292921543 0.0434893854 -0.4150591791
-0.2287264019 0.0431591757 -0.4167226553
-0.2269419581 0.0431772433 -0.4168315530
-0.2257616371 0.0430234782 -0.4177111089
-0.2245777994 0.0428712666 -0.4185861945
-0.2233905345 0.0427206010 -0.4194568992
-0.2216079831 0.0427468754 -0.4195364118
-0.2204169780 0.0425996929 -0.4203957915
-0.2192225605 0.0424540602 -0.4212507904
-0.2443420589 0.0437118858 -0.4052547812
-0.2419175059 0.0438790768 -0.4047096670
-0.2401424497 0.0438772440 -0.4048980474
-0.2390080839 0.0437050834 -0.4058273733
-0.2378699929 0.0435344242 -0.4067524374
-0.2360960692 0.0435389988 -0.4069181383
-0.2355828732 0.0431976616 -0.4085896909
-0.2338078171 0.0432062000 -0.4087419212
-0.2326582819 0.0430421121 -0.4096472561
-0.2321249694 0.0427039973 -0.4113132358
-0.2309651971 0.0425425433 -0.4122124016
-0.2298018783 0.0423826016 -0.4131072164
-0.2292455286 0.0420474149 -0.4147695601
-0.2286794335 0.0417129286 -0.4164323211
-0.2268949002 0.0417344235 -0.4165419340
-0.2257143259 0.0415802263 -0.4174215198
-0.2245302498 0.0414276049 -0.4182966053
-0.2233427614 0.0412765257 -0.4191673398
-0.2221518159 0.0411270149 -0.4200335741
-0.2209574133 0.0409790576 -0.4208953083
-0.2197595686 0.0408326499 -0.4217524827
-0.2442950755 0.0422691740 -0.4049589038
-0.2418705076 0.0424434878 -0.4044153094
-0.2394542545 0.0426211767 -0.4038574994
-0.2383226901 0.0424489677 -0.4047843516
-0.2371874005 0.0422782376 -0.4057069421
-0.2360484749 0.0421090871 -0.4066251814
-0.2355348915 0.0417634472 -0.4082959890
-0.2343856245 0.0415968820 -0.4092080593
-0.2332327813 0.0414318666 -0.4101159871
-0.2320763320 0.0412683897 -0.4110194743
-0.2315330058 0.0409267023 -0.4126850069
-0.2303663045 0.0407658704 -0.4135822356
-0.2291960716 0.0406066179 -0.4144749641
-0.2292369604 0.0400868542 -0.4169104695
-0.2268450409 0.0402927585 -0.4162473679
-0.2256642133 0.0401381552 -0.4171268940
-0.2244799435 0.0399851166 -0.4180020690
-0.2226974815 0.0400162823 -0.4180898964
-0.2215094864 0.0398667715 -0.4189538360
-0.2209064066 0.0395353623 -0.4206006825
-0.2197083682 0.0393885709 -0.4214579761
-0.2442451268 0.0408276841 -0.4046580195
-0.2411766052 0.0411886424 -0.4033724070
-0.2394044548 0.0411939435 -0.4035597742
-0.2382726520 0.0410212018 -0.4044865966
-0.2371371537 0.0408500284 -0.4054091275
-0.2353660911 0.0408617407 -0.4055738151
-0.2348552197 0.0405122340 -0.4072414041
-0.2337088287 0.0403456464 -0.4081510603
-0.2319361269 0.0403633341 -0.4082955718
-0.2314052731 0.0400171168 -0.4099575579
-0.2302481830 0.0398551449 -0.4108543098
-0.2290874571 0.0396947488 -0.4117466807
-0.2285335213 0.0393514521 -0.4134051204
-0.2279698402 0.0390088782 -0.4150638282
-0.2261882871 0.0390375517 -0.4151727259
-0.2250103951 0.0388829559 -0.4160499275
-0.2238290757 0.0387299173 -0.4169227183
-0.2220497280 0.0387649424 -0.4170090258
-0.2208646387 0.0386154130 -0.4178706110
-0.2208526284 0.0380928516 -0.4203011394
-0.2441923469 0.0393874310 -0.4043522179
-0.2417678982 0.0395759568 -0.4038117826
-0.2399926335 0.0395840593 -0.4040024877
-0.2388576269 0.0394103713 -0.4049317241
-0.2370840609 0.0394229516 -0.4051064551
-0.2359447032 0.0392528214 -0.4060246944
-0.2354304045 0.0388985723 -0.4076938331
-0.2342807204 0.0387310572 -0.4086059332
-0.2325049192 0.0387516655 -0.4087536633
-0.2319705933 0.0384007432 -0.4104171395
-0.2308101505 0.0382379033 -0.4113162756
-0.2296461463 0.0380766243 -0.4122110009
-0.2290887684 0.0377286300 -0.4138709605
-0.2285216004 0.0373813510 -0.4155312777
-0.2261329442 0.0376021452 -0.4148690403
-0.2249548584 0.0374471284 -0.4157462418
-0.2243709415 0.0371037349 -0.4173979759
-0.2219938636 0.0373321027 -0.4167060852
-0.2417123020 0.0381440222 -0.4035027027
-0.2399369925 0.0381554291 -0.4036941826
-0.2388017327 0.0379812308 -0.4046234190
-0.2376627475 0.0378085971 -0.4055483341
-0.2358885556 0.0378265195 -0.4057170749
-0.2353739291 0.0374679677 -0.4073853791
-0.2342240661 0.0373000018 -0.4082974494
-0.2330705673 0.0371335819 -0.4092051685
-0.2325328141 0.0367779322 -0.4108701646
-0.2313690633 0.0366142280 -0.4117716849
-0.2302017659 0.0364520587 -0.4126687944
-0.2296409160 0.0360993743 -0.4143303633
-0.2284633666 0.0359399654 -0.4152210355
-0.2266785651 0.0359750502 -0.4153338373
-0.2254971415 0.0358191617 -0.4162133634
-0.2243122309 0.0356649049 -0.4170884192
-0.2225295752 0.0357063748 -0.4171786606
-0.2440780550 0.0365105905 -0.4037259519
-0.2416538149 0.0367133357 -0.4031887352
-0.2398784608 0.0367280319 -0.4033809900
-0.2393805087 0.0363614596 -0.4050562680
-0.2382383347 0.0361878499 -0.4059835970
-0.2370924801 0.0360158160 -0.4069067240
-0.2359429598 0.0358453877 -0.4078254402
-0.2354151756 0.0354827419 -0.4094958901
-0.2336330861 0.0355091505 -0.4096500874
-0.2324727327 0.0353433788 -0.4105559289
-0.2319248468 0.0349841565 -0.4122205377
-0.2307542413 0.0348211341 -0.4131200314
-0.2295800596 0.0346596651 -0.4140151143
-0.2284023315 0.0344997905 -0.4149058461
-0.2272210568 0.0343415290 -0.4157920182
-0.2446630001 0.0348798297 -0.4041432738
-0.2422358692 0.0350891314 -0.4036101997
-0.2398170382 0.0353019200 -0.4030628800
-0.2399561554 0.0347353294 -0.4054825902
-0.2381763905 0.0347569361 -0.4056646526
-0.2370303422 0.0345844589 -0.4065875709
-0.2358806282 0.0344134979 -0.4075063765
-0.2347273082 0.0342441313 -0.4084208012
-0.2323262393 0.0344722904 -0.4078159034
-0.2317907959 0.0341085568 -0.4094767570
-0.2312456518 0.0337455086 -0.4111380577
-0.2300779969 0.0335824266 -0.4120351672
-0.2289066762 0.0334209837 -0.4129278362
-0.2283384949 0.0330609567 -0.4145856202
-0.2271570265 0.0329022445 -0.4154718220
-0.2445984185 0.0334408246 -0.4038169980
-0.2421714813 0.0336572379 -0.4032856226
-0.2397527844 0.0338771194 -0.4027399123
-0.2392541617 0.0335019156 -0.4044134319
-0.2381116003 0.0333273485 -0.4053406715
-0.2375965118 0.0329539031 -0.4070130289
-0.2358154804 0.0329829119 -0.4071823359
-0.2359119207 0.0324104130 -0.4096051753
-0.2335048020 0.0326448195 -0.4090068042
-0.2329628915 0.0322759263 -0.4106716216
-0.2317954749 0.0321104079 -0.4115753770
-0.2306244820 0.0319464616 -0.4124747813
-0.2294499129 0.0317841284 -0.4133698344
-0.2288781852 0.0314194411 -0.4150290191
-0.2270901650 0.0314642638 -0.4151466787
-0.2181745768 0.0311636887 -0.4180162549
-0.2438849062 0.0322050601 -0.4027496576
-0.2414611131 0.0324290358 -0.4022174478
-0.2390456796 0.0326564610 -0.4016710520
-0.2391866744 0.0320741385 -0.4040846825
-0.2374099642 0.0321028270 -0.4042658806
-0.2375284731 0.0315213278 -0.4066832960
-0.2357474715 0.0315536708 -0.4068534672
-0.2358433455 0.0309730638 -0.4092744887
-0.2334364504 0.0312146340 -0.4086777866
-0.2328941375 0.0308414754 -0.4103417099
-0.2317265570 0.0306754727 -0.4112454355
-0.2305553555 0.0305110980 -0.4121447802
-0.2293805927 0.0303483550 -0.4130397439
-0.2282023281 0.0301871840 -0.4139303267
-0.2270205319 0.0300276242 -0.4148165286
-0.2258352190 0.0298696738 -0.4156983197
-0.2240496129 0.0299223792 -0.4158008993
-0.2222668976 0.0299775004 -0.4158944786
-0.2210775167 0.0298252087 -0.4167582989
-0.2192974538 0.0298847668 -0.4168359935
-0.2181044072 0.0297360923 -0.4176886380
-0.2174888700 0.0293779764 -0.4193229675
-0.2438147515 0.0307725482 -0.4024144411
-0.2413911670 0.0310035814 -0.4018839598
-0.2389758974 0.0312380847 -0.4013392627
-0.2384795547 0.0308547802 -0.4030084014
-0.2373396605 0.0306796823 -0.4039330781
-0.2368268371 0.0302981548 -0.4056010246
-0.2356766015 0.0301257726 -0.4065196514
-0.2351473421 0.0297460333 -0.4081863761
-0.2333652228 0.0297857933 -0.4083438814
-0.2328225821 0.0294083506 -0.4100068212
-0.2316548079 0.0292419363 -0.4109105170
-0.2304834574 0.0290771108 -0.4118098319
-0.2293085456 0.0289139058 -0.4127047658
-0.2281300575 0.0287523028 -0.4135953486
-0.2263452113 0.0288043320 -0.4137122929
-0.2251628488 0.0286463965 -0.4145916104
-0.2233804911 0.0287028905 -0.4146928489
-0.2216009349 0.0287618395 -0.4147849679
-0.2204145491 0.0286095627 -0.4156464338
-0.2192247063 0.0284588933 -0.4165034294
-0.2180314809 0.0283098444 -0.4173560441
-0.2174155563 0.0279475320 -0.4189894497
-0.2455246896 0.0293158330 -0.4018570483
-0.2424503416 0.0297603142 -0.4006057680
-0.2406756431 0.0297894347 -0.4008088112
-0.2395429462 0.0296106581 -0.4017418921
-0.2384065539 0.0294334833 -0.4026707411
-0.2366329283 0.0294692535 -0.4028511643
-0.2361228019 0.0290838946 -0.4045157433
-0.2349754274 0.0289115030 -0.4054318368
-0.2344488651 0.0285279583 -0.4070951939
-0.2332912236 0.0283583067 -0.4080050588
-0.2327481657 0.0279766321 -0.4096670151
-0.2315802425 0.0278097261 -0.4105707109
-0.2304086834 0.0276444796 -0.4114699364
-0.2286246866 0.0276957713 -0.4116013646
-0.2274491787 0.0275341794 -0.4124895036
-0.2256674916 0.0275900178 -0.4126049578
-0.2250876427 0.0272158403 -0.4142525792
-0.2233052552 0.0272757616 -0.4143545926
-0.2227121741 0.0269039981 -0.4159980118
-0.2209291905 0.0269679651 -0.4160864651
-0.2197360694 0.0268165004 -0.4169457555
-0.2185394913 0.0266666729 -0.4178006649
-0.2179199904 0.0262997989 -0.4194353819
-0.2167134732 0.0261528362 -0.4202835560
-0.2521255016 0.0273892935 -0.4022476971
-0.2503301203 0.0274093542 -0.4024988115
-0.2478853762 0.0276442599 -0.4020122588
-0.2448001951 0.0280955732 -0.4007803798
-0.2423748076 0.0283381399 -0.4002625942
-0.2406001389 0.0283705015 -0.4004664719
-0.2394672781 0.0281912424 -0.4013994634
-0.2383307368 0.0280135423 -0.4023283422
-0.2371904999 0.0278374683 -0.4032528400
-0.2366770059 0.0274473839 -0.4049189389
-0.2355263978 0.0272740480 -0.4058373570
-0.2337479740 0.0273188744 -0.4060008824
-0.2332143635 0.0269322265 -0.4076613784
-0.2326709479 0.0265462846 -0.4093224108
-0.2308878750 0.0265968442 -0.4094680846
-0.2303311378 0.0262132380 -0.4111251831
-0.2285471708 0.0262679178 -0.4112574160
-0.2267659158 0.0263250787 -0.4113804698
-0.2249874026 0.0263846871 -0.4114945233
-0.2250096351 0.0257867109 -0.4139084816
-0.2232273072 0.0258500017 -0.4140113592
-0.2220408320 0.0256949086 -0.4148795009
-0.2208509445 0.0255414341 -0.4157432020
-0.2196576148 0.0253895801 -0.4166024625
-0.2184609324 0.0252393670 -0.4174572825
-0.2178410292 0.0248683151 -0.4190911055
-0.2166343182 0.0247209836 -0.4199392200
-0.2556428909 0.0259017628 -0.4013608098
-0.2531833053 0.0261343326 -0.4009115994
-0.2513888478 0.0261554718 -0.4011702836
-0.2495964915 0.0261792596 -0.4014196992
-0.2471549958 0.0264216997 -0.4009323418
-0.2447215468 0.0266677383 -0.4004306495
-0.2422963828 0.0269173309 -0.3999145925
-0.2405218035 0.0269529894 -0.4001193345
-0.2400280088 0.0265552197 -0.4017896950
-0.2388883084 0.0263765678 -0.4027209580
-0.2377448231 0.0261995550 -0.4036478698
-0.2372279018 0.0258047059 -0.4053154290
-0.2354470342 0.0258503035 -0.4054888785
-0.2342926562 0.0256780889 -0.4064030349
-0.2331346422 0.0255075376 -0.4073128104
-0.2325908989 0.0251173358 -0.4089728296
-0.2308078706 0.0251712296 -0.4091193676
-0.2296391428 0.0250055082 -0.4100161493
-0.2278583795 0.0250639897 -0.4101468325
-0.2266856283 0.0249019656 -0.4110324979
-0.2255094349 0.0247415695 -0.4119138420
-0.2249288112 0.0243589673 -0.4135594666
-0.2231465727 0.0244256482 -0.4136632681
-0.2225527614 0.0240455028 -0.4153047502
-0.2207698971 0.0241162926 -0.4153950214
-0.2195764184 0.0239640549 -0.4162542224
-0.2183795720 0.0238134563 -0.4171090126
-0.2171792835 0.0236645099 -0.4179593325
-0.2159756720 0.0235171970 -0.4188051820
-0.2573617399 0.0244294330 -0.4007181525
-0.2548975050 0.0246657599 -0.4002827406
-0.2524411082 0.0249057785 -0.3998328149
-0.2499926984 0.0251494385 -0.3993684947
-0.2488603741 0.0249581505 -0.4003375471
-0.2464220822 0.0252081007 -0.3998494148
-0.2433438748 0.0256819632 -0.3986179531
-0.2422151417 0.0254979730 -0.3995617926
-0.2404406071 0.0255368855 -0.3997673690
-0.2393074185 0.0253566150 -0.4007002115
-0.2381705791 0.0251779351 -0.4016288817
-0.2376629710 0.0247781835 -0.4032947421
-0.2365156859 0.0246022828 -0.4042172730
-0.2347379774 0.0246516187 -0.4043892324
-0.2335865349 0.0244794171 -0.4053008556
-0.2330521196 0.0240842737 -0.4069593251
-0.2318904102 0.0239148606 -0.4078647196
-0.2307250649 0.0237470698 -0.4087657928
-0.2295561731 0.0235809144 -0.4096625149
-0.2283837348 0.0234164000 -0.4105548561
-0.2266026288 0.0234802905 -0.4106796682
-0.2254262418 0.0233194698 -0.4115609527
-0.2242463976 0.0231602937 -0.4124377966
-0.2236588150 0.0227747094 -0.4140803516
-0.2224688828 0.0226183906 -0.4149506986
-0.2206861228 0.0226925667 -0.4150419235
-0.2200786620 0.0223107021 -0.4166781008
-0.2188784331 0.0221593231 -0.4175350666
-0.2176748365 0.0220095925 -0.4183876514
-0.2158912271 0.0220919959 -0.4184518754
-0.2584108412 0.0231753532 -0.3993494511
-0.2559449673 0.0234159529 -0.3989251852
-0.2541496158 0.0234387219 -0.3992017508
-0.2516964972 0.0236862302 -0.3987510502
-0.2492512614 0.0239373874 -0.3982859552
-0.2487755865 0.0235229731 -0.3999754190
-0.2463375926 0.0237799212 -0.3994890749
-0.2439077795 0.0240404848 -0.3989884555
-0.2427758425 0.0238554962 -0.3999346197
-0.2416402251 0.0236721095 -0.4008766413
-0.2398620248 0.0237159077 -0.4010788798
-0.2393577248 0.0233102683 -0.4027479589
-0.2388437390 0.0229052845 -0.4044176340
-0.2370605469 0.0229549203 -0.4046021402
-0.2359064370 0.0227796789 -0.4055228531
-0.2347487062 0.0226060916 -0.4064392447
-0.2335873097 0.0224341284 -0.4073512852
-0.2318049222 0.0224926099 -0.4075063169
-0.2306394428 0.0223243665 -0.4084072709
-0.2294704169 0.0221577883 -0.4093039632
-0.2282978147 0.0219928287 -0.4101962149
-0.2271217257 0.0218295157 -0.4110840857
-0.2259420604 0.0216678493 -0.4119676650
-0.2247589380 0.0215078201 -0.4128468335
-0.2229768187 0.0215812810 -0.4129523635
-0.2223822325 0.0211927388 -0.4145917594
-0.2211886942 0.0210376699 -0.4154576659
-0.2205777466 0.0206511859 -0.4170951843
-0.2193741798 0.0204990245 -0.4179544747
-0.2187467366 0.0201146659 -0.4195898175
-0.2169568539 0.0201996956 -0.4196594656
-0.2163162977 0.0198179018 -0.4212903082
-0.2145260870 0.0199070554 -0.4213464260
-0.2551915348 0.0221942551 -0.3978429437
-0.2533991933 0.0222207159 -0.3981177807
-0.2516088188 0.0222498719 -0.3983832896
-0.2491639107 0.0225080140 -0.3979199231
-0.2480342835 0.0223161187 -0.3988862932
-0.2462501973 0.0223532151 -0.3991238773
-0.2438206822 0.0226207767 -0.3986250758
-0.2433332354 0.0222069453 -0.4003007710
-0.2415528446 0.0222513806 -0.4005131423
-0.2397747487 0.0222984720 -0.4007161260
-0.2386345565 0.0221183356 -0.4016470611
-0.2387556881 0.0214793105 -0.4040528238
-0.2376020402 0.0213014912 -0.4049801826
-0.2364447266 0.0211253222 -0.4059032202
-0.2359070927 0.0207191259 -0.4075688422
-0.2347394228 0.0205457713 -0.4084856510
-0.2329509407 0.0206066873 -0.4086464345
-0.2311650813 0.0206701085 -0.4087980688
-0.2299928218 0.0205026381 -0.4096970260
-0.2288169414 0.0203368217 -0.4105915725
-0.2276375443 0.0201726519 -0.4114817977
-0.2264546603 0.0200101007 -0.4123676419
-0.2246697694 0.0200844631 -0.4124830961
-0.2228877842 0.0201613028 -0.4125895202
-0.2222928256 0.0197685715 -0.4142280221
-0.2205102593 0.0198495612 -0.4143209457
-0.2192841023 0.0190699156 -0.4175894856
-0.2186563164 0.0186813902 -0.4192238450
-0.2174426168 0.0185317975 -0.4200763106
-0.2167984694 0.0181454290 -0.4217084050
-0.2150051594 0.0182376690 -0.4217676222
-0.2132149637 0.0183323342 -0.4218178689
-0.2114279270 0.0184294619 -0.4218591154
-0.2557659447 0.0205244534 -0.3981793821
-0.2533084750 0.0207826849 -0.3977442682
-0.2508589625 0.0210446026 -0.3972946703
-0.2490736842 0.0210801009 -0.3975491226
-0.2479438931 0.0208876971 -0.3985153437
-0.2461598963 0.0209280122 -0.3987537920
-0.2443781048 0.0209709518 -0.3989829719
-0.2432428896 0.0207844693 -0.3999315202
-0.2421039194 0.0205995794 -0.4008758068
-0.2396845967 0.0208824854 -0.4003486037
-0.2391795963 0.0204683039 -0.4020155966
-0.2386647910 0.0200548191 -0.4036831558
-0.2375109941 0.0198765080 -0.4046104252
-0.2369797230 0.0194648709 -0.4062768817
-0.2364386171 0.0190539863 -0.4079438448
-0.2358877361 0.0186438523 -0.4096112847
-0.2334762961 0.0189434905 -0.4090270400
-0.2316874117 0.0190098025 -0.4091819525
-0.2305118889 0.0188414324 -0.4100832045
-0.2293327898 0.0186747368 -0.4109800756
-0.2281500846 0.0185096934 -0.4118725657
-0.2275652438 0.0181077868 -0.4135232270
-0.2191912681 0.0176422969 -0.4172195792
-0.2185631543 0.0172496215 -0.4188528955
-0.2173493356 0.0170996562 -0.4197053015
-0.2167048007 0.0167091470 -0.4213364124
-0.2143421471 0.0170474369 -0.4206111729
-0.2131214887 0.0169029385 -0.4214477241
-0.2107716501 0.0172468834 -0.4207001030
-0.2532148659 0.0193461515 -0.3973658085
-0.2501066029 0.0198483653 -0.3962031305
-0.2483244240 0.0198876038 -0.3964559138
-0.2471974790 0.0196951460 -0.3974194825
-0.2454165667 0.0197391957 -0.3976562619
-0.2442850322 0.0195505247 -0.3986088932
-0.2431496829 0.0193634853 -0.3995573819
-0.2420105934 0.0191780925 -0.4005015790
-0.2402297109 0.0192311872 -0.4007089436
-0.2384511530 0.0192869212 -0.4009070098
-0.2379390150 0.0188696403 -0.4025711119
-0.2374171168 0.0184530746 -0.4042357504
-0.2368854433 0.0180371944 -0.4059011638
-0.2357211560 0.0178612582 -0.4068221450
-0.2357927263 0.0172076654 -0.4092333913
-0.2339982539 0.0172743015 -0.4094007909
-0.2322064489 0.0173434839 -0.4095589817
-0.2304172367 0.0174152497 -0.4097080231
-0.2292379737 0.0172480885 -0.4106048346
-0.2280552238 0.0170826372 -0.4114972651
-0.2268688530 0.0169188436 -0.4123852551
-0.2196777612 0.0159713831 -0.4176201820
-0.2184671909 0.0158193707 -0.4184770882
-0.2172532529 0.0156690646 -0.4193294048
-0.2160359174 0.0155204339 -0.4201772213
-0.2142461091 0.0156199047 -0.4202360809
-0.2130253166 0.0154750580 -0.4210726619
-0.2112385482 0.0155790690 -0.4211158156
-0.2524565756 0.0181477368 -0.3962711692
-0.2500106692 0.0184240919 -0.3958226740
-0.2475727648 0.0187041368 -0.3953598142
-0.2464486361 0.0185116511 -0.3963207304
-0.2459706068 0.0180821810 -0.3979991674
-0.2441890389 0.0181316007 -0.3982300162
-0.2436974794 0.0177044477 -0.3999050558
-0.2425552607 0.0175180603 -0.4008516669
-0.2407714576 0.0175739396 -0.4010623097
-0.2389899939 0.0176324174 -0.4012638628
-0.2378426939 0.0174519606 -0.4021927118
-0.2379491478 0.0167891178 -0.4045953453
-0.2374139577 0.0163685400 -0.4062620103
-0.2362464517 0.0161916893 -0.4071852863
-0.2356948555 0.0157730617 -0.4088506401
-0.2345169336 0.0155991130 -0.4097675681
-0.2327221185 0.0156711657 -0.4099291265
-0.2309299260 0.0157457851 -0.4100815356
-0.2297474593 0.0155777847 -0.4109805822
-0.2285614312 0.0154114561 -0.4118753076
-0.2207864523 0.0146971317 -0.4163782597
-0.2195792198 0.0145430388 -0.4172394872
-0.2183685154 0.0143906865 -0.4180962443
-0.2171544731 0.0142399846 -0.4189485908
-0.2159370035 0.0140909990 -0.4197963178
-0.2141472995 0.0141939176 -0.4198561609
-0.2129264474 0.0140487263 -0.4206926227
-0.2111397833 0.0141561888 -0.4207367599
-0.2516957819 0.0169584267 -0.3951735795
-0.2492532879 0.0172422193 -0.3947245479
-0.2474742681 0.0172883775 -0.3949765265
-0.2463500649 0.0170953404 -0.3959373534
-0.2452220172 0.0169039834 -0.3968939483
-0.2440902144 0.0167142525 -0.3978463709
-0.2429546267 0.0165261868 -0.3987946212
-0.2418152988 0.0163397919 -0.3997385800
-0.2400346547 0.0163993929 -0.3999477327
-0.2382563502 0.0164616257 -0.4001476169
-0.2377435118 0.0160358492 -0.4018094838
-0.2372208387 0.0156107945 -0.4034720063
-0.2379391342 0.0146939633 -0.4066159427
-0.2367684841 0.0145161478 -0.4075416028
-0.2355940789 0.0143400459 -0.4084628820
-0.2350322157 0.0139179761 -0.4101275504
-0.2332344800 0.0139928907 -0.4102924168
-0.2308293730 0.0143189384 -0.4096955061
-0.2201005369 0.0135227451 -0.4152215123
-0.2188963741 0.0133687155 -0.4160804152
-0.2176888287 0.0132163456 -0.4169348776
-0.2164778113 0.0130656892 -0.4177848399
-0.2152634859 0.0129167484 -0.4186303020
-0.2134771496 0.0130234892 -0.4186888337
-0.2128247917 0.0126239806 -0.4203076661
-0.2491517812 0.0158248264 -0.3943355083
-0.2473729402 0.0158741977 -0.3945883811
-0.2462485582 0.0156806316 -0.3955490589
-0.2451204360 0.0154887130 -0.3965055943
-0.2446348816 0.0150518678 -0.3981800079
-0.2428528070 0.0151099153 -0.3984059691
-0.2417133600 0.0149229942 -0.3993498385
-0.2399328798 0.0149858473 -0.3995599449
-0.2387890220 0.0148027698 -0.4004927874
-0.2370102257 0.0148704145 -0.4006868899
-0.2371184230 0.0141920550 -0.4030828178
-0.2372106910 0.0135134729 -0.4054841697
-0.2360429317 0.0133356890 -0.4064072073
-0.2342526168 0.0134104891 -0.4065818489
-0.2343124002 0.0127337305 -0.4089871049
-0.2325179130 0.0128124105 -0.4091504216
-0.2307260185 0.0128936851 -0.4093047082
-0.2295432836 0.0127247898 -0.4102036357
-0.2283570319 0.0125576034 -0.4110981226
-0.2229859382 0.0121607846 -0.4138664901
-0.2217853218 0.0120025380 -0.4147365987
-0.2205812782 0.0118460096 -0.4156021476
-0.2187925726 0.0119472975 -0.4156909585
-0.2175848633 0.0117945950 -0.4165452719
-0.2157989740 0.0119005553 -0.4166182578
-0.2145877630 0.0117516452 -0.4174614251
-0.2133732140 0.0116044534 -0.4183000922
-0.2121553421 0.0114589697 -0.4191341996
-0.2490473539 0.0144090550 -0.3939416409
-0.2472687066 0.0144615974 -0.3941954076
-0.2467962652 0.0140181649 -0.3958719969
-0.2456650287 0.0138252163 -0.3968309462
-0.2445300072 0.0136339581 -0.3977856338
-0.2433911711 0.0134443771 -0.3987360597
-0.2422485799 0.0132564539 -0.3996823132
-0.2398282290 0.0135738859 -0.3991672695
-0.2386842519 0.0133903017 -0.4001000226
-0.2375365943 0.0132084256 -0.4010285735
-0.2363852710 0.0130281867 -0.4019528329
-0.2364799380 0.0123421168 -0.4043495357
-0.2353151590 0.0121643003 -0.4052700996
-0.2335280627 0.0122428993 -0.4054431319
-0.2335903198 0.0115586324 -0.4078438878
-0.2330240756 0.0111298272 -0.4095018506
-0.2312291861 0.0112139815 -0.4096594155
-0.2294370085 0.0113007100 -0.4098078310
-0.2288537621 0.0108761322 -0.4114573598
-0.2228794098 0.0107384138 -0.4134712517
-0.2216787040 0.0105797667 -0.4143412411
-0.2204745561 0.0104228482 -0.4152067304
-0.2192669511 0.0102676470 -0.4160677791
-0.2174782455 0.0103744688 -0.4161507785
-0.2156925350 0.0104838246 -0.4162247479
-0.2144811898 0.0103345672 -0.4170678258
-0.2132665366 0.0101870280 -0.4179063439
-0.2120485902 0.0100411987 -0.4187404811
-0.2489400059 0.0129948761 -0.3935430348
-0.2478162795 0.0127980905 -0.3945101202
-0.2473405004 0.0123498710 -0.3961880505
-0.2455573976 0.0124094700 -0.3964318931
-0.2450679988 0.0119636003 -0.3981064260
-0.2439260781 0.0117729986 -0.3990592659
-0.2427804172 0.0115840621 -0.4000079036
-0.2403574586 0.0119080031 -0.3994973004
-0.2392103374 0.0117234336 -0.4004324377
-0.2380595356 0.0115405740 -0.4013632536
-0.2369050533 0.0113593722 -0.4022898972
-0.2363714725 0.0109223695 -0.4039495289
-0.2352065891 0.0107440967 -0.4048699737
-0.2334196568 0.0108259711 -0.4050439596
-0.2328659296 0.0103926538 -0.4066978991
-0.2323023677 0.0099601150 -0.4083523154
-0.2305108160 0.0100480206 -0.4085083902
-0.2293279022 0.0098782787 -0.4094071090
-0.2239674777 0.0094784154 -0.4121968448
-0.2233603597 0.0090552224 -0.4138346016
-0.2215692997 0.0091586579 -0.4139410257
