-0.1564348936 0.0510404073 -0.4406184554
-0.1556966454 0.0507997796 -0.4421878457
-0.1544504762 0.0507090986 -0.4429023266
-0.1527066529 0.0507691316 -0.4427560568
-0.1519497782 0.0505326726 -0.4443171918
-0.1502071619 0.0505964309 -0.4441576600
-0.1494379342 0.0503627658 -0.4457132220
-0.1476967335 0.0504302904 -0.4455404580
-0.1469151825 0.0501994267 -0.4470903575
-0.1456497312 0.0501202382 -0.4477718472
-0.1443816125 0.0500426739 -0.4484485388
-0.1431108266 0.0499667414 -0.4491204619
-0.1427652240 0.0495903641 -0.4515333772
-0.1414822340 0.0495173521 -0.4521993399
-0.1401966512 0.0494459420 -0.4528605044
-0.1389084458 0.0493762605 -0.4535167515
-0.1380676329 0.0491563864 -0.4550482929
-0.1363243163 0.0492417999 -0.4548147619
-0.1354714483 0.0490248725 -0.4563400149
-0.1341695487 0.0489616208 -0.4569785893
-0.1324292570 0.0490525365 -0.4567252398
-0.1311258972 0.0489928089 -0.4573523104
-0.1298201233 0.0489347093 -0.4579744637
-0.1285118759 0.0488782972 -0.4585916698
-0.1272012442 0.0488235168 -0.4592038989
-0.1258882284 0.0487704612 -0.4598112702
-0.1245727912 0.0487190112 -0.4604136348
-0.1228439882 0.0488228276 -0.4601124525
-0.1215275154 0.0487748720 -0.4607033730
-0.1835120767 0.0519064367 -0.4242534339
-0.1817612201 0.0519242771 -0.4242669344
-0.1811556071 0.0516518727 -0.4258871377
-0.1794046909 0.0516735874 -0.4258873761
-0.1787862480 0.0514037423 -0.4275031984
-0.1781581640 0.0511348136 -0.4291189313
-0.1764041930 0.0511620454 -0.4291014373
-0.1752084196 0.0510435887 -0.4298938811
-0.1740095168 0.0509268008 -0.4306817651
-0.1722591668 0.0509601384 -0.4306422472
-0.1699673384 0.0511445627 -0.4297688901
-0.1687690467 0.0510335527 -0.4305369854
-0.1670292765 0.0510735363 -0.4304713011
-0.1658282280 0.0509660132 -0.4312283397
-0.1651559472 0.0507100634 -0.4328143001
-0.1639456451 0.0506054461 -0.4335643351
-0.1627323478 0.0505024530 -0.4343098402
-0.1609943062 0.0505519696 -0.4342112541
-0.1597785205 0.0504524820 -0.4349455833
-0.1580447108 0.0505060442 -0.4348317087
-0.1578499526 0.0501066446 -0.4372462928
-0.1566221118 0.0500117615 -0.4379689097
-0.1564014107 0.0496140160 -0.4403862059
-0.1551611722 0.0495218486 -0.4411035180
-0.1544162482 0.0492786318 -0.4426696897
-0.1521774083 0.0494954176 -0.4416687191
-0.1514234990 0.0492552035 -0.4432274997
-0.1501720399 0.0491695963 -0.4439260960
-0.1489178687 0.0490856096 -0.4446201026
-0.1476609260 0.0490032621 -0.4453092813
-0.1468789279 0.0487684682 -0.4468587041
-0.1456131935 0.0486892089 -0.4475403428
-0.1448154747 0.0484570600 -0.4490858018
-0.1435409039 0.0483808666 -0.4497597814
-0.1427274793 0.0481514037 -0.4513011575
-0.1414441913 0.0480783284 -0.4519672990
-0.1401582360 0.0480069295 -0.4526285827
-0.1388696879 0.0479372032 -0.4532850087
-0.1380284876 0.0477134325 -0.4548160434
-0.1362849325 0.0478027463 -0.4545834363
-0.1349887699 0.0477380082 -0.4552253187
-0.1336900443 0.0476749577 -0.4558623135
-0.1319530755 0.0477699563 -0.4556080997
-0.1302206665 0.0478669703 -0.4553455710
-0.1293503493 0.0476524755 -0.4568542242
-0.1276201904 0.0477531590 -0.4565785527
-0.1267379373 0.0475417189 -0.4580807686
-0.1254281551 0.0474888235 -0.4586866796
-0.1237014681 0.0475949235 -0.4583912790
-0.1228014529 0.0473880619 -0.4598835707
-0.1214846149 0.0473401882 -0.4604746699
-0.1846377403 0.0501825660 -0.4256179035
-0.1823060513 0.0503530651 -0.4248317778
-0.1811258346 0.0502263531 -0.4256465435
-0.1799424738 0.0501012132 -0.4264568985
-0.1787558794 0.0499777123 -0.4272628427
-0.1781273633 0.0497046523 -0.4288780689
-0.1769311279 0.0495840609 -0.4296771884
-0.1757318079 0.0494650826 -0.4304719269
-0.1745292842 0.0493477173 -0.4312621951
-0.1733236313 0.0492320061 -0.4320479035
-0.1710250676 0.0494234115 -0.4311801493
-0.1698198766 0.0493115261 -0.4319526255
-0.1675349623 0.0495080091 -0.4310632348
-0.1663302332 0.0493999869 -0.4318224788
-0.1656542718 0.0491396375 -0.4334100187
-0.1639119238 0.0491888262 -0.4333274066
-0.1621732563 0.0492401607 -0.4332361519
-0.1609600335 0.0491389222 -0.4339751601
-0.1597439051 0.0490392745 -0.4347096980
-0.1580098867 0.0490965955 -0.4345966876
-0.1573029906 0.0488448516 -0.4361650944
-0.1565864682 0.0485942401 -0.4377328157
-0.1558603644 0.0483447313 -0.4392999709
-0.1551246494 0.0480963439 -0.4408664405
-0.1543793380 0.0478490852 -0.4424321353
-0.1521403193 0.0480735637 -0.4414326251
-0.1513859928 0.0478293747 -0.4429908693
-0.1501342207 0.0477436818 -0.4436896741
-0.1488796920 0.0476596095 -0.4443837702
-0.1476224661 0.0475772209 -0.4450731277
-0.1473175883 0.0471804291 -0.4474863410
-0.1460480690 0.0471008793 -0.4481700063
-0.1452464610 0.0468645915 -0.4497168660
-0.1439680755 0.0467881411 -0.4503927827
-0.1426870674 0.0467133820 -0.4510639012
-0.1409432292 0.0467993505 -0.4508567452
-0.1396604627 0.0467281379 -0.4515164196
-0.1383750886 0.0466585830 -0.4521712959
-0.1375369430 0.0464310870 -0.4537000954
-0.1357966959 0.0465244614 -0.4534664750
-0.1349464357 0.0462999567 -0.4549890459
-0.1332082152 0.0463970378 -0.4547422826
-0.1310388446 0.0466564409 -0.4536014199
-0.1301776022 0.0464367643 -0.4551111460
-0.1288782358 0.0463790484 -0.4557302594
-0.1275765151 0.0463230126 -0.4563445151
-0.1266937554 0.0461077653 -0.4578462541
-0.1253836602 0.0460548922 -0.4584523439
-0.1240711883 0.0460037664 -0.4590534866
-0.1227563247 0.0459542945 -0.4596496522
-0.1214391813 0.0459064990 -0.4602409005
-0.1840282828 0.0489041060 -0.4245688915
-0.1822737604 0.0489287972 -0.4245862365
-0.1810932606 0.0488017835 -0.4254011214
-0.1793418974 0.0488307700 -0.4254028797
-0.1781581938 0.0487073585 -0.4262066782
-0.1775325090 0.0484305248 -0.4278192222
-0.1763392389 0.0483099893 -0.4286164045
-0.1751428246 0.0481911153 -0.4294090271
-0.1739432812 0.0480738543 -0.4301972687
-0.1727406085 0.0479582325 -0.4309809506
-0.1709900200 0.0480008684 -0.4309363663
-0.1697844416 0.0478888229 -0.4317089319
-0.1680376679 0.0479356125 -0.4316490293
-0.1668293327 0.0478271320 -0.4324105084
-0.1656180173 0.0477202758 -0.4331673980
-0.1644036770 0.0476150475 -0.4339197874
-0.1626614928 0.0476698242 -0.4338313639
-0.1614446193 0.0475681499 -0.4345726073
-0.1602248400 0.0474680737 -0.4353093207
-0.1584872305 0.0475289039 -0.4351990521
-0.1577765048 0.0472728796 -0.4367689192
-0.1570562273 0.0470179468 -0.4383382201
-0.1563263088 0.0467641689 -0.4399067760
-0.1550854295 0.0466717966 -0.4406244159
-0.1543396562 0.0464205407 -0.4421895742
-0.1525951624 0.0464919545 -0.4420457184
-0.1513458490 0.0464044958 -0.4427493513
-0.1500937343 0.0463187397 -0.4434482455
-0.1493232399 0.0460731462 -0.4450024068
-0.1480622292 0.0459904447 -0.4456938207
-0.1477533430 0.0455855951 -0.4481077492
-0.1469540000 0.0453436822 -0.4496588707
-0.1456745565 0.0452653244 -0.4503415823
-0.1439253390 0.0453511886 -0.4501503408
-0.1431076229 0.0451136306 -0.4516926110
-0.1418201625 0.0450403206 -0.4523608983
-0.1400734931 0.0451318286 -0.4521497488
-0.1387843341 0.0450620726 -0.4528065622
-0.1374925673 0.0449940003 -0.4534585178
-0.1361982822 0.0449276008 -0.4541056156
-0.1344588548 0.0450267531 -0.4538662434
-0.1331630200 0.0449638776 -0.4545018375
-0.1314291656 0.0450668894 -0.4542475641
-0.1301319897 0.0450075194 -0.4548717737
-0.1288322657 0.0449498743 -0.4554910660
-0.1275301725 0.0448939018 -0.4561054409
-0.1266470551 0.0446747802 -0.4576067626
-0.1257544309 0.0444570221 -0.4591064155
-0.1244380251 0.0444058329 -0.4597093165
-0.1235299706 0.0441910550 -0.4612040520
-0.1222053692 0.0441430695 -0.4617987275
-0.1200714111 0.0444277860 -0.4605885744
-0.1834162027 0.0476344042 -0.4235163927
-0.1816646308 0.0476630293 -0.4235322177
-0.1799162775 0.0476940386 -0.4235392511
-0.1787386686 0.0475690775 -0.4243453443
-0.1775579005 0.0474457517 -0.4251471460
-0.1769350618 0.0471651256 -0.4267568588
-0.1757446975 0.0470446981 -0.4275519848
-0.1751057953 0.0467663370 -0.4291593134
-0.1739059240 0.0466488861 -0.4299476445
-0.1727029532 0.0465330295 -0.4307314754
-0.1709521413 0.0465793647 -0.4306876957
-0.1697462797 0.0464671031 -0.4314603508
-0.1679992378 0.0465175882 -0.4314012527
-0.1667906493 0.0464089029 -0.4321628511
-0.1655790210 0.0463018790 -0.4329198897
-0.1643643826 0.0461964719 -0.4336724281
-0.1626219749 0.0462549888 -0.4335847795
-0.1619262546 0.0459905937 -0.4351638258
-0.1601846963 0.0460529476 -0.4350630045
-0.1589616388 0.0459543876 -0.4357952178
-0.1577357799 0.0458574332 -0.4365229011
-0.1570150256 0.0455985293 -0.4380916357
-0.1557800323 0.0455046296 -0.4388120770
-0.1550434530 0.0452482477 -0.4403774440
-0.1537994146 0.0451573916 -0.4410905540
-0.1525525749 0.0450682081 -0.4417990446
-0.1513029337 0.0449806638 -0.4425028265
-0.1500505656 0.0448947921 -0.4432019293
-0.1487954110 0.0448105894 -0.4438962936
-0.1480182707 0.0445624702 -0.4454470873
-0.1472315490 0.0443155728 -0.4469968677
-0.1464352161 0.0440699011 -0.4485456347
-0.1456293017 0.0438255034 -0.4500933290
-0.1438799202 0.0439152233 -0.4499028921
-0.1425982863 0.0438403748 -0.4505743384
-0.1413139999 0.0437672287 -0.4512409866
-0.1400271207 0.0436958037 -0.4519027472
-0.1382846236 0.0437932312 -0.4516840577
-0.1374455839 0.0435579196 -0.4532118440
-0.1357049942 0.0436591059 -0.4529799223
-0.1344113797 0.0435945690 -0.4536206126
-0.1331152469 0.0435317308 -0.4542564154
-0.1313812286 0.0436386280 -0.4540029764
-0.1300836802 0.0435793214 -0.4546273053
-0.1287837029 0.0435216837 -0.4552468061
-0.1274813116 0.0434657671 -0.4558613598
-0.1265977323 0.0432427935 -0.4573621452
-0.1257046610 0.0430212580 -0.4588613510
-0.1243879721 0.0429700650 -0.4594644904
-0.1234794781 0.0427514911 -0.4609586895
-0.1217476204 0.0428728648 -0.4606558979
-0.1200205460 0.0429961644 -0.4603449404
-0.1833785325 0.0462123640 -0.4232609868
-0.1816267073 0.0462446474 -0.4232776165
-0.1804488003 0.0461174548 -0.4240904748
-0.1787002981 0.0461540297 -0.4240917563
-0.1775192022 0.0460304581 -0.4248935580
-0.1768959463 0.0457456820 -0.4265027344
-0.1757052839 0.0456250571 -0.4272978902
-0.1745115072 0.0455060378 -0.4280886948
-0.1738657653 0.0452249125 -0.4296931326
-0.1721145660 0.0452729166 -0.4296568036
-0.1709115058 0.0451588333 -0.4304341376
-0.1702466458 0.0448816642 -0.4320314825
-0.1684961170 0.0449355654 -0.4319752753
-0.1667491794 0.0449917205 -0.4319103360
-0.1660686135 0.0447189137 -0.4334983230
-0.1643223017 0.0447789207 -0.4334201813
-0.1631044149 0.0446750000 -0.4341682792
-0.1618835926 0.0445727147 -0.4349118173
-0.1606598347 0.0444720834 -0.4356508255
-0.1594331414 0.0443731248 -0.4363852143
-0.1587148458 0.0441085212 -0.4379579425
-0.1569711119 0.0441801287 -0.4378401637
-0.1562403589 0.0439183153 -0.4394077063
-0.1554999799 0.0436576679 -0.4409744740
-0.1542522013 0.0435664691 -0.4416896999
-0.1530016512 0.0434769429 -0.4424002469
-0.1517482996 0.0433890671 -0.4431060851
-0.1500046700 0.0434718803 -0.4429506063
-0.1482651830 0.0435568206 -0.4427866936
-0.1474910378 0.0433050059 -0.4443349838
-0.1467073411 0.0430543646 -0.4458823800
-0.1459140480 0.0428049751 -0.4474287331
-0.1455814242 0.0423867106 -0.4498400986
-0.1438318342 0.0424802713 -0.4496504366
-0.1425498873 0.0424054116 -0.4503220320
-0.1412652880 0.0423322506 -0.4509888291
-0.1395217925 0.0424316823 -0.4507775903
-0.1382354796 0.0423620641 -0.4514329433
-0.1364973038 0.0424654447 -0.4512067437
-0.1352093667 0.0423994139 -0.4518506527
-0.1339189708 0.0423350781 -0.4524897337
-0.1326260418 0.0422723964 -0.4531239867
-0.1308953762 0.0423833951 -0.4528696537
-0.1300328225 0.0421521291 -0.4543778896
-0.1287325472 0.0420945548 -0.4549975693
-0.1270051748 0.0422111116 -0.4547235072
-0.1261246949 0.0419844575 -0.4562221169
-0.1252347678 0.0417591967 -0.4577191770
-0.1239214018 0.0417082496 -0.4583208859
-0.1226056144 0.0416590050 -0.4589176178
-0.1212875694 0.0416114479 -0.4595094025
-0.1195639744 0.0417388491 -0.4591977298
-0.1815860569 0.0448272675 -0.4230182469
-0.1798372418 0.0448654741 -0.4230268300
-0.1786590666 0.0447400324 -0.4238332212
-0.1774777174 0.0446161814 -0.4246352017
-0.1768539995 0.0443273112 -0.4262437522
-0.1756630540 0.0442064479 -0.4270390570
-0.1744689643 0.0440872051 -0.4278299212
-0.1738228351 0.0438019447 -0.4294337928
-0.1720714420 0.0438536629 -0.4293982089
-0.1708680242 0.0437393636 -0.4301756620
-0.1696615815 0.0436267033 -0.4309486449
-0.1684520543 0.0435157195 -0.4317170382
-0.1667049378 0.0435755476 -0.4316529632
-0.1654927135 0.0434681885 -0.4324102700
-0.1642774642 0.0433624238 -0.4331630170
-0.1625346690 0.0434283763 -0.4330770969
-0.1618381590 0.0431559123 -0.4346549511
-0.1606140882 0.0430551022 -0.4353940785
-0.1593871266 0.0429559983 -0.4361285865
-0.1586683840 0.0426873975 -0.4377007484
-0.1574322730 0.0425913259 -0.4384280741
-0.1561932862 0.0424969234 -0.4391507506
-0.1559535116 0.0420603603 -0.4415652454
-0.1547020078 0.0419687927 -0.4422824979
-0.1534477472 0.0418789499 -0.4429951608
-0.1521906853 0.0417907387 -0.4437030554
-0.1504434943 0.0418771133 -0.4435503483
-0.1487003565 0.0419656374 -0.4433890581
-0.1474418789 0.0418829694 -0.4440790117
-0.1461807191 0.0418019332 -0.4447643459
-0.1453904361 0.0415488333 -0.4463083148
-0.1445905566 0.0412969813 -0.4478512108
-0.1437810957 0.0410463884 -0.4493930340
-0.1424988359 0.0409715138 -0.4500647783
-0.1416736543 0.0407236926 -0.4516024888
-0.1399264634 0.0408267938 -0.4513938427
-0.1386363804 0.0407569967 -0.4520511627
-0.1364453286 0.0410392508 -0.4509514570
-0.1351571083 0.0409731902 -0.4515955448
-0.1338664442 0.0409088507 -0.4522348046
-0.1325732172 0.0408462100 -0.4528692067
-0.1308423430 0.0409611389 -0.4526157379
-0.1299794018 0.0407259911 -0.4541234672
-0.1291068643 0.0404922962 -0.4556296766
-0.1273758113 0.0406125970 -0.4553582072
-0.1260704100 0.0405584648 -0.4559682310
-0.1251800358 0.0403293855 -0.4574647546
-0.1238663271 0.0402784981 -0.4580665529
-0.1225502864 0.0402293429 -0.4586634934
-0.1208252832 0.0403588675 -0.4583592117
-0.1195081770 0.0403132401 -0.4589446187
-0.1177893728 0.0404465832 -0.4586256444
-0.1815424711 0.0434109457 -0.4227539599
-0.1803639382 0.0432832614 -0.4235670269
-0.1786150485 0.0433270447 -0.4235698879
-0.1779973507 0.0430327579 -0.4251800478
-0.1773699820 0.0427394509 -0.4267901182
-0.1756180078 0.0427888818 -0.4267753065
-0.1744236201 0.0426694117 -0.4275662899
-0.1732261181 0.0425516032 -0.4283527732
-0.1714778394 0.0426072739 -0.4283159673
-0.1708218306 0.0423209555 -0.4299123883
-0.1696150154 0.0422080979 -0.4306854308
-0.1678674668 0.0422696918 -0.4306288064
-0.1666579545 0.0421604365 -0.4313907325
-0.1654454023 0.0420528799 -0.4321481287
-0.1642298847 0.0419469476 -0.4329010248
-0.1630114466 0.0418427177 -0.4336494207
-0.1623110771 0.0415659249 -0.4352286756
-0.1610833853 0.0414647050 -0.4359699786
-0.1598527431 0.0413651504 -0.4367066026
-0.1586192101 0.0412673242 -0.4374386668
-0.1578904539 0.0409958474 -0.4390096366
-0.1561435014 0.0410766192 -0.4388889074
-0.1559031308 0.0406321585 -0.4413020611
-0.1546514034 0.0405404940 -0.4420194924
-0.1529027671 0.0406268165 -0.4418809116
-0.1521394551 0.0403622501 -0.4434403181
-0.1503921002 0.0404524170 -0.4432884455
-0.1486488432 0.0405447483 -0.4431280494
-0.1473900974 0.0404619873 -0.4438182116
-0.1461286098 0.0403809249 -0.4445036054
-0.1448644400 0.0403015278 -0.4451842904
-0.1440676004 0.0400459468 -0.4467248321
-0.1427946240 0.0399697497 -0.4473977983
-0.1419820786 0.0397169441 -0.4489343166
-0.1411599666 0.0394654311 -0.4504696131
-0.1398721486 0.0393938944 -0.4511318803
-0.1385817677 0.0393241085 -0.4517893195
-0.1368397921 0.0394350328 -0.4515666068
-0.1351022273 0.0395480506 -0.4513354301
-0.1342532784 0.0393043123 -0.4528537095
-0.1329562664 0.0392415375 -0.4534900188
-0.1316567510 0.0391804315 -0.4541214406
-0.1307862550 0.0389411487 -0.4556320608
-0.1290504038 0.0390633680 -0.4553696811
-0.1273192167 0.0391876288 -0.4550990760
-0.1260135621 0.0391335152 -0.4557092786
-0.1247054636 0.0390811414 -0.4563145339
-0.1233950555 0.0390304513 -0.4569150209
-0.1220822781 0.0389814973 -0.4575104415
-0.1207672209 0.0389342122 -0.4581010044
-0.1190469787 0.0390697010 -0.4577893913
-0.1177309155 0.0390260108 -0.4583684504
-0.1814960390 0.0419956893 -0.4224849343
-0.1797469556 0.0420411006 -0.4224951863
-0.1785681844 0.0419151373 -0.4233017564
-0.1779500693 0.0416167714 -0.4249112904
-0.1767616570 0.0414937586 -0.4257111847
-0.1761274785 0.0411976576 -0.4273183942
-0.1743754894 0.0412527099 -0.4272977710
-0.1737284809 0.0409592986 -0.4289004207
-0.1714292914 0.0411940254 -0.4280484319
-0.1702285856 0.0410796218 -0.4288239777
-0.1690247953 0.0409668796 -0.4295950532
-0.1683556587 0.0406791791 -0.4311860800
-0.1666081995 0.0407463759 -0.4311237037
-0.1653953940 0.0406386741 -0.4318811595
-0.1641795784 0.0405325666 -0.4326341748
-0.1629607826 0.0404281616 -0.4333826303
-0.1617390811 0.0403254144 -0.4341265559
-0.1605144441 0.0402243361 -0.4348659217
-0.1598011404 0.0399463177 -0.4364395142
-0.1590781808 0.0396694057 -0.4380125105
-0.1573305875 0.0397519916 -0.4378992617
-0.1560910195 0.0396573544 -0.4386221766
-0.1553493738 0.0393847339 -0.4401872754
-0.1541007161 0.0392932221 -0.4409028590
-0.1523553580 0.0393835567 -0.4407632053
-0.1515950412 0.0391152650 -0.4423200786
-0.1503380388 0.0390288047 -0.4430216551
-0.1485946327 0.0391249470 -0.4428621233
-0.1468553841 0.0392232165 -0.4426941276
-0.1455970854 0.0391423069 -0.4433778226
-0.1438627690 0.0392446443 -0.4431947172
-0.1435422599 0.0388037860 -0.4455948472
-0.1422724724 0.0387277529 -0.4462661743
-0.1414629966 0.0384712070 -0.4478003085
-0.1406438798 0.0382160023 -0.4493332207
-0.1398152113 0.0379621126 -0.4508649111
-0.1385245621 0.0378922820 -0.4515225589
-0.1363335252 0.0381900445 -0.4504259825
-0.1354901791 0.0379408747 -0.4519467950
-0.1341953725 0.0378763899 -0.4525881112
-0.1333364397 0.0376301594 -0.4541044533
-0.1320331246 0.0375689082 -0.4547377527
-0.1311585903 0.0373255983 -0.4562494755
-0.1294190586 0.0374516100 -0.4559897184
-0.1276842058 0.0375796407 -0.4557216465
-0.1259541065 0.0377096906 -0.4554453790
-0.1246457621 0.0376573429 -0.4560508430
-0.1229215488 0.0377912670 -0.4557597339
-0.1216120943 0.0377425067 -0.4563537538
-0.1207066700 0.0375106707 -0.4578376710
-0.1193889901 0.0374652259 -0.4584234059
-0.1180691272 0.0374214761 -0.4590042233
-0.1167469397 0.0373794623 -0.4595800936
-0.1820202321 0.0404046141 -0.4230110049
-0.1802677363 0.0404533222 -0.4230243266
-0.1790854484 0.0403267369 -0.4238331914
-0.1784636825 0.0400239080 -0.4254442155
-0.1772717685 0.0399003029 -0.4262464941
-0.1766339093 0.0395997986 -0.4278551936
-0.1748784631 0.0396581627 -0.4278375804
-0.1742277890 0.0393603593 -0.4294416904
-0.1724726409 0.0394226722 -0.4294108450
-0.1707209796 0.0394873358 -0.4293712080
-0.1695136726 0.0393741019 -0.4301444590
-0.1688407660 0.0390820317 -0.4317370057
-0.1670898646 0.0391526483 -0.4316774905
-0.1653425992 0.0392255224 -0.4316093624
-0.1646540314 0.0389378853 -0.4331924021
-0.1629074365 0.0390146971 -0.4331110120
-0.1616854370 0.0389118120 -0.4338550568
-0.1604605019 0.0388105996 -0.4345945120
-0.1592326611 0.0387110487 -0.4353293777
-0.1580019295 0.0386131927 -0.4360597134
-0.1567683369 0.0385170020 -0.4367854595
-0.1555318683 0.0384225063 -0.4375065267
-0.1552937478 0.0379625857 -0.4399150312
-0.1540448070 0.0378709771 -0.4406307340
-0.1522993296 0.0379651077 -0.4404919446
-0.1515385658 0.0376928337 -0.4420482218
-0.1502812952 0.0376062915 -0.4427499473
-0.1490212530 0.0375214666 -0.4434469044
-0.1472784132 0.0376233533 -0.4432816505
-0.1460163891 0.0375421382 -0.4439673424
-0.1447516531 0.0374626443 -0.4446482360
-0.1434842646 0.0373848379 -0.4453245103
-0.1426804215 0.0371229276 -0.4468609393
-0.1418669969 0.0368622951 -0.4483962357
-0.1410439759 0.0366029590 -0.4499303997
-0.1402113885 0.0363449566 -0.4514633119
-0.1389169693 0.0362749323 -0.4521228671
-0.1371711940 0.0363934524 -0.4519036114
-0.1358751208 0.0363270640 -0.4525516927
-0.1345765293 0.0362624042 -0.4531948864
-0.1337136477 0.0360121205 -0.4547123909
-0.1315371990 0.0363257788 -0.4535858333
-0.1306657940 0.0360787846 -0.4550952613
-0.1289297342 0.0362088531 -0.4548347294
-0.1271982938 0.0363409556 -0.4545658827
-0.1254715919 0.0364750959 -0.4542888105
-0.1241665706 0.0364229716 -0.4548927844
-0.1228591502 0.0363725610 -0.4554918408
-0.1215494350 0.0363238603 -0.4560860097
-0.1202373877 0.0362768769 -0.4566753209
-0.1193256304 0.0360428505 -0.4581553638
-0.1184043884 0.0358103327 -0.4596335590
-0.1170783937 0.0357682854 -0.4602112174
-0.1819680184 0.0389877446 -0.4227315485
-0.1807854027 0.0388588831 -0.4235470891
-0.1795996279 0.0387317240 -0.4243583083
-0.1784106046 0.0386062451 -0.4251650274
-0.1777787358 0.0383002870 -0.4267753363
-0.1765801013 0.0381778069 -0.4275754094
-0.1753783673 0.0380570106 -0.4283710122
-0.1741734445 0.0379378945 -0.4291621447
-0.1724182218 0.0380038917 -0.4291321337
-0.1712103635 0.0378884822 -0.4299121201
-0.1694587916 0.0379588082 -0.4298667014
-0.1687854528 0.0376626737 -0.4314585328
-0.1670344323 0.0377369486 -0.4313999414
-0.1658177376 0.0376285575 -0.4321597815
-0.1645980030 0.0375218466 -0.4329150617
-0.1633753777 0.0374168307 -0.4336657822
-0.1616290957 0.0374993198 -0.4335787296
-0.1604038477 0.0373979732 -0.4343182743
-0.1591757387 0.0372982770 -0.4350532889
-0.1574341506 0.0373869464 -0.4349443614
-0.1562036574 0.0372908898 -0.4356682301
-0.1544665098 0.0373837315 -0.4355441332
-0.1537341624 0.0371038802 -0.4371020794
-0.1529921889 0.0368252248 -0.4386592507
-0.1512534022 0.0369236395 -0.4385174513
-0.1504990608 0.0366478562 -0.4400692582
-0.1497350931 0.0363733321 -0.4416202605
-0.1489615440 0.0361000337 -0.4431703389
-0.1472186297 0.0362056978 -0.4430060089
-0.1459562927 0.0361244343 -0.4436917603
-0.1442183256 0.0362341702 -0.4435124695
-0.1429541111 0.0361565426 -0.4441869259
-0.1416872740 0.0360806435 -0.4448567331
-0.1413428932 0.0356265791 -0.4472537935
-0.1405229270 0.0353635475 -0.4487854838
-0.1396933943 0.0351018757 -0.4503160119
-0.1388542801 0.0348415039 -0.4518453479
-0.1375570297 0.0347732157 -0.4525001943
-0.1362571418 0.0347066224 -0.4531501234
-0.1345132291 0.0348328799 -0.4529185593
-0.1332118213 0.0347699560 -0.4535570443
-0.1314734817 0.0349001475 -0.4533105791
-0.1306016296 0.0346493125 -0.4548193812
-0.1284381151 0.0349749997 -0.4536761940
-0.1271339506 0.0349193327 -0.4542917907
-0.1254071593 0.0350573771 -0.4540156126
-0.1241018474 0.0350053087 -0.4546197355
-0.1227942333 0.0349549800 -0.4552190304
-0.1210746914 0.0350987725 -0.4549215734
-0.1201719418 0.0348594636 -0.4564027488
-0.1188573614 0.0348143317 -0.4569872320
-0.1179392785 0.0345781222 -0.4584633708
-0.1166165918 0.0345363393 -0.4590395391
-0.1152916476 0.0344962552 -0.4596107900
-0.1819129288 0.0375719704 -0.4224472642
-0.1812999696 0.0372579023 -0.4240635931
-0.1795439720 0.0373154692 -0.4240741730
-0.1783547252 0.0371897034 -0.4248810410
-0.1777223945 0.0368796550 -0.4264906049
-0.1770804226 0.0365706049 -0.4281001985
-0.1753214747 0.0366359092 -0.4280864298
-0.1741162986 0.0365165994 -0.4288776815
-0.1729080230 0.0363989510 -0.4296644032
-0.1716966182 0.0362829939 -0.4304465950
-0.1699416190 0.0363566801 -0.4304041862
-0.1687274128 0.0362444259 -0.4311752915
-0.1669762582 0.0363224111 -0.4311175048
-0.1657592654 0.0362138189 -0.4318774641
-0.1645393074 0.0361069515 -0.4326328635
-0.1633163691 0.0360017717 -0.4333837032
-0.1615699232 0.0360879786 -0.4332974553
-0.1603444815 0.0359864794 -0.4340371490
-0.1586022973 0.0360769145 -0.4339356720
-0.1573744118 0.0359790325 -0.4346642494
-0.1556366235 0.0360736474 -0.4345476925
-0.1544063836 0.0359794423 -0.4352650344
-0.1536735743 0.0356956497 -0.4368222654
-0.1524343491 0.0356045626 -0.4375323951
-0.1506988853 0.0357069597 -0.4373895526
-0.1499475092 0.0354274847 -0.4389387965
-0.1491865814 0.0351492278 -0.4404872656
-0.1484159976 0.0348722227 -0.4420347810
-0.1471561342 0.0347891822 -0.4427254796
-0.1463698000 0.0345149115 -0.4442692399
-0.1446282566 0.0346282609 -0.4440926015
-0.1428909898 0.0347437412 -0.4439075589
-0.1420897394 0.0344742052 -0.4454408586
-0.1408165395 0.0343997553 -0.4461078942
-0.1399996281 0.0341330320 -0.4476371408
-0.1391731501 0.0338676497 -0.4491652846
-0.1383370608 0.0336036123 -0.4506921172
-0.1365945935 0.0337300412 -0.4504729509
-0.1357464045 0.0334691145 -0.4519937038
-0.1344472617 0.0334044732 -0.4526371956
-0.1331456304 0.0333415829 -0.4532758296
-0.1314072609 0.0334756486 -0.4530302882
-0.1301041543 0.0334164016 -0.4536574483
-0.1283714473 0.0335544534 -0.4533970058
-0.1266434193 0.0336945541 -0.4531283081
-0.1253402233 0.0336408280 -0.4537374377
-0.1240346581 0.0335888043 -0.4543417692
-0.1223138198 0.0337346718 -0.4540517926
-0.1214165017 0.0334899873 -0.4555356503
-0.1201039702 0.0334431753 -0.4561252296
-0.1191913113 0.0332016088 -0.4576041102
-0.1182691827 0.0329615176 -0.4590812624
-0.1169426218 0.0329196975 -0.4596591592
-0.1156138405 0.0328796171 -0.4602321088
-0.1818550080 0.0361573696 -0.4221581519
-0.1806719005 0.0360280089 -0.4229739308
-0.1789190620 0.0360894985 -0.4229831696
-0.1777327508 0.0359638706 -0.4237878621
-0.1771032959 0.0356500633 -0.4253946841
-0.1764641106 0.0353372432 -0.4270012975
-0.1752618104 0.0352160074 -0.4277970791
-0.1740563810 0.0350964628 -0.4285883605
-0.1733947098 0.0347874463 -0.4301902354
-0.1710925400 0.0350539051 -0.4293403029
-0.1698810607 0.0349397883 -0.4301159978
-0.1686665416 0.0348273404 -0.4308871329
-0.1669152826 0.0349089988 -0.4308302402
-0.1651677042 0.0349929594 -0.4307647049
-0.1639507860 0.0348862186 -0.4315181375
-0.1622072309 0.0349744409 -0.4314373434
-0.1604674160 0.0350649171 -0.4313479364
-0.1597654074 0.0347699746 -0.4329174161
-0.1585401148 0.0346702822 -0.4336506426
-0.1573119313 0.0345723107 -0.4343792796
-0.1565877944 0.0342813730 -0.4359431267
-0.1553505510 0.0341865122 -0.4366645217
-0.1541104317 0.0340933912 -0.4373813868
-0.1528675109 0.0340019502 -0.4380935431
-0.1511285454 0.0341078825 -0.4379535019
-0.1503733397 0.0338242017 -0.4395040274
-0.1491221040 0.0337379090 -0.4402022660
-0.1478681117 0.0336533226 -0.4408958554
-0.1470909566 0.0333738476 -0.4424399436
-0.1463041902 0.0330956541 -0.4439831078
-0.1445625871 0.0332128219 -0.4438073933
-0.1432943791 0.0331348889 -0.4444839656
-0.1420235485 0.0330586955 -0.4451558590
-0.1412122995 0.0327865407 -0.4466874897
-0.1399327517 0.0327135958 -0.4473516941
-0.1391057968 0.0324443243 -0.4488791525
-0.1382692754 0.0321763940 -0.4504053593
-0.1369749904 0.0321082845 -0.4510587156
-0.1356780976 0.0320418924 -0.4517072141
-0.1339375675 0.0321760513 -0.4514757097
-0.1326392144 0.0321133249 -0.4521127939
-0.1309042424 0.0322514772 -0.4518663883
-0.1296044737 0.0321924053 -0.4524920285
-0.1278752238 0.0323345289 -0.4522307813
-0.1265741438 0.0322791114 -0.4528449774
-0.1252707094 0.0322254263 -0.4534542859
-0.1239648908 0.0321734659 -0.4540587664
-0.1226567328 0.0321232788 -0.4546583295
-0.1217554584 0.0318746865 -0.4561432600
-0.1204390079 0.0318278261 -0.4567345679
-0.1195223704 0.0315823220 -0.4582144022
-0.1185961813 0.0313383713 -0.4596924782
-0.1172657534 0.0312965326 -0.4602721632
-0.1159330979 0.0312564671 -0.4608467817
-0.1145982072 0.0312181581 -0.4614165425
-0.1128772050 0.0313825645 -0.4610799551
-0.1864680946 0.0342418402 -0.4233888388
-0.1841263920 0.0344913192 -0.4226332307
-0.1817942560 0.0347439498 -0.4218642712
-0.1806108505 0.0346143395 -0.4226800501
-0.1788579375 0.0346794389 -0.4226902127
-0.1776713729 0.0345535427 -0.4234949946
-0.1770415008 0.0342356525 -0.4251010716
-0.1764018983 0.0339187458 -0.4267069995
-0.1746460199 0.0339916609 -0.4266928732
-0.1734435856 0.0338721983 -0.4274820983
-0.1727847755 0.0335594490 -0.4290810823
-0.1715728641 0.0334430858 -0.4298635125
-0.1698176861 0.0335240997 -0.4298228920
-0.1686029583 0.0334114470 -0.4305941463
-0.1668516099 0.0334967822 -0.4305381775
-0.1651038975 0.0335844234 -0.4304735363
-0.1638867408 0.0334775113 -0.4312270284
-0.1621430963 0.0335694365 -0.4311471283
-0.1604032218 0.0336636342 -0.4310586154
-0.1591839343 0.0335623808 -0.4317944646
-0.1574483067 0.0336608142 -0.4316907525
-0.1562266499 0.0335632302 -0.4324154556
-0.1555088460 0.0332688317 -0.4339746535
-0.1542780697 0.0331743881 -0.4346922040
-0.1530445367 0.0330816470 -0.4354052544
-0.1523046643 0.0327913463 -0.4369585216
-0.1510621160 0.0327017792 -0.4376642704
-0.1498168111 0.0326139070 -0.4383653402
-0.1490549594 0.0323277824 -0.4399124384
-0.1482835412 0.0320428871 -0.4414586723
-0.1470231265 0.0319597200 -0.4421495199
-0.1457600445 0.0318782590 -0.4428357482
-0.1440218538 0.0319994576 -0.4426590800
-0.1427568644 0.0319216996 -0.4433339834
-0.1419547349 0.0316443220 -0.4448659718
-0.1406810135 0.0315698236 -0.4455332756
-0.1394046843 0.0314970464 -0.4461957812
-0.1385807991 0.0312240869 -0.4477207959
-0.1377473474 0.0309524871 -0.4492445886
-0.1364562958 0.0308845229 -0.4498962760
-0.1351627111 0.0308183543 -0.4505431652
-0.1334256381 0.0309565403 -0.4503109157
-0.1316930503 0.0310968272 -0.4500703216
-0.1299651116 0.0312392134 -0.4498213530
-0.1286721975 0.0311804991 -0.4504437447
-0.1273768246 0.0311235227 -0.4510612488
-0.1265023798 0.0308648683 -0.4525567591
-0.1251986623 0.0308112092 -0.4531662762
-0.1238925606 0.0307593476 -0.4537708461
-0.1225841418 0.0307092220 -0.4543705583
-0.1212734058 0.0306608193 -0.4549653232
-0.1199603602 0.0306142010 -0.4555552602
-0.1190468594 0.0303650480 -0.4570328891
-0.1177256778 0.0303218048 -0.4576145113
-0.1167967841 0.0300758351 -0.4590869844
-0.1150765195 0.0302405693 -0.4587629139
-0.1137486026 0.0302026067 -0.4593296945
-0.1124184951 0.0301664006 -0.4598914385
-0.1110863015 0.0301319361 -0.4604482651
-0.1089988723 0.0305092316 -0.4591931105
-0.1858253032 0.0330102034 -0.4222952127
-0.1840627193 0.0330716856 -0.4223328233
-0.1817306727 0.0333317369 -0.4215655923
-0.1805470288 0.0332018547 -0.4223814309
-0.1787940115 0.0332705565 -0.4223924279
-0.1776071638 0.0331444256 -0.4231972992
-0.1769768894 0.0328224190 -0.4248026311
-0.1757804602 0.0326993465 -0.4256008565
-0.1740277559 0.0327761956 -0.4255854487
-0.1733782142 0.0324583277 -0.4271839261
-0.1727189571 0.0321414843 -0.4287821949
-0.1709634960 0.0322241150 -0.4287491143
-0.1692115664 0.0323091149 -0.4287072420
-0.1685364991 0.0319967791 -0.4302962720
-0.1667851061 0.0320857763 -0.4302412271
-0.1650373340 0.0321770944 -0.4301774800
-0.1632932425 0.0322707407 -0.4301050603
-0.1615529060 0.0323666334 -0.4300239682
-0.1603362858 0.0322635286 -0.4307644665
-0.1591167599 0.0321621411 -0.4315004051
-0.1584075987 0.0318606198 -0.4330659509
-0.1571789086 0.0317623802 -0.4337947965
-0.1564538926 0.0314634927 -0.4353572130
-0.1552161127 0.0313684046 -0.4360788763
-0.1534758061 0.0314779244 -0.4359537959
-0.1527321488 0.0311833750 -0.4375083745
-0.1509930193 0.0312968567 -0.4373701215
-0.1497474611 0.0312088896 -0.4380713701
-0.1489851922 0.0309188217 -0.4396176934
-0.1472481042 0.0310381912 -0.4394597709
-0.1459943503 0.0309554003 -0.4401470423
-0.1452136189 0.0306697953 -0.4416850805
-0.1430065632 0.0309997909 -0.4406500757
-0.1417482793 0.0309223998 -0.4413214326
-0.1414179653 0.0304363612 -0.4437101483
-0.1396856457 0.0305673983 -0.4435128570
-0.1388743818 0.0302894153 -0.4450365603
-0.1380535215 0.0300127771 -0.4465590417
-0.1372231245 0.0297374874 -0.4480804205
-0.1359353960 0.0296697225 -0.4487305284
-0.1346450895 0.0296037383 -0.4493757486
-0.1329114437 0.0297459606 -0.4491426349
-0.1316196471 0.0296836346 -0.4497765005
-0.1298916936 0.0298298988 -0.4495285749
-0.1285984665 0.0297712274 -0.4501510262
-0.1277295351 0.0295071583 -0.4516491294
-0.1268510222 0.0292445105 -0.4531456530
-0.1255435497 0.0291907955 -0.4537569582
-0.1246495917 0.0289312452 -0.4552486837
-0.1229214370 0.0290886369 -0.4549648166
-0.1216068864 0.0290402062 -0.4555613697
-0.1202899888 0.0289935097 -0.4561530650
-0.1189708412 0.0289485957 -0.4567398131
-0.1172514036 0.0291136615 -0.4564281404
-0.1163257137 0.0288640689 -0.4578984082
-0.1146089733 0.0290329084 -0.4575737417
-0.1136716530 0.0287865847 -0.4590372145
-0.1123413146 0.0287505034 -0.4595991373
-0.1106289104 0.0289249364 -0.4592549503
-0.1089216620 0.0291013159 -0.4589027166
-0.1928305775 0.0308133159 -0.4241718650
-0.1904639602 0.0310683921 -0.4234577715
-0.1881066710 0.0313267075 -0.4227301776
-0.1857588589 0.0315882191 -0.4219891131
-0.1834205240 0.0318529084 -0.4212346673
-0.1810918003 0.0321207419 -0.4204668701
-0.1799111217 0.0319909826 -0.4212805629
-0.1787272841 0.0318628997 -0.4220899045
-0.1775401682 0.0317365266 -0.4228948057
-0.1763499528 0.0316118225 -0.4236953855
-0.1751565337 0.0314888656 -0.4244914949
-0.1734070927 0.0315696895 -0.4244748354
-0.1727603525 0.0312480517 -0.4260703623
-0.1721039861 0.0309274793 -0.4276658297
-0.1698086709 0.0312171485 -0.4268167317
-0.1686030477 0.0311030336 -0.4275884032
-0.1679308563 0.0307869688 -0.4291746318
-0.1661827564 0.0308799595 -0.4291183949
-0.1644382477 0.0309752487 -0.4290534854
-0.1632239074 0.0308682974 -0.4298050404
-0.1614835113 0.0309678987 -0.4297249615
-0.1597468406 0.0310697965 -0.4296361506
-0.1590468884 0.0307631232 -0.4312015474
-0.1583372802 0.0304576103 -0.4327663779
-0.1571083516 0.0303592291 -0.4334952831
-0.1563829035 0.0300563555 -0.4350570142
-0.1551449001 0.0299611595 -0.4357787669
-0.1539040655 0.0298676789 -0.4364958704
-0.1526603848 0.0297759362 -0.4372083843
-0.1514139324 0.0296859499 -0.4379163086
-0.1501647383 0.0295976605 -0.4386195540
-0.1489127278 0.0295111109 -0.4393180907
-0.1471756250 0.0296342373 -0.4391611516
-0.1459216326 0.0295513831 -0.4398484528
-0.1446649581 0.0294702798 -0.4405311644
-0.1429335624 0.0295995586 -0.4403525889
-0.1412064433 0.0297309421 -0.4401656091
-0.1413440555 0.0290283300 -0.4434112310
-0.1400733739 0.0289539360 -0.4440769255
-0.1392581612 0.0286718830 -0.4456017315
-0.1384333968 0.0283911619 -0.4471254051
-0.1375990510 0.0281118248 -0.4486478269
-0.1363075078 0.0280438773 -0.4492998123
-0.1354575455 0.0277675111 -0.4508179128
-0.1332762688 0.0281236321 -0.4497165680
-0.1315436661 0.0282716807 -0.4494777620
-0.1298156679 0.0284218211 -0.4492308795
-0.1285222471 0.0283631925 -0.4498534501
-0.1272264272 0.0283063073 -0.4504712224
-0.1267739087 0.0278288648 -0.4528466761
-0.1254662126 0.0277751815 -0.4534581602
-0.1245717779 0.0275118276 -0.4549492002
-0.1232557371 0.0274615791 -0.4555524886
-0.1215288043 0.0276247915 -0.4552630484
-0.1202117056 0.0275782198 -0.4558548033
-0.1184908971 0.0277453456 -0.4555506408
-0.1175706536 0.0274903271 -0.4570236504
-0.1162467077 0.0274490472 -0.4576006830
-0.1149205789 0.0274095330 -0.4581726193
-0.1139791459 0.0271593910 -0.4596370459
-0.1126449481 0.0271233432 -0.4602006674
-0.1109289303 0.0273016393 -0.4598589838
-0.1092179865 0.0274819490 -0.4595092237
-0.1939538717 0.0295145027 -0.4229929447
-0.1915843934 0.0297744572 -0.4222895801
-0.1898092479 0.0298352838 -0.4223580062
-0.1874553263 0.0301013477 -0.4216298759
-0.1856894642 0.0301674865 -0.4216781557
-0.1833512932 0.0304395873 -0.4209254086
-0.1815949380 0.0305109769 -0.4209537208
-0.1798417717 0.0305848047 -0.4209731221
-0.1786576658 0.0304564759 -0.4217825532
-0.1769078225 0.0305347759 -0.4217865765
-0.1757206023 0.0304101910 -0.4225850105
-0.1745302230 0.0302873328 -0.4233789742
-0.1727839559 0.0303720981 -0.4233610630
-0.1715906411 0.0302530061 -0.4241440892
-0.1703941822 0.0301355757 -0.4249226451
-0.1691946685 0.0300198868 -0.4256967604
-0.1679921448 0.0299059041 -0.4264664054
-0.1678591073 0.0293786339 -0.4288678765
-0.1661109477 0.0294752549 -0.4288125932
-0.1638367772 0.0297823399 -0.4279263020
-0.1636781096 0.0292587150 -0.4303246439
-0.1619343311 0.0293617174 -0.4302474856
-0.1596747041 0.0296760108 -0.4293332696
-0.1589742899 0.0293653198 -0.4308978617
-0.1587771028 0.0288463030 -0.4332944453
-0.1570350826 0.0289573353 -0.4331909716
-0.1558030695 0.0288605541 -0.4339154363
-0.1550709605 0.0285551492 -0.4354737997
-0.1533305347 0.0286721792 -0.4353505373
-0.1520900726 0.0285805855 -0.4360612333
-0.1508468091 0.0284907334 -0.4367672801
-0.1496007591 0.0284026098 -0.4374687076
-0.1488376260 0.0281046685 -0.4390136600
-0.1471004635 0.0282315817 -0.4388576150
-0.1458462328 0.0281486623 -0.4395450950
-0.1445893347 0.0280674826 -0.4402278364
-0.1428579241 0.0282005277 -0.4400502443
-0.1411308050 0.0283357482 -0.4398642480
-0.1408026665 0.0278344247 -0.4422480762
-0.1399966031 0.0275471304 -0.4437732995
-0.1396388859 0.0270478912 -0.4461604059
-0.1388101429 0.0267631058 -0.4476850927
-0.1384227872 0.0262660626 -0.4500752091
-0.1371240020 0.0261977259 -0.4507308602
-0.1358226836 0.0261311848 -0.4513816833
-0.1331976801 0.0267090872 -0.4494119585
-0.1319019198 0.0266466085 -0.4500477910
-0.1301703304 0.0268004853 -0.4498034418
-0.1288731545 0.0267416947 -0.4504279792
-0.1275735497 0.0266847238 -0.4510475695
-0.1266942024 0.0264144633 -0.4525427520
-0.1253862381 0.0263608303 -0.4531543553
-0.1244914010 0.0260937046 -0.4546447396
-0.1231751591 0.0260435026 -0.4552481771
-0.1218565628 0.0259950925 -0.4558466375
-0.1205356270 0.0259484611 -0.4564401805
-0.1188112274 0.0261194464 -0.4561386406
-0.1170917526 0.0262924340 -0.4558289051
-0.1157712489 0.0262513515 -0.4564045072
-0.1148388237 0.0259959232 -0.4578700364
-0.1135102510 0.0259583034 -0.4584372342
-0.1121794656 0.0259224698 -0.4589995146
-0.1108465344 0.0258884262 -0.4595568478
-0.1091356203 0.0260726921 -0.4592080414
-0.1078020036 0.0260423105 -0.4597537816
-0.1944768429 0.0284244139 -0.4210270047
-0.1932902485 0.0282786842 -0.4218919575
-0.1915120929 0.0283405166 -0.4219702482
-0.1903218180 0.0281986650 -0.4228240848
-0.1879648417 0.0284717325 -0.4220999777
-0.1867742091 0.0283341110 -0.4229404032
-0.1838544905 0.0288201831 -0.4214026928
-0.1820948869 0.0288947988 -0.4214341044
-0.1803384423 0.0289718509 -0.4214566946
-0.1785852760 0.0290513113 -0.4214704335
-0.1779600680 0.0287157036 -0.4230756462
-0.1762069911 0.0287993178 -0.4230760932
-0.1744573265 0.0288853087 -0.4230678976
-0.1727109998 0.0289737042 -0.4230508804
-0.1715174019 0.0288543645 -0.4238339365
-0.1703207940 0.0287367478 -0.4246126413
-0.1691210270 0.0286208894 -0.4253867567
-0.1684576422 0.0282956362 -0.4269717038
-0.1677846164 0.0279715247 -0.4285563827
-0.1665691435 0.0278601628 -0.4293213487
-0.1648212522 0.0279625338 -0.4292603433
-0.1641292125 0.0276426729 -0.4308377504
-0.1629047841 0.0275365487 -0.4315891564
-0.1611579955 0.0276449770 -0.4315084517
-0.1594150066 0.0277557019 -0.4314190149
-0.1592137963 0.0272285789 -0.4338159561
-0.1564498395 0.0277703479 -0.4320481420
-0.1557268798 0.0274597779 -0.4336063266
-0.1544918120 0.0273646265 -0.4343263209
-0.1532538980 0.0272711851 -0.4350417256
-0.1520131677 0.0271795020 -0.4357524514
-0.1512619853 0.0268746056 -0.4373021424
-0.1495234221 0.0270013548 -0.4371601045
-0.1492452621 0.0264840387 -0.4395516813
-0.1479866207 0.0263988357 -0.4402476847
-0.1462467760 0.0265312884 -0.4400879145
-0.1449861526 0.0264498387 -0.4407727122
-0.1432512850 0.0265864693 -0.4405978918
-0.1415206939 0.0267252456 -0.4404147267
-0.1402590573 0.0266494937 -0.4410816729
-0.1394560337 0.0263585150 -0.4426043034
-0.1391011626 0.0258517377 -0.4449881017
-0.1382754892 0.0255632978 -0.4465102553
-0.1378909796 0.0250586923 -0.4488970339
-0.1365954578 0.0249905698 -0.4495509863
-0.1352973878 0.0249242187 -0.4502001405
-0.1331165880 0.0252957996 -0.4491024017
-0.1318205297 0.0252333432 -0.4497384131
-0.1296558976 0.0256094765 -0.4486205578
-0.1287915707 0.0253323670 -0.4501196444
-0.1279177368 0.0250566751 -0.4516173005
-0.1270343661 0.0247824565 -0.4531134665
-0.1257226169 0.0247287769 -0.4537268281
-0.1248237714 0.0244577192 -0.4552181959
-0.1230920255 0.0246267319 -0.4549388587
-0.1217731610 0.0245783906 -0.4555374682
-0.1204520315 0.0245318525 -0.4561312497
-0.1187276840 0.0247067511 -0.4558306336
-0.1174055710 0.0246639121 -0.4564128816
-0.1160812005 0.0246228576 -0.4569901526
-0.1147546023 0.0245835781 -0.4575624764
-0.1134258285 0.0245460737 -0.4581298828
-0.1124777198 0.0242901351 -0.4595894516
-0.1111409292 0.0242561568 -0.4601483643
-0.1094263718 0.0244443398 -0.4598021209
-0.1080889329 0.0244140197 -0.4603495598
-0.1944019496 0.0269885715 -0.4207019210
-0.1932150722 0.0268425252 -0.4215668440
-0.1908490509 0.0271175671 -0.4208647311
-0.1896617115 0.0269758031 -0.4217163026
-0.1878895611 0.0270461887 -0.4217776060
-0.1866986901 0.0269082505 -0.4226181209
-0.1837793440 0.0274055805 -0.4210830033
-0.1825915277 0.0272722449 -0.4219079614
-0.1808318943 0.0273524784 -0.4219336808
-0.1796408147 0.0272229537 -0.4227476418
-0.1778843999 0.0273077507 -0.4227578938
-0.1761313081 0.0273949523 -0.4227593243
-0.1749372333 0.0272713099 -0.4235556424
-0.1731876433 0.0273629557 -0.4235416949
-0.1719905734 0.0272430945 -0.4243270457
-0.1707903743 0.0271249674 -0.4251078963
-0.1690446436 0.0272231083 -0.4250720441
-0.1683807820 0.0268938690 -0.4266561866
-0.1677073091 0.0265657101 -0.4282400310
-0.1659590900 0.0266696662 -0.4281865954
-0.1642145067 0.0267760027 -0.4281244278
-0.1640512347 0.0262363609 -0.4305216372
-0.1623040587 0.0263464488 -0.4304484129
-0.1605606228 0.0264588706 -0.4303665459
-0.1593367904 0.0263566114 -0.4311048985
-0.1591349244 0.0258216467 -0.4335002303
-0.1568804532 0.0261573326 -0.4325678051
-0.1556480080 0.0260603186 -0.4332924485
-0.1544126868 0.0259650368 -0.4340125024
-0.1541723311 0.0254349187 -0.4364054501
-0.1519336402 0.0257796869 -0.4354388416
-0.1516740173 0.0252520870 -0.4378303289
-0.1499320567 0.0253823232 -0.4376912713
-0.1491645724 0.0250762701 -0.4392366409
-0.1479057372 0.0249910057 -0.4399327636
-0.1466441751 0.0249075256 -0.4406241477
-0.1449050754 0.0250457283 -0.4404588044
-0.1436415464 0.0249659792 -0.4411389530
-0.1419075131 0.0251083691 -0.4409586191
-0.1406421959 0.0250323508 -0.4416275322
-0.1398352385 0.0247372910 -0.4431512356
-0.1394761652 0.0242226105 -0.4455352128
-0.1386465877 0.0239301063 -0.4470584393
-0.1378074288 0.0236389898 -0.4485805035
-0.1369586587 0.0233493038 -0.4501012862
-0.1352134198 0.0235045068 -0.4498838782
-0.1334727257 0.0236618984 -0.4496580660
-0.1321729720 0.0235992931 -0.4502959847
-0.1300050318 0.0239829831 -0.4491817057
-0.1287073940 0.0239243023 -0.4498063922
-0.1274073571 0.0238673910 -0.4504262805
-0.1265271306 0.0235895403 -0.4519200623
-0.1252187192 0.0235360432 -0.4525319338
-0.1243230253 0.0232613385 -0.4540209174
-0.1230062619 0.0232112780 -0.4546245635
-0.1216872483 0.0231630187 -0.4552233517
-0.1207701862 0.0228931699 -0.4567041099
-0.1190422773 0.0230718683 -0.4564060867
-0.1173192561 0.0232526548 -0.4560999870
-0.1159947067 0.0232116878 -0.4566774070
-0.1146679372 0.0231725145 -0.4572499394
-0.1133388802 0.0231351629 -0.4578174353
-0.1120076999 0.0230995659 -0.4583800137
-0.1106742993 0.0230657980 -0.4589375854
-0.1093388498 0.0230338071 -0.4594901800
-0.1080011874 0.0230036303 -0.4600377381
-0.1961049587 0.0254898518 -0.4202760756
-0.1937301606 0.0257667955 -0.4195961058
-0.1925461888 0.0256208293 -0.4204587638
-0.1901835352 0.0259036105 -0.4197561443
-0.1889991462 0.0257619172 -0.4206054509
-0.1872301251 0.0258362368 -0.4206653535
-0.1860422790 0.0256983824 -0.4215036929
-0.1837013513 0.0259923004 -0.4207585156
-0.1825133264 0.0258586667 -0.4215835333
-0.1807536334 0.0259425156 -0.4216102064
-0.1795623600 0.0258127265 -0.4224241674
-0.1778059751 0.0259010866 -0.4224354029
-0.1766115576 0.0257751346 -0.4232383370
-0.1754139215 0.0256509017 -0.4240368903
-0.1731089503 0.0259632915 -0.4232211411
-0.1719116122 0.0258432310 -0.4240064919
-0.1707112193 0.0257248655 -0.4247874022
-0.1695077270 0.0256082602 -0.4255638421
-0.1677622646 0.0257120989 -0.4255223870
-0.1676272899 0.0251612030 -0.4279188812
-0.1658790559 0.0252688359 -0.4278663993
-0.1646634489 0.0251592062 -0.4286249280
-0.1644961983 0.0246114098 -0.4310224950
-0.1622233540 0.0249451008 -0.4301284254
-0.1604799032 0.0250612106 -0.4300474823
-0.1587403119 0.0251796059 -0.4299580455
-0.1585411578 0.0246371143 -0.4323496819
-0.1557814181 0.0252019614 -0.4305851758
-0.1550609767 0.0248837490 -0.4321398437
-0.1538288444 0.0247886032 -0.4328579903
-0.1530925632 0.0244730823 -0.4344094396
-0.1513561606 0.0246035866 -0.4342805743
-0.1515911072 0.0238458030 -0.4375102222
-0.1503375620 0.0237569455 -0.4382157922
-0.1495662183 0.0234467480 -0.4397622645
-0.1483037323 0.0233611502 -0.4404604137
-0.1470385343 0.0232773628 -0.4411538541
-0.1452959329 0.0234191567 -0.4409913123
-0.1440287828 0.0233391151 -0.4416734874
-0.1427589506 0.0232608933 -0.4423508942
-0.1414864659 0.0231844001 -0.4430235326
-0.1406721324 0.0228850599 -0.4445502162
-0.1398481578 0.0225871168 -0.4460756481
-0.1390146166 0.0222905595 -0.4475999475
-0.1377212405 0.0222206321 -0.4482589960
-0.1364253163 0.0221525095 -0.4489131570
-0.1346836388 0.0223117378 -0.4486950636
-0.1329465061 0.0224731304 -0.4484685659
-0.1320861578 0.0221848022 -0.4499758482
-0.1299185008 0.0225762241 -0.4488633871
-0.1286206990 0.0225175600 -0.4494882822
-0.1273204386 0.0224607028 -0.4501082897
-0.1260177940 0.0224056114 -0.4507234395
-0.1247127205 0.0223523285 -0.4513337314
-0.1242349818 0.0218471177 -0.4537015259
-0.1229181215 0.0217971448 -0.4543053806
-0.1215988472 0.0217489582 -0.4549042284
-0.1206813082 0.0214753337 -0.4563842714
-0.1193538755 0.0214306377 -0.4569749236
-0.1176272854 0.0216152389 -0.4566714168
-0.1162989214 0.0215742830 -0.4572505653
-0.1149682924 0.0215351190 -0.4578247368
-0.1136354730 0.0214977600 -0.4583939314
-0.1123004109 0.0214622281 -0.4589581788
-0.1109632328 0.0214284901 -0.4595174491
-0.1096238866 0.0213965643 -0.4600716829
-0.1960241497 0.0240532309 -0.4199403226
-0.1930557936 0.0245540272 -0.4184871912
-0.1918747574 0.0244081412 -0.4193475842
-0.1895155162 0.0246986430 -0.4186445177
-0.1883340478 0.0245570298 -0.4194915593
-0.1871492863 0.0244171619 -0.4203342497
-0.1859611869 0.0242790524 -0.4211725891
-0.1836205274 0.0245803371 -0.4204292595
-0.1830036789 0.0242272466 -0.4220452011
-0.1812407672 0.0243143272 -0.4220749736
-0.1794811040 0.0244038496 -0.4220959544
-0.1771629751 0.0247160215 -0.4213105738
-0.1759715676 0.0245901719 -0.4221114218
-0.1747770309 0.0244660880 -0.4229077995
-0.1724755317 0.0247862563 -0.4220917523
-0.1712812632 0.0246662628 -0.4228749871
-0.1706292480 0.0243261214 -0.4244621098
-0.1688835621 0.0244315285 -0.4244281948
-0.1682188809 0.0240942109 -0.4260107279
-0.1670090705 0.0239809174 -0.4267782569
-0.1657962650 0.0238693170 -0.4275413752
-0.1645804495 0.0237594955 -0.4282999635
-0.1633616686 0.0236514360 -0.4290540814
-0.1616178304 0.0237691663 -0.4289806485
-0.1603964865 0.0236648824 -0.4297236800
-0.1586569101 0.0237869788 -0.4296351373
-0.1584570706 0.0232366621 -0.4320250750
-0.1562064439 0.0235877242 -0.4310944080
-0.1549769491 0.0234907493 -0.4318172038
-0.1537445933 0.0233954843 -0.4325354397
-0.1530078501 0.0230760258 -0.4340860844
-0.1517664939 0.0229840260 -0.4347971082
-0.1515055448 0.0224408805 -0.4371852577
-0.1502517909 0.0223519132 -0.4378908873
-0.1494799852 0.0220377874 -0.4394366145
-0.1482172757 0.0219521448 -0.4401348531
-0.1469518691 0.0218682904 -0.4408283532
-0.1452093124 0.0220138412 -0.4406668246
-0.1439419538 0.0219337903 -0.4413490295
-0.1422044486 0.0220835470 -0.4411725104
-0.1413992196 0.0217789803 -0.4426993728
-0.1401239038 0.0217042584 -0.4433674514
-0.1388460398 0.0216313023 -0.4440307915
-0.1375655234 0.0215601716 -0.4446893334
-0.1367324740 0.0212617312 -0.4462063015
-0.1315609366 0.0210014302 -0.4487806261
-0.1298293918 0.0211708192 -0.4485402107
-0.1285313815 0.0211121738 -0.4491651952
-0.1228272691 0.0203843471 -0.4539811313
-0.1215078533 0.0203362536 -0.4545801878
-0.1205899194 0.0200588852 -0.4560594857
-0.1192622557 0.0200142954 -0.4566502273
-0.1179323271 0.0199715029 -0.4572360814
-0.1162071154 0.0201619547 -0.4569270313
-0.1148763075 0.0201229025 -0.4575013518
-0.1135433167 0.0200856812 -0.4580707252
-0.1122081056 0.0200502835 -0.4586350918
-0.1108707190 0.0200166944 -0.4591944814
-0.1095311567 0.0199849047 -0.4597488940
-0.1953437477 0.0228379108 -0.4188279808
-0.1929724962 0.0231298935 -0.4181492925
-0.1917912364 0.0229836833 -0.4190097153
-0.1888450384 0.0235026963 -0.4175298810
