0.0045481993 -0.2024944071 -0.3867260722
0.0216576300 -0.1337203427 -0.3373560699
0.0223947260 -0.1623498349 -0.3413508885
0.0349792422 -0.2204640880 -0.3718965452
-0.0057791020 -0.1465623373 -0.3525546303
-0.0186224832 -0.1674650795 -0.3443709157
0.0443270005 -0.1955919034 -0.3852011545
-0.0259277989 -0.1653468140 -0.3533898876
0.0343338518 -0.1656063915 -0.3543153294
0.0368816798 -0.1624603186 -0.3670675526
-0.0128625231 -0.1679100245 -0.3205359578
-0.0209562790 -0.1856163792 -0.3737121536
0.0160087700 -0.1728763836 -0.3213882688
-0.0227105222 -0.1348641662 -0.3476778973
-0.0035796053 -0.1571770655 -0.3973558239
0.0255376773 -0.1503984793 -0.3381021049
-0.0148923191 -0.1387955143 -0.3340909578
0.0479212962 -0.1963668492 -0.2964592993
-0.0111763720 -0.1759307957 -0.3202445050
-0.0343663965 -0.2330024746 -0.3293618341
0.0460786573 -0.2080985502 -0.3848156800
0.0164636580 -0.2172559498 -0.3346416172
0.0041749862 -0.2201729445 -0.3542932036
0.0477300964 -0.1974487952 -0.3726532322
0.0425948086 -0.1882147617 -0.3655325263
0.0061593436 -0.2084348955 -0.3605053941
-0.0022575144 -0.1571641674 -0.3246296179
0.0783622069 -0.1883006104 -0.3643790155
-0.0358289345 -0.1957601137 -0.3548290909
-0.0131675296 -0.1690687553 -0.3197600780
0.0345288071 -0.1966457706 -0.3578404679
0.0331310609 -0.1663008775 -0.3076884245
-0.0028205834 -0.2031573741 -0.3128958070
0.0393417349 -0.1949249162 -0.3626080239
0.0329504081 -0.1491912414 -0.3741515163
0.0075135084 -0.1548488736 -0.3274728755
-0.0123344326 -0.1670167843 -0.3267440570
-0.0104423972 -0.1365454183 -0.3768854848
0.0708452420 -0.1893871374 -0.3620759236
0.0064591879 -0.2149857475 -0.3315980338
0.0375994486 -0.1811833352 -0.3677863447
0.0244326639 -0.2112046989 -0.3439383565
0.0220280532 -0.1356519668 -0.3733958238
-0.0205791678 -0.1781301478 -0.3626888416
0.0322911553 -0.1667009837 -0.3542398037
-0.0117974633 -0.1731771514 -0.4080161869
0.0638414891 -0.1923641458 -0.3298597862
0.0010562431 -0.1382398667 -0.3479353635
-0.0055795725 -0.1447429234 -0.3326305081
-0.0084053227 -0.1494695875 -0.3320142504
0.0248233209 -0.1937177102 -0.4061324031
-0.0154278458 -0.2079889030 -0.3433360604
-0.0131203473 -0.1829246741 -0.3613333671
0.0189357029 -0.1426316035 -0.3730799506
0.0212076405 -0.1498487018 -0.3514120444
-0.0055518360 -0.1490445482 -0.3198320019
0.0461161297 -0.2076408310 -0.3795084788
0.0265212999 -0.1459442768 -0.3721073919
0.0103376264 -0.1402880034 -0.4175822432
0.0306032033 -0.1687620289 -0.3516983353
0.0607394510 -0.1532157123 -0.4023644733
0.0482267597 -0.2064898235 -0.3862470686
0.0220468571 -0.1739711527 -0.3395429959
-0.0164409422 -0.1625155225 -0.3647779344
0.0588334664 -0.1805968089 -0.3506111480
0.0458412863 -0.2098081950 -0.3905821730
0.0220007222 -0.1911786093 -0.3431449103
0.0273991597 -0.2158740187 -0.3459483130
-0.0247740671 -0.1624182544 -0.3663184288
0.0251296721 -0.1439137310 -0.3518621027
0.0103664760 -0.1653045939 -0.3267044886
0.0194856581 -0.1533407051 -0.3367451919
0.0529889378 -0.1847312659 -0.4032980947
0.0265312830 -0.2207439379 -0.3654199083
0.0093631068 -0.1816004254 -0.3168603565
-0.0096732699 -0.2063318587 -0.3466846948
-0.0102587070 -0.1753564746 -0.4017341011
0.0132398790 -0.2114859149 -0.3365964723
-0.0006193018 -0.1669140443 -0.3171225647
0.0089354755 -0.1386831612 -0.3129975348
0.0162899911 -0.1578128389 -0.3928274056
0.0529589318 -0.1911032747 -0.3063233659
0.0313696624 -0.1974467946 -0.3542438989
0.0247291352 -0.1861079212 -0.4136057467
-0.0191870117 -0.1341381577 -0.3759454962
0.0432472922 -0.1915770861 -0.3667048545
0.0353118468 -0.1631950787 -0.3398125906
-0.0058963889 -0.1630648843 -0.4129797931
-0.0003665707 -0.1441411661 -0.3300785494
-0.0196173181 -0.1933017864 -0.3293021232
-0.0247018440 -0.1848184860 -0.3290483098
0.0068554305 -0.1393490389 -0.3369549718
0.0354899320 -0.1644915842 -0.3692537906
0.0315222887 -0.2132484386 -0.4045313007
0.0457166054 -0.2012400810 -0.4113034025
0.0527133785 -0.1756457772 -0.3687270413
0.0266191246 -0.1518212532 -0.3493617658
0.0563861963 -0.1696117312 -0.3700264820
0.0005447592 -0.1515516390 -0.3271337775
-0.0020606794 -0.1254782176 -0.3779245168
0.0074346278 -0.1760063020 -0.3248633610
0.0134943556 -0.2110974141 -0.3728254342
-0.0157734454 -0.1620079664 -0.3372397081
-0.0079661259 -0.2234079407 -0.3241821321
0.0067329365 -0.1357716589 -0.3740046268
0.0061009600 -0.1372012444 -0.3606949111
-0.0059189203 -0.1492082110 -0.3952324479
0.0294706987 -0.1991200833 -0.3593781780
-0.0204347061 -0.2039211192 -0.3409698754
0.0109091735 -0.1927393102 -0.3282521509
0.0158779286 -0.1603897214 -0.3247140944
0.0318803598 -0.1653728398 -0.3949489294
0.0349266310 -0.1703398022 -0.3136460497
0.0293700150 -0.1551477174 -0.3956158736
0.0410343133 -0.1656657020 -0.3555997477
0.0218807852 -0.1621767808 -0.3992284369
-0.0153274691 -0.1557836801 -0.3778125881
0.0251644850 -0.1365242126 -0.3604877298
0.0410654740 -0.1685406314 -0.3554533518
0.0163636059 -0.2193310155 -0.3486014403
0.0196399319 -0.1438480447 -0.3473403041
-0.0126013931 -0.1917832674 -0.3720133302
-0.0019998936 -0.2109232950 -0.3451891830
0.0547316085 -0.1861198137 -0.3157547023
0.0483599485 -0.1980929088 -0.3772758946
0.0315950997 -0.1791359857 -0.3522963375
0.0192244436 -0.2122594422 -0.3679198253
0.0317062119 -0.1818636735 -0.3550485016
0.0120486801 -0.1661540416 -0.3965111886
0.0196075079 -0.1640666522 -0.3967690293
0.0303548562 -0.1595420856 -0.3650425592
0.0376843336 -0.1748983080 -0.3666153248
-0.0130124392 -0.2099539036 -0.3280002887
-0.0072100194 -0.1762911071 -0.4070804350
0.0015069074 -0.1541999380 -0.3229740361
-0.0073464958 -0.1471538239 -0.3603904782
0.0027600024 -0.1601430455 -0.4197430017
0.0219116449 -0.1557024792 -0.4262174259
0.0222223637 -0.1669746616 -0.3320642302
-0.0107297613 -0.1547720771 -0.4083835949
0.0025866760 -0.1540514901 -0.3275306821
-0.0320978913 -0.1451640497 -0.3411603928
0.0189244534 -0.1352812582 -0.3502007499
0.0605560701 -0.1834987120 -0.3229013883
0.0250176730 -0.1340834812 -0.3583553014
-0.0202852475 -0.2054323292 -0.3501500014
0.0164117441 -0.1572380960 -0.3348217010
0.0266964458 -0.1539557210 -0.3516312320
-0.0163371263 -0.1730641764 -0.3197086130
0.0377566494 -0.2270142695 -0.3829415990
-0.0015241667 -0.1747864957 -0.3215340680
0.0009097738 -0.1497452801 -0.3318437584
0.0352000937 -0.1624598896 -0.3622713245
0.0422223107 -0.1672988386 -0.3787711145
0.0107739685 -0.1534570353 -0.3964467071
0.0414983655 -0.1568525770 -0.3478793574
0.0477932411 -0.1723155095 -0.3518429636
-0.0266919772 -0.1735876340 -0.3245273787
-0.0137656704 -0.1755300145 -0.3786899054
0.0256292661 -0.1518473367 -0.3552075583
0.0360528623 -0.1550700149 -0.3720313617
0.0393410346 -0.1621546059 -0.3675167133
0.0290275769 -0.1877727911 -0.3330627685
0.0270178122 -0.1903622917 -0.4253861119
0.0298493188 -0.2113575808 -0.3497149294
0.0386788169 -0.2222158356 -0.3730164038
-0.0171235765 -0.1604696534 -0.3846942996
0.0254412036 -0.1565130196 -0.3474408473
0.0461915849 -0.1722913282 -0.3567001351
0.0149795230 -0.2189123948 -0.3530303544
-0.0095103371 -0.1481814902 -0.3800857053
0.0356586036 -0.1771040981 -0.4031591536
-0.0141188795 -0.1584261773 -0.4031708654
-0.0233468365 -0.1356385629 -0.3681858592
0.0195140686 -0.1643021889 -0.3353365536
0.0408382891 -0.1776491828 -0.2975784184
0.0002903606 -0.1521080355 -0.4024938224
0.0495780529 -0.2067509011 -0.3833083692
-0.0175961680 -0.1501359715 -0.3834792719
0.0344416845 -0.2156858114 -0.3968072212
0.0271330588 -0.2033644529 -0.3639270202
-0.0040838050 -0.2238063861 -0.3230231576
-0.0221558683 -0.1651398762 -0.3447082217
-0.0123016994 -0.2001020376 -0.3772575069
0.0477963027 -0.1877661280 -0.3000140653
-0.0033694993 -0.1983569233 -0.3906499260
-0.0129433388 -0.1963397892 -0.3131216358
0.0039666000 -0.1983721992 -0.3243494274
0.0038943655 -0.1686647136 -0.3199629166
-0.0262530737 -0.1613168319 -0.3290820822
0.0002881187 -0.1964804961 -0.3953887045
0.0703253166 -0.1964579864 -0.3338885265
0.0412382183 -0.1707356063 -0.3727567876
0.0040158488 -0.1525195282 -0.3297856292
0.0291940551 -0.1690199721 -0.3499334005
-0.0178081538 -0.1703143511 -0.3692044932
0.0266914394 -0.2178983596 -0.3553349033
0.0320724746 -0.1912455565 -0.3374656450
0.0307397448 -0.1496407091 -0.3847231595
0.0019394955 -0.1744390473 -0.3178707374
0.0009866714 -0.1525110081 -0.3203598761
-0.0024596912 -0.1628269949 -0.3182066318
-0.0046666706 -0.1921325053 -0.3764922054
0.0163557111 -0.1395670813 -0.3498501005
0.0549220109 -0.1805389314 -0.3983404229
0.0018546608 -0.1982511767 -0.3191522257
-0.0127051661 -0.1998715548 -0.3614605779
0.0581050893 -0.1735053734 -0.3449343278
0.0557764293 -0.1920933383 -0.3088892088
0.0259318316 -0.1976039661 -0.3396535887
0.0243155243 -0.2155737491 -0.3740468464
-0.0211322330 -0.1769032710 -0.3370216791
0.0176702519 -0.2242685376 -0.3517621862
-0.0166892106 -0.1532457063 -0.4005544483
0.0251809585 -0.1676703502 -0.3967541052
0.0218813540 -0.1684410569 -0.3127547861
0.0259685291 -0.2232184884 -0.3488340378
0.0547378891 -0.1724660694 -0.3809988195
0.0226617839 -0.1982702107 -0.3361550245
-0.0001010555 -0.1398477728 -0.3233221058
-0.0013461347 -0.1410534032 -0.3505633903
0.0563019964 -0.1831568120 -0.3241081857
0.0159930611 -0.1382358959 -0.3354277615
0.0104837691 -0.1723345457 -0.3236503408
0.0298473274 -0.2124581735 -0.3624900267
0.0108349129 -0.1350760962 -0.4218145348
-0.0234159053 -0.1583319998 -0.3366113350
0.0596161881 -0.1788934225 -0.3394908515
0.0178781127 -0.2064372924 -0.4073692323
-0.0098309825 -0.1970995852 -0.3716304368
-0.0128838911 -0.1946159923 -0.3769495905
0.0289030020 -0.1908654355 -0.3376552966
0.0031773495 -0.1493323526 -0.4102628611
0.0394618851 -0.1947048733 -0.3673919820
0.0455744419 -0.1840275253 -0.3631614848
0.0440387673 -0.1810650610 -0.3610540610
0.0327745770 -0.1453125224 -0.3854764786
0.0098877307 -0.1429225490 -0.3434732029
0.0495944816 -0.1985543778 -0.4040895873
0.0192501641 -0.1671276929 -0.3994097927
0.0232069051 -0.1552508225 -0.3489181867
0.0438528704 -0.2138975066 -0.3842464580
0.0269516765 -0.1487515961 -0.3479973924
-0.0173799398 -0.2059764878 -0.3576384037
0.0288392734 -0.1758778005 -0.4147674536
0.0482211047 -0.1665738731 -0.3421574970
-0.0239266644 -0.1522890325 -0.3569273442
0.0323725415 -0.1689785451 -0.3541247045
0.0060581931 -0.1514868149 -0.3224431569
0.0069350470 -0.1619380042 -0.3199546337
-0.0003187655 -0.1322130242 -0.3429791302
0.0508179323 -0.1935858544 -0.3866288386
0.0229170566 -0.1887781782 -0.3410383413
-0.0102492913 -0.2045727353 -0.3407593825
-0.0197791660 -0.1545764010 -0.3905215874
-0.0306403397 -0.1750246318 -0.3539131226
-0.0237558820 -0.1789211350 -0.3547693400
0.0348496907 -0.1814998545 -0.2938137735
-0.0131115512 -0.2163762838 -0.3184801443
0.0361402714 -0.1635683326 -0.3266962288
-0.0140982816 -0.1919630791 -0.3775333488
-0.0257507620 -0.1682511149 -0.3409851243
-0.0189696905 -0.1405323463 -0.3869739620
0.0002966915 -0.1429505348 -0.3367952406
0.0065157972 -0.2061277902 -0.4019548682
0.0584927927 -0.1747380582 -0.3816600991
0.0523054326 -0.1872873666 -0.3031074150
0.0247551024 -0.2143252329 -0.3406366620
0.0066723499 -0.1891094082 -0.4158948748
-0.0100210695 -0.1173148257 -0.3848311661
-0.0080205075 -0.2273840917 -0.3324159006
0.0183768107 -0.2286815262 -0.3546924654
0.0503923745 -0.1679563610 -0.3394600148
0.0337360941 -0.1929776997 -0.3582548751
0.0371554325 -0.2104086055 -0.3654524797
0.0614360857 -0.1665135656 -0.3570732379
0.0173295440 -0.2184907568 -0.3460673978
0.0354647534 -0.2217852774 -0.3913091884
0.0292143301 -0.1713048370 -0.3457582960
0.0289651705 -0.2235114541 -0.3658225086
-0.0193855571 -0.1697189077 -0.3912759936
-0.0050608628 -0.1797577099 -0.3166952539
-0.0049123110 -0.1868560541 -0.3818157003
-0.0025185422 -0.1519086518 -0.4169802106
-0.0021055207 -0.2061455390 -0.3240518797
0.0246203777 -0.2113328871 -0.3362326390
-0.0165502176 -0.2298683137 -0.3282782072
0.0271086264 -0.1692531258 -0.3393948376
-0.0268518628 -0.1702262412 -0.3307308673
0.0402784535 -0.2075762232 -0.3769766741
0.0309793513 -0.2110905996 -0.3563325080
0.0455130716 -0.1538052905 -0.3571991900
0.0252972173 -0.1384734928 -0.3651766640
0.0585410112 -0.1824454851 -0.3354228854
0.0353840744 -0.1820195503 -0.4187817926
0.0084135491 -0.2024353134 -0.3969137047
-0.0119462190 -0.1576921940 -0.3272922635
-0.0028014773 -0.1458265927 -0.3863027468
0.0355038110 -0.1570214571 -0.3376137580
0.0047827166 -0.2009151134 -0.3295586731
0.0245336916 -0.1988184995 -0.3431731507
0.0592436942 -0.1725712620 -0.3684630857
0.0284042334 -0.1773646303 -0.4049483224
0.0411704216 -0.2212749088 -0.3677528765
0.0255907086 -0.1762552056 -0.3399966184
-0.0113482406 -0.1610734821 -0.3371202105
-0.0133311326 -0.1825760686 -0.3758490432
0.0270198866 -0.1663718886 -0.3093466343
0.0418732711 -0.1972331289 -0.3885076330
0.0158646118 -0.1464474265 -0.3851612276
0.0460191121 -0.1771954663 -0.3925477443
0.0087131771 -0.2204843161 -0.3419981917
-0.0067694646 -0.1473732043 -0.3622031857
0.0160898194 -0.1870496436 -0.4123410487
0.0103125346 -0.2066640609 -0.3673150025
0.0455772654 -0.1588319394 -0.3682600051
-0.0193279742 -0.1420846506 -0.3481032405
-0.0039241803 -0.1955739556 -0.3937180481
0.0454360395 -0.2157397310 -0.3921561748
-0.0009045162 -0.1163713123 -0.4143243353
-0.0102863383 -0.1593940157 -0.3223736690
0.0409142169 -0.1765987644 -0.4020407340
-0.0272032920 -0.1895686971 -0.3440735671
0.0058634379 -0.2328572730 -0.3349184848
0.0360373496 -0.1752469444 -0.3850715133
0.0241251844 -0.1534914393 -0.3471633707
0.0395660261 -0.2162013574 -0.3800823316
-0.0219861318 -0.1871454474 -0.3453221031
0.0120008788 -0.2069306607 -0.4027386866
0.0363068990 -0.1937140971 -0.3623096347
0.0249662494 -0.1612227149 -0.3418060655
0.0330035614 -0.1675712617 -0.3894695569
0.0434643595 -0.1985616150 -0.3697548466
0.0506791233 -0.1877266237 -0.3863986778
0.0259315067 -0.1611531690 -0.3927907074
0.0402749688 -0.1656293209 -0.3765612671
-0.0000073561 -0.1492362973 -0.3244014212
-0.0367654275 -0.1737649166 -0.3507560600
-0.0091705242 -0.1485797811 -0.4049565022
0.0304102796 -0.1430692730 -0.3647598942
0.0208486636 -0.1796759081 -0.4106114263
0.0393960932 -0.2261394107 -0.3745884027
0.0276200420 -0.2058459506 -0.4036746515
0.0385625869 -0.1580469882 -0.3674308494
0.0504802834 -0.1666487297 -0.3448208793
0.0366295179 -0.1794823399 -0.3953716932
0.0644873054 -0.1799811571 -0.3675983969
-0.0218888554 -0.1483530403 -0.3551850309
0.0126525725 -0.2098359058 -0.3826852102
0.0235998997 -0.1975658398 -0.4120911418
0.0294462747 -0.1747941995 -0.3467018329
0.0312419493 -0.1655649908 -0.3169894248
-0.0128854300 -0.1623454035 -0.4052345183
-0.0107361944 -0.2014997869 -0.3860656212
0.0440781871 -0.1860543744 -0.3744903358
0.0063850507 -0.2164612539 -0.3276200900
-0.0063630334 -0.1184596377 -0.3883618665
0.0143013060 -0.2119835804 -0.3976054302
-0.0092828582 -0.1826166511 -0.3978532773
0.0270913993 -0.1442588803 -0.3493712633
-0.0204842407 -0.1515288274 -0.3762016555
0.0280965342 -0.1929449083 -0.4246830680
-0.0290032213 -0.1693413241 -0.3684519167
0.0178977891 -0.1459059725 -0.3370648162
0.0456762306 -0.1916334540 -0.4078250852
0.0599988371 -0.1826614398 -0.3649601669
0.0479876901 -0.1632498155 -0.3598225857
-0.0151207811 -0.1501822409 -0.3794201893
0.0008221733 -0.2058617803 -0.3832570720
0.0167653550 -0.1411973314 -0.3367662396
0.0415268418 -0.1856227424 -0.3697321896
0.0033604865 -0.1142817607 -0.4131776809
0.0251795147 -0.1441058666 -0.3479884267
0.0081733156 -0.1425602157 -0.3884057048
-0.0065796259 -0.1940405465 -0.3155642826
-0.0064269367 -0.2105824890 -0.3624757300
0.0278549837 -0.1517310087 -0.3579227092
0.0067083528 -0.2115934421 -0.3558214104
0.0090474156 -0.1659473817 -0.4108267058
-0.0004534248 -0.1848503484 -0.3906187747
0.0372103915 -0.2204631466 -0.3676248607
0.0049486794 -0.1494026448 -0.3253653434
0.0372045597 -0.1763176959 -0.3943643451
0.0401001263 -0.1978171981 -0.3697402983
0.0171818097 -0.1644324070 -0.3327712426
0.0345751896 -0.1505439962 -0.3570390927
0.0173621092 -0.2134717441 -0.3359547812
0.0205649078 -0.2040248933 -0.4091026888
-0.0095582487 -0.1225804114 -0.3931841819
0.0573748032 -0.2096270762 -0.3144158766
-0.0007465384 -0.1297000827 -0.3533141272
0.0380081313 -0.2411287513 -0.3931199131
-0.0178712954 -0.1586653750 -0.3948947656
0.0090285883 -0.2013495378 -0.3858239996
0.0396323705 -0.2131039401 -0.3876752063
0.0158517241 -0.2164336768 -0.3607645826
0.0320206659 -0.1665706302 -0.3497530571
-0.0126609495 -0.1543283762 -0.3344429781
-0.0167173321 -0.1548481092 -0.3353831889
0.0215723573 -0.2073135471 -0.3927735301
-0.0270333742 -0.1931447244 -0.3366856652
0.0127995998 -0.1411964685 -0.3627641522
-0.0196812962 -0.1874792520 -0.3127631715
0.0214726686 -0.1478383267 -0.3656456999
0.0295111974 -0.1816646799 -0.3364469862
0.0001201478 -0.1429594614 -0.4121980874
-0.0199316295 -0.1677613086 -0.3590057550
0.0174094585 -0.2164575158 -0.3490330987
0.0504044342 -0.1576446426 -0.3557716019
0.0488786485 -0.2139254274 -0.3946015252
0.0435407949 -0.1781897325 -0.3186603821
-0.0008241042 -0.1730798276 -0.4101708107
0.0341362678 -0.1548306166 -0.3402009185
0.0741048632 -0.1886375677 -0.3426295338
0.0318014940 -0.1992488593 -0.3597146502
0.0641687569 -0.1699005110 -0.3609637213
-0.0316869362 -0.1697525746 -0.3474377947
-0.0009505452 -0.2148136914 -0.3433064214
0.0267629618 -0.1615296664 -0.3423776968
0.0122583584 -0.2018389119 -0.3922916241
0.0374796263 -0.1632540716 -0.3934878009
0.0382284898 -0.1765507399 -0.4008127100
0.0191720057 -0.1730943808 -0.3445989891
0.0375249883 -0.1835098279 -0.3847426501
-0.0172889533 -0.1443911485 -0.3571621083
0.0115859257 -0.2167113967 -0.3737737441
0.0050411282 -0.1347255121 -0.3643028011
0.0289474980 -0.1668761724 -0.3220684207
0.0369201034 -0.1934603274 -0.4115726105
0.0534677161 -0.1948821288 -0.3010447442
0.0047182045 -0.1463877618 -0.3296979785
-0.0129949674 -0.1639645471 -0.3244159187
0.0243943967 -0.1819386972 -0.4123918695
0.0088022005 -0.1746963525 -0.3214280323
0.0096812563 -0.1583820974 -0.4128298332
0.0300109724 -0.1365215600 -0.3587448718
-0.0141484377 -0.2115512978 -0.3522615697
0.0239040878 -0.2239868624 -0.3849320166
-0.0232880834 -0.1576408685 -0.3289497991
-0.0064865737 -0.1400544521 -0.3953845359
-0.0263331968 -0.2154278583 -0.3240264079
0.0215803193 -0.1629407387 -0.3447838775
0.0465324464 -0.1992548977 -0.3752937327
0.0392263246 -0.1736043793 -0.3648309945
0.0307426799 -0.1452329762 -0.3621811379
0.0451031720 -0.1878567087 -0.3868290701
-0.0015768183 -0.1434134561 -0.3316243749
-0.0274952647 -0.1588719209 -0.3408069311
0.0294297961 -0.2206165422 -0.3625012762
0.0370776123 -0.1832282870 -0.3937403272
0.0279931038 -0.1960385781 -0.3470407331
-0.0139396250 -0.1758072271 -0.3741766783
-0.0140047852 -0.1569528472 -0.3959858612
0.0016650059 -0.2013898541 -0.3733937451
0.0016438505 -0.1386725415 -0.3499909662
0.0209219899 -0.1271065051 -0.3497465522
0.0433279195 -0.2151731180 -0.3974482798
0.0340888404 -0.1631923640 -0.3757754394
-0.0013667047 -0.1813638425 -0.3907882320
0.0502696451 -0.1726786670 -0.3583200152
0.0243170222 -0.1655496514 -0.3063208678
0.0646186113 -0.1833035518 -0.3589277123
0.0098507404 -0.1408599993 -0.3520435492
-0.0156367419 -0.1516068447 -0.3752500192
0.0455465169 -0.1815229212 -0.3647885036
0.0761245437 -0.1943670165 -0.3430069575
0.0450195125 -0.1732241954 -0.3598955665
-0.0175599029 -0.1662498575 -0.3831552615
0.0358422420 -0.2055925935 -0.3700608122
0.0140226801 -0.1447439618 -0.3342599687
0.0015934900 -0.1712464136 -0.3192430620
0.0094488049 -0.1387527521 -0.3375286633
0.0159903776 -0.2162756211 -0.3539306578
-0.0098791558 -0.1731960784 -0.3810890296
-0.0228658097 -0.1565643987 -0.3875544366
0.0170225420 -0.1489240184 -0.3344022905
0.0481990278 -0.2089027026 -0.3991639754
0.0445932150 -0.2084910721 -0.3760404885
0.0068607935 -0.2242464274 -0.3252818938
0.0105356427 -0.1472932580 -0.3819629355
0.0070056557 -0.1369675800 -0.3452673849
-0.0023400342 -0.1712398035 -0.4118974378
0.0446358436 -0.1981413308 -0.4069898040
-0.0158132728 -0.1909427921 -0.3874678670
0.0243031640 -0.2175649610 -0.3528970125
0.0371640441 -0.1911544467 -0.3576310096
-0.0206034143 -0.1781048905 -0.3321270368
-0.0226331192 -0.1939374592 -0.3250727646
0.0268198889 -0.1821763590 -0.3492433098
-0.0172743280 -0.1687370549 -0.3297196587
0.0407392213 -0.1569044953 -0.3776759457
0.0331706588 -0.1445748619 -0.3573293202
0.0106122012 -0.1882623671 -0.4059610430
0.0028760804 -0.1603889154 -0.4052578602
0.0479988933 -0.1838583748 -0.3240816353
0.0073578211 -0.2049562513 -0.3258888480
0.0297166883 -0.1906974833 -0.4204180284
0.0048248254 -0.1691754837 -0.4005580793
-0.0104635543 -0.1315363800 -0.4077351869
0.0281326830 -0.1754634919 -0.3991599671
-0.0167326015 -0.1715600614 -0.3839418050
0.0378764345 -0.1833797342 -0.3514846570
0.0337799079 -0.1890463595 -0.3396480035
0.0542830310 -0.1757139877 -0.3914271621
0.0413377984 -0.1776792042 -0.3722751336
-0.0039363000 -0.1889509248 -0.3780988540
0.0143089940 -0.2059328057 -0.3983027333
0.0514887590 -0.1896490883 -0.3148594088
-0.0185194963 -0.1883264476 -0.3192193060
-0.0208967234 -0.1904932626 -0.3644761639
0.0521481542 -0.1881627210 -0.4066297516
0.0445749674 -0.1816832466 -0.3206214094
0.0327649533 -0.1533667715 -0.3698449753
-0.0273703027 -0.1585947539 -0.3438644703
-0.0037324337 -0.2062704058 -0.3217518066
0.0372088639 -0.1899102345 -0.3664037996
-0.0182622872 -0.1881152756 -0.3335361212
-0.0025120126 -0.2041629806 -0.3701525780
0.0343306440 -0.1870691134 -0.3596738390
-0.0074702835 -0.1616867427 -0.3145565060
-0.0112603503 -0.1504341439 -0.3167421785
-0.0003270332 -0.2108400714 -0.3512169105
0.0371525032 -0.1595076579 -0.3720002266
0.0061587371 -0.1533160204 -0.4019550665
0.0100339284 -0.2019766619 -0.4125520771
-0.0208711089 -0.1836400064 -0.3459522830
0.0128979742 -0.1804694563 -0.3310411602
-0.0138890579 -0.1294952481 -0.4019071765
0.0052639370 -0.2017017092 -0.4048354678
-0.0294410083 -0.1887090671 -0.3217500490
-0.0152337850 -0.2159183933 -0.3223689130
0.0296419090 -0.2076812943 -0.3473581714
0.0112544280 -0.1408293396 -0.3389194906
0.0092864201 -0.1443124221 -0.3752383000
0.0419190396 -0.2089537775 -0.3698101192
0.0290284818 -0.1492961491 -0.3674139760
0.0327157204 -0.1666788296 -0.3617826079
-0.0240955206 -0.1893847991 -0.3355307166
0.0237270194 -0.1936141166 -0.3440342583
0.0067757115 -0.1590718149 -0.3266215200
0.0333337442 -0.1758137244 -0.2967288293
0.0441204050 -0.2116351259 -0.3673356518
-0.0102157815 -0.2007929392 -0.3631950244
-0.0117722891 -0.2060388014 -0.3172266869
0.0261704017 -0.1506299177 -0.3614164246
0.0482624418 -0.2024667034 -0.3874492944
-0.0109064516 -0.1218600410 -0.3846218386
0.0419689514 -0.1663050674 -0.3392350583
-0.0254973600 -0.1685670486 -0.3332421457
0.0155503032 -0.1664875442 -0.4055264305
0.0523718711 -0.1641207808 -0.3710964272
-0.0053008091 -0.1443810131 -0.3572355135
0.0295815771 -0.2225779127 -0.3762450746
-0.0093450620 -0.1667831850 -0.3147052646
-0.0141069204 -0.1736950702 -0.3208023922
0.0085079957 -0.1532467508 -0.4120831644
-0.0097327567 -0.1521505996 -0.4073869109
0.0104612387 -0.1568069176 -0.3254365056
0.0287406418 -0.1840387157 -0.3438365296
-0.0139214244 -0.1824273957 -0.3143115279
-0.0119067876 -0.1818563672 -0.3184119331
-0.0646964785 -0.1794664766 -0.3193448852
0.0015766895 -0.1673401892 -0.3150335252
0.0436562505 -0.1692635581 -0.3916883797
0.0336981622 -0.1963734622 -0.3399582581
0.0120827676 -0.1362117035 -0.3318662469
-0.0034644813 -0.1423919048 -0.3474481263
0.0487824712 -0.1932083799 -0.3006643658
0.0406033623 -0.1870003312 -0.3561853789
0.0235419248 -0.1547331966 -0.3891788460
-0.0096055651 -0.1395019634 -0.3345503516
0.0248192040 -0.1862184583 -0.3483849868
0.0251165082 -0.1708556968 -0.3417882940
0.0023354193 -0.1469089056 -0.3298234595
0.0063477784 -0.1662781105 -0.3266282492
0.0264702869 -0.1996190529 -0.4256412631
-0.0066368682 -0.1335048237 -0.3919165003
0.0051334401 -0.2107822820 -0.3503491437
0.0724897601 -0.1885339610 -0.3588018186
0.0377329941 -0.2195907009 -0.3852122864
-0.0187106165 -0.1856922730 -0.3153571117
0.0647141407 -0.1749345048 -0.3794379888
-0.0153710703 -0.1843819677 -0.3579811891
0.0367125319 -0.1991495576 -0.3553618919
0.0190741961 -0.1516942997 -0.3443675065
0.0318232796 -0.1939484582 -0.3501527010
0.0785871677 -0.1781210671 -0.3642156610
0.0560975651 -0.1769576038 -0.3960503902
0.0430690319 -0.1574892958 -0.3537218246
0.0533228839 -0.1755340989 -0.3721085356
-0.0064732147 -0.1640373836 -0.4069432958
0.0101297167 -0.1985597661 -0.3880755087
0.0082737267 -0.1374357140 -0.3425351803
0.0598053027 -0.1826226735 -0.3186477825
0.0182515210 -0.1895872342 -0.4146463309
0.0196009317 -0.1621157719 -0.3887357180
0.0029254464 -0.2186299319 -0.3199481569
0.0228704451 -0.1567139491 -0.3933459784
-0.0191470332 -0.1369794304 -0.4102231922
0.0289846590 -0.1754840246 -0.3440457094
0.0625182160 -0.1802219805 -0.3437137184
0.0001618644 -0.2092110880 -0.3739579210
0.0324774171 -0.1593589790 -0.3382608662
0.0409700100 -0.2149776303 -0.3937572438
-0.0167234959 -0.1743417987 -0.3668168995
-0.0067068577 -0.2086540635 -0.3485029964
0.0435807938 -0.2015901981 -0.3703013576
0.0331539738 -0.2107706374 -0.4097494458
0.0238791724 -0.1942887929 -0.3542476588
0.0253036396 -0.1462890779 -0.3546624663
0.0320373230 -0.1638118176 -0.3239283621
0.0293231741 -0.1980066166 -0.3677736832
-0.0237869467 -0.1467628421 -0.3385350169
0.0517220615 -0.1670544577 -0.3806920103
-0.0081201808 -0.1252615350 -0.3704623398
0.0341146390 -0.1747956791 -0.3527367111
-0.0112115023 -0.2116854389 -0.3596613049
-0.0093607938 -0.1406184542 -0.3314303270
0.0676011331 -0.1855714397 -0.3600530978
0.0279219303 -0.1898221552 -0.4386580784
0.0282979491 -0.1685956299 -0.3048929353
0.0319488452 -0.1523592117 -0.3566233306
0.0206382242 -0.1411799836 -0.3605675127
0.0243786017 -0.1442176642 -0.3622640813
-0.0214238133 -0.1491723583 -0.3600169482
-0.0102723626 -0.1683700790 -0.3192305798
0.0451780081 -0.1812112636 -0.3112092434
0.0181555370 -0.1927562293 -0.3293259804
0.0497618442 -0.1723322429 -0.4031906463
0.0081681292 -0.2038691740 -0.3899740031
0.0087132788 -0.1451370026 -0.3380605035
-0.0231541932 -0.1410848940 -0.3892424344
0.0276703389 -0.1815132308 -0.3456352190
0.0422939021 -0.1641367170 -0.3443228137
0.0347446211 -0.1508838623 -0.3741204801
0.0226127587 -0.2005086632 -0.3346050536
0.0420759838 -0.1682286896 -0.3448269832
-0.0109881648 -0.1493111852 -0.3344414139
-0.0079970085 -0.1415937531 -0.3931470019
0.0152545773 -0.1643090025 -0.3265637228
0.0621937176 -0.1965518537 -0.3174706192
0.0082982210 -0.1372375935 -0.3548078239
-0.0024655947 -0.1359422658 -0.3851573793
-0.0246608350 -0.1616985968 -0.3372145943
-0.0232406560 -0.1595532536 -0.3764050030
0.0177731217 -0.2247499929 -0.3323321674
0.0175326617 -0.1429678338 -0.3914900882
0.0368745782 -0.1735522635 -0.3816147078
0.0746653569 -0.1907780911 -0.3576335508
0.0331811406 -0.2066708538 -0.3622227918
-0.0045436857 -0.1969249446 -0.3996713052
0.0179221120 -0.1750540834 -0.3350125889
0.0144882215 -0.1728975836 -0.3320312853
0.0322524503 -0.1971652917 -0.3407675300
-0.0010091611 -0.1330736655 -0.3514098795
0.0325776984 -0.1641101264 -0.3199739465
0.0276833452 -0.1743774233 -0.3393376270
0.0403941997 -0.1923872873 -0.3887320944
0.0311749457 -0.1983823543 -0.3564311312
0.0120396758 -0.1931134584 -0.3308243107
0.0176847337 -0.1698516103 -0.3277415781
0.0213505616 -0.1310531607 -0.3553974352
0.0135840988 -0.1407386959 -0.3405571282
-0.0083496613 -0.1526543123 -0.3252135429
0.0390907368 -0.2121043236 -0.4020425027
0.0022983776 -0.1562331959 -0.3198818399
-0.0298648008 -0.1625614663 -0.3575376757
0.0321540032 -0.2065710697 -0.3552909343
-0.0134475343 -0.1663885117 -0.3225066811
-0.0303461570 -0.1382057527 -0.3575483025
0.0098000581 -0.2071497526 -0.4047728536
0.0234496335 -0.1443306780 -0.3425349839
-0.0263770466 -0.1765087745 -0.3319541685
0.0205546620 -0.1417602091 -0.3650459736
0.0479299259 -0.1934530295 -0.3920064569
0.0198637673 -0.1464112472 -0.3452783325
-0.0024565533 -0.2128867480 -0.3299832876
-0.0170940208 -0.1225123659 -0.4089218391
-0.0174070630 -0.1456697404 -0.3851314452
0.0492318055 -0.2040534551 -0.3843403247
-0.0056253872 -0.1839019005 -0.3905518935
0.0348907208 -0.1772646471 -0.3986365620
0.0426699952 -0.1753880002 -0.3957353906
0.0353452826 -0.2304480589 -0.4118794491
0.0387943936 -0.1985557096 -0.4133660607
0.0202974697 -0.2175693937 -0.3518560960
-0.0097434916 -0.1776150002 -0.3986277527
0.0164514715 -0.1956187460 -0.4216109300
-0.0214299872 -0.1499015587 -0.3191368387
0.0243848600 -0.1500463644 -0.3837118707
0.0002648070 -0.1425098173 -0.3402266880
0.0263958867 -0.1782039286 -0.3324083990
0.0090853865 -0.1885630745 -0.3276505193
0.0323384068 -0.2167337138 -0.3847717280
-0.0179379198 -0.1277268191 -0.3859343331
0.0511475263 -0.1718466302 -0.3816837810
0.0713082330 -0.1869672715 -0.3442201347
0.0259812533 -0.1890932341 -0.3382833459
-0.0214287106 -0.1616779295 -0.3393232578
0.0348058944 -0.1871118389 -0.3470610529
0.0748360980 -0.1865541906 -0.3722536874
0.0385817154 -0.1566176040 -0.3720337635
-0.0141466507 -0.1703148312 -0.3743001260
-0.0019785134 -0.1373626253 -0.3619442786
0.0336097916 -0.1638751483 -0.3493735639
0.0262132642 -0.1623366170 -0.3063643925
0.0457733606 -0.2110366928 -0.3789535354
0.0168348085 -0.1396620089 -0.3571182677
0.0508846681 -0.1845803130 -0.3155196347
0.0117347091 -0.1457117974 -0.3795739673
0.0482673973 -0.1837107025 -0.3175355510
0.0495901298 -0.1897907751 -0.3793728494
0.0115323863 -0.1413978236 -0.3641551339
0.0288388516 -0.1641724730 -0.3474625120
0.0421704048 -0.1902736587 -0.2943183233
0.0383801895 -0.1748097335 -0.3114093239
0.0344335440 -0.1651070535 -0.3618638100
-0.0096051377 -0.1599731854 -0.3345744166
-0.0091927364 -0.1277856947 -0.3980132811
0.0187365397 -0.1983258702 -0.3355250525
0.0450182104 -0.1625274111 -0.3675641530
0.0443969963 -0.1785986261 -0.3643013344
0.0500766640 -0.1784630797 -0.3613427490
0.0095920697 -0.2317959259 -0.3365767300
0.0164395640 -0.1512894559 -0.3761181634
0.0106462514 -0.1454901394 -0.3236411805
-0.0007283723 -0.2204691220 -0.3231177505
-0.0080624080 -0.1587518846 -0.3198832225
0.0274245747 -0.1765885288 -0.3440545988
-0.0117115270 -0.1467296509 -0.3933162713
0.0013306178 -0.1615476729 -0.3138778954
-0.0128601299 -0.1815814388 -0.3960575321
0.0156067005 -0.1442507235 -0.3517097869
0.0015228621 -0.1381379114 -0.3525972212
0.0559000554 -0.1757125594 -0.3333168895
0.0276228055 -0.1545700011 -0.3402319410
0.0118851566 -0.1399015729 -0.3351374140
0.0307326173 -0.1546457648 -0.3476863172
0.0185897030 -0.1483493654 -0.3796692276
0.0138798289 -0.1399553235 -0.3574539102
-0.0156861815 -0.1392655019 -0.3915903350
0.0237662617 -0.1985819299 -0.4053468906
0.0092403667 -0.1595292304 -0.3251294108
0.0345844103 -0.1661961466 -0.3834898747
0.0473841417 -0.1674558312 -0.3556542148
-0.0004686198 -0.1647169686 -0.3177002132
0.0389859323 -0.1641354037 -0.3651978254
-0.0250816960 -0.1900770436 -0.3271157611
-0.0218432135 -0.1758798844 -0.3714497471
0.0367830510 -0.1772211053 -0.3848258613
0.0201823788 -0.1687961368 -0.3391735128
0.0290741977 -0.1475484379 -0.4330364257
0.0342149238 -0.1897774760 -0.3694860937
0.0381470503 -0.1571816476 -0.3514246522
0.0268860603 -0.1486200487 -0.3551097220
0.0005646323 -0.1608457242 -0.3208218333
-0.0203701929 -0.1528281310 -0.3220355689
0.0012495983 -0.2014367865 -0.3948939624
0.0087684846 -0.2047720302 -0.3299340560
0.0282509047 -0.1610121491 -0.3619323511
0.0087859750 -0.1741117045 -0.4074099526
-0.0150153578 -0.1858786972 -0.3153983545
0.0215387968 -0.1926821545 -0.3308534518
-0.0170773179 -0.1916116655 -0.3838275793
0.0463140716 -0.2045426139 -0.3784449004
0.0024914767 -0.1711217212 -0.3216488822
0.0063944719 -0.2158650824 -0.3553029343
0.0527196370 -0.1993435210 -0.3917067174
-0.0228517838 -0.1349442909 -0.3728770564
0.0280270611 -0.1633400061 -0.3922171457
0.0577189710 -0.1687499259 -0.3585670343
0.0303224752 -0.1978040299 -0.3495864913
0.0259847870 -0.2129130642 -0.3975639015
0.0125818008 -0.1880677001 -0.3256149542
-0.0294343166 -0.1381194617 -0.3778830929
-0.0121614254 -0.1581798208 -0.4101890691
0.0301560244 -0.1638414678 -0.3515426071
0.0551019537 -0.1757183508 -0.3375048266
0.0378849722 -0.1944389847 -0.3698153397
0.0195400305 -0.1526926967 -0.3834361202
-0.0143704854 -0.1407051314 -0.3426576407
0.0752962036 -0.1904439951 -0.3535616368
0.0251948871 -0.2178862755 -0.3627470073
0.0268861060 -0.1717617245 -0.3398095393
-0.0300623157 -0.1576969938 -0.3657463152
-0.0135803002 -0.1728860176 -0.4129313012
0.0410295506 -0.1653705907 -0.3518613368
0.0326466463 -0.1970113041 -0.3607098116
0.0401011739 -0.1656932488 -0.3689261588
0.0438681841 -0.1941058001 -0.3980649565
-0.0099126477 -0.1892833463 -0.3101660701
-0.0027469820 -0.1423367510 -0.3720908823
0.0016348040 -0.1790998544 -0.3187096140
-0.0074272414 -0.1603547863 -0.4124259781
0.0433802786 -0.1581232602 -0.3636024647
0.0030562686 -0.2066050536 -0.3721605480
-0.0215639998 -0.1711631822 -0.3818151766
0.0415748961 -0.2026230381 -0.3607387757
-0.0096648702 -0.1855200506 -0.3855568897
-0.0106519395 -0.1695100845 -0.3171265160
0.0196064405 -0.2143182023 -0.3973698463
-0.0155598620 -0.2064405431 -0.3261164798
-0.0153011850 -0.2075585911 -0.3286497518
-0.0228745982 -0.1482031646 -0.3353962363
0.0056681942 -0.1671581418 -0.4155472603
0.0135251112 -0.1376456455 -0.3353253297
-0.0261774854 -0.1780438128 -0.3583798899
0.0209666123 -0.2139941186 -0.3692617685
0.0206294240 -0.1782993146 -0.4162861423
0.0417103543 -0.1746711548 -0.3100971284
0.0086376004 -0.1642580959 -0.3223722330
-0.0010694423 -0.2167764462 -0.3252751344
-0.0117579333 -0.2270853944 -0.3265955878
0.0115711486 -0.1870006843 -0.3295793391
0.0439725127 -0.1945274502 -0.3917318369
0.0125485372 -0.1841455526 -0.3310142710
0.0174588405 -0.1959998507 -0.3295111719
0.0441814816 -0.1700771636 -0.3792600850
-0.0147240492 -0.1363223247 -0.3559060437
0.0297894670 -0.2121416168 -0.3997490702
-0.0221759410 -0.1304573528 -0.3611673892
-0.0038106571 -0.1357014388 -0.3712875493
0.0196918198 -0.1486059034 -0.3425121519
0.0043843678 -0.1619205293 -0.3219666023
0.0029100078 -0.2137963237 -0.3666290192
-0.0124794447 -0.1382917062 -0.3748568685
-0.0091358474 -0.2132469907 -0.3535109316
0.0196956996 -0.1547254037 -0.3890765096
0.0704362172 -0.1841314342 -0.3566950896
-0.0230048490 -0.1844082020 -0.3191216989
-0.0174309126 -0.1350695390 -0.3547801512
0.0307300634 -0.1674207797 -0.4075851965
0.0344941501 -0.2012669279 -0.3575333373
0.0441564020 -0.1741050644 -0.3666014836
0.0144879994 -0.1635733066 -0.3245001307
0.0393784148 -0.1886681710 -0.4043828514
0.0573453772 -0.1859261628 -0.3311164720
0.0269465872 -0.2024528802 -0.3466256658
-0.0082833488 -0.1519690666 -0.3304702697
-0.0100014427 -0.2008627098 -0.3717976903
0.0077124267 -0.1567232948 -0.3256348648
-0.0144669149 -0.1673449889 -0.3956507200
-0.0167493716 -0.1976045335 -0.3180110191
0.0216410998 -0.1397505254 -0.3570253253
-0.0092121482 -0.1705410214 -0.3119270037
0.0460221608 -0.2113418483 -0.3945435551
-0.0075932000 -0.2112937919 -0.3389206498
0.0394016436 -0.2122748256 -0.3710395873
0.0071976610 -0.1522956230 -0.3903923235
-0.0205792860 -0.1736998259 -0.3451256818
0.0172176610 -0.2097478950 -0.3390260269
0.0244796132 -0.1453814026 -0.3757174127
0.0275686265 -0.2125137732 -0.3651528029
0.0110636608 -0.1872570803 -0.4015831290
-0.0231190842 -0.1973073928 -0.3229682769
-0.0210354891 -0.1709520860 -0.3617828058
0.0176953206 -0.1700118538 -0.3372567763
-0.0023166376 -0.1613265649 -0.3240170619
0.0338570034 -0.1927204186 -0.3426443295
-0.0088411791 -0.1577097223 -0.3124080126
0.0545058349 -0.1684287282 -0.3898534903
0.0313179570 -0.2196070061 -0.3606746217
0.0047474260 -0.1373163323 -0.3795675404
-0.0027205788 -0.2066902734 -0.3175135221
0.0443565969 -0.1905527874 -0.3982819348
0.0185998262 -0.1974453543 -0.4136577454
0.0392585140 -0.1847137771 -0.3968503425
-0.0089621606 -0.2149882989 -0.3416864540
0.0214791293 -0.1826564808 -0.3286485761
0.0389215748 -0.1666296418 -0.4119965204
-0.0015371780 -0.2090760591 -0.3192356544
0.0592407026 -0.1783736775 -0.3253550899
-0.0030926431 -0.1413176446 -0.3809971968
0.0572062432 -0.1813168555 -0.3670188606
0.0166531753 -0.1639112529 -0.3400159195
0.0506713409 -0.1711433701 -0.3656734987
0.0468198387 -0.1794134457 -0.3222054462
-0.0052136096 -0.1471554340 -0.4093980662
0.0158778178 -0.1831283287 -0.3356060863
0.0060118986 -0.1708669915 -0.4159656364
0.0190794758 -0.1300017114 -0.3604794646
-0.0001972097 -0.1344416027 -0.4184134608
0.0270060134 -0.1668248163 -0.3416341848
0.0517894010 -0.2165157255 -0.3734921602
0.0471837834 -0.1648038908 -0.3763794794
0.0251074782 -0.1958444234 -0.4080160896
-0.0262475647 -0.1483131519 -0.3472367590
0.0344081338 -0.1804981627 -0.3866093672
0.0484614478 -0.1740176609 -0.3839454381
0.0247930664 -0.1668285986 -0.4022976632
0.0335628240 -0.1642306349 -0.3459770724
0.0386171051 -0.1682882576 -0.3105969321
0.0050806115 -0.1973712823 -0.3849270873
0.0043746866 -0.1369170603 -0.3469003857
0.0155890081 -0.1343627670 -0.3548259251
0.0065109350 -0.2050787753 -0.3732306345
-0.0183139515 -0.1434754463 -0.4054421007
-0.0065012954 -0.1267588376 -0.3873922321
0.0094633626 -0.1414178422 -0.3645536413
0.0216497710 -0.1440000744 -0.3529123154
-0.0050365709 -0.1710910349 -0.3171167530
0.0071643816 -0.1587882854 -0.4035131537
-0.0008917748 -0.1710989917 -0.3165663922
0.0292963856 -0.1622553306 -0.3497073306
0.0049722492 -0.2057778876 -0.3266517444
0.0366062957 -0.1989757891 -0.3589216591
0.0371561433 -0.1783673173 -0.3797729140
-0.0211199769 -0.1674249261 -0.3777625859
-0.0293911517 -0.1394444918 -0.3361794386
0.0262872870 -0.2204107746 -0.3613108101
0.0059267323 -0.1645317302 -0.4073052187
-0.0021867133 -0.2082019927 -0.3293238907
0.0380470511 -0.1760235894 -0.3743757304
0.0314132571 -0.1939621831 -0.3481272260
0.0026751291 -0.1451155810 -0.3649852755
0.0020163799 -0.1611187868 -0.3243556593
0.0292996801 -0.1984866574 -0.4071362147
-0.0115861764 -0.2075121786 -0.3670956293
-0.0143189615 -0.1909003403 -0.3132606997
0.0292884891 -0.1496587555 -0.3377056497
0.0542030723 -0.2199044116 -0.3738300731
0.0133329408 -0.1989066954 -0.3276698598
-0.0043472108 -0.1264185884 -0.3913176161
0.0308669875 -0.1490293210 -0.3568546304
-0.0101199615 -0.2204175906 -0.3218901405
0.0092024623 -0.1459613834 -0.3497062357
0.0026950888 -0.1652739624 -0.4211131581
-0.0163776422 -0.2022285792 -0.3163884948
-0.0184132450 -0.1575844029 -0.3747501449
0.0710913981 -0.1836958674 -0.3524664966
0.0216194110 -0.1552123864 -0.3242399683
0.0436867116 -0.1620716028 -0.3497698921
0.0270962993 -0.2228023961 -0.3808177557
0.0099869796 -0.1703128392 -0.4211283025
0.0125094987 -0.2186597333 -0.3689613826
-0.0177681511 -0.1411784507 -0.3761627958
0.0129842406 -0.1998537856 -0.3893022190
0.0355489967 -0.1768890498 -0.3596549777
0.0122638887 -0.1679695963 -0.3244389624
0.0007831082 -0.2055297654 -0.3183958136
0.0339030847 -0.1862184554 -0.3581730723
-0.0008178577 -0.1387666836 -0.3422900736
0.0282779015 -0.2037410281 -0.3358917759
0.0402875803 -0.2022992373 -0.3694768250
-0.0096301134 -0.1546577157 -0.3276386935
0.0198721728 -0.1807803916 -0.3451987582
0.0206939557 -0.1657074100 -0.3116660598
0.0045608326 -0.1570247555 -0.3245651729
0.0279312932 -0.2144749023 -0.4030368471
0.0224707190 -0.1545329085 -0.3531043062
0.0013745770 -0.1705270698 -0.4066553346
-0.0261078992 -0.1948620664 -0.3219716322
0.0117134226 -0.2116316785 -0.3594651076
0.0225051881 -0.1737373307 -0.4537274357
0.0405222195 -0.1612457148 -0.3930038703
0.0088902333 -0.1356105860 -0.3659942155
-0.0154636552 -0.1925573535 -0.3804211476
0.0527296180 -0.1791440169 -0.3951435511
0.0426821356 -0.1630962906 -0.3586892647
0.0084534605 -0.1597953752 -0.4176462692
-0.0222295653 -0.1781291459 -0.3439510921
0.0401838533 -0.1647261722 -0.3721292884
0.0328793671 -0.1791626070 -0.3623426874
0.0149874459 -0.1304048430 -0.3649119599
0.0450346038 -0.1840626853 -0.2983790040
0.0274744666 -0.1672444129 -0.3447219718
0.0340610705 -0.1550956359 -0.3910065708
0.0208527532 -0.2170708916 -0.3651060868
-0.0268137731 -0.1405714240 -0.3684472703
-0.0036539906 -0.2112297758 -0.3537878249
0.0285300037 -0.1635244194 -0.3952345712
0.0109400419 -0.1970331869 -0.3293142283
-0.0245166645 -0.1426904537 -0.3729685716
0.0099019080 -0.2159610703 -0.3538299850
-0.0083520967 -0.1509345951 -0.3608031246
0.0245470281 -0.1862864110 -0.3363528134
-0.0005672770 -0.2233631049 -0.3273556071
-0.0129808501 -0.2197076039 -0.3157070923
0.0045980743 -0.1373891582 -0.3492039012
0.0446416472 -0.1742262178 -0.3892853466
0.0347045482 -0.1493281848 -0.3493886921
0.0114275342 -0.1250232034 -0.3459344303
0.0577368515 -0.1761556679 -0.3868489660
0.0261679970 -0.2148437615 -0.3807907377
0.0481071312 -0.1976354817 -0.4112307328
-0.0097339339 -0.1772517960 -0.4045624498
0.0527606429 -0.2221660073 -0.3720212086
0.0130535870 -0.2284618336 -0.3446472440
-0.0211001525 -0.1816166111 -0.3152120320
0.0179730850 -0.1860771426 -0.3269071186
-0.0185353953 -0.1895949476 -0.3683425012
-0.0172593670 -0.1981265034 -0.3657819345
-0.0148094783 -0.1509573131 -0.3349195961
0.0012296782 -0.2207070651 -0.3395715994
-0.0189515696 -0.1442184802 -0.3688573085
0.0103259804 -0.1742989297 -0.3187317548
-0.0057736631 -0.2041565229 -0.3240984607
0.0335259570 -0.2224279647 -0.3884500225
0.0500479017 -0.1659618519 -0.3359079501
-0.0084501345 -0.1267787195 -0.4114382804
0.0639866674 -0.1816376170 -0.3644816653
0.0605872245 -0.1801465973 -0.3589010845
0.0324800469 -0.1695550707 -0.4111048596
0.0458780892 -0.1977417467 -0.2935477923
0.0023246968 -0.1380965710 -0.3420922607
-0.0059559445 -0.1667907004 -0.3152367610
0.0071575518 -0.1589846388 -0.3219957799
-0.0154667263 -0.1673631009 -0.3922944089
0.0303629396 -0.1717352129 -0.3519006436
0.0217646068 -0.1830369641 -0.4130782338
0.0378827184 -0.1723995918 -0.3667905529
0.0453003475 -0.1974583542 -0.3926653521
0.0386326012 -0.1643051430 -0.3374520269
0.0089069327 -0.1919593627 -0.4173892556
-0.0055883984 -0.1451969568 -0.3594428838
-0.0189966586 -0.1709839319 -0.3275152400
0.0516348774 -0.1854677390 -0.3764895641
0.0084384405 -0.2163305168 -0.3338134778
-0.0256951592 -0.1705979953 -0.3664967217
0.0326672724 -0.1625741213 -0.3527688966
0.0435129252 -0.1921298457 -0.3875334571
0.0375254428 -0.1664199380 -0.3296584292
0.0139076151 -0.1757999440 -0.3261349722
-0.0126697873 -0.1783294115 -0.3720276691
0.0154654653 -0.2268479806 -0.3367842499
0.0039882980 -0.1390656121 -0.3343891278
0.0312542347 -0.2037595484 -0.3483198344
0.0324366489 -0.2095980519 -0.3464239702
0.0241155437 -0.1718688737 -0.3347934624
-0.0129715816 -0.1556768393 -0.3838748941
0.0490412802 -0.1628915862 -0.3685872877
-0.0269258882 -0.1448428339 -0.3796985555
0.0464737113 -0.1799563436 -0.3265476382
0.0646985009 -0.1829723399 -0.3348165255
-0.0221186113 -0.1636687224 -0.3687339083
0.0391887079 -0.1858918553 -0.4175225778
-0.0383255458 -0.1859355549 -0.3105487930
-0.0068641713 -0.1620453424 -0.3198288592
0.0595128775 -0.1900340037 -0.3177528401
0.0014693684 -0.1927374801 -0.3800703279
-0.0202171929 -0.1449671012 -0.3229119939
-0.0198844066 -0.1544468671 -0.3873322747
0.0588160750 -0.1780888302 -0.3827330134
0.0217982729 -0.2204641493 -0.3646755257
0.0428130675 -0.1730168161 -0.3928071528
0.0002074852 -0.1399729252 -0.3262514087
-0.0142225500 -0.1665660215 -0.3177057849
0.0238460806 -0.1959968291 -0.3340826059
0.0215117639 -0.2177252167 -0.3957991693
0.0419620780 -0.1815595851 -0.3814317851
0.0378019132 -0.1973661274 -0.4012002631
0.0059731572 -0.1420718290 -0.4151198913
0.0359430032 -0.1851642861 -0.4120699933
0.0398387926 -0.2144935917 -0.3980424919
-0.0047013791 -0.1356240098 -0.3413382876
-0.0068398989 -0.1540342534 -0.3194047423
-0.0066155065 -0.1740517573 -0.3143592546
-0.0250434707 -0.1699843365 -0.3530474453
0.0349484913 -0.1721381456 -0.3593543996
0.0222408027 -0.1809147528 -0.3315585538
-0.0240060897 -0.1852506961 -0.3351932831
-0.0049041045 -0.1371156636 -0.3930815901
0.0364165421 -0.1793274473 -0.3619980767
0.0060803926 -0.1638727893 -0.4130231729
0.0363131083 -0.1810222321 -0.3970513967
0.0149960579 -0.1389258044 -0.3444101811
0.0298100095 -0.1863398999 -0.3525148630
0.0375672318 -0.1675125575 -0.3832978519
0.0036620671 -0.1834678319 -0.3197937217
0.0259673763 -0.1678463519 -0.3378797770
0.0015176600 -0.1919032294 -0.3994329241
-0.0023477715 -0.1285765915 -0.3877015457
0.0094482159 -0.2227071894 -0.3853844380
0.0480126355 -0.1664475795 -0.3809638354
-0.0177245240 -0.1466302808 -0.3273026237
-0.0072098833 -0.1661612706 -0.4099091701
0.0525628955 -0.1698822415 -0.3788053260
-0.0123741329 -0.2054269228 -0.3441533299
-0.0178195728 -0.1679978560 -0.3648592230
0.0414569264 -0.1855770625 -0.3921841703
0.0205077637 -0.1950804238 -0.4278711515
-0.0072897949 -0.2077271083 -0.3581401899
0.0187947013 -0.1678686043 -0.4040120006
0.0490377865 -0.1743303006 -0.3913598699
0.0411290294 -0.1819913711 -0.3742420472
-0.0169839587 -0.1282169361 -0.4042943054
0.0165532476 -0.1371134080 -0.3690826396
-0.0057092120 -0.1166150415 -0.3819007407
0.0461946485 -0.2173181359 -0.3820668910
-0.0340334227 -0.1514799850 -0.3613044366
-0.0239762342 -0.1908475265 -0.3394524410
0.0028460681 -0.1408904113 -0.3427342203
0.0307088240 -0.2082731737 -0.3440273206
-0.0027614104 -0.1215702623 -0.3908986119
0.0140995296 -0.1433658740 -0.3927936760
0.0261606383 -0.2089280671 -0.3433671467
-0.0167205546 -0.1691855714 -0.3779945739
0.0374004418 -0.1549416086 -0.3359608204
-0.0081704729 -0.1712883636 -0.3155061188
-0.0161205955 -0.1410551082 -0.3460294775
-0.0252898267 -0.2318854432 -0.3268765303
0.0179572286 -0.1498477408 -0.3567508119
-0.0032111529 -0.1669100673 -0.3224157505
0.0436688159 -0.2079599647 -0.3755702983
0.0499593885 -0.1747527544 -0.3528773903
0.0160931175 -0.1387358876 -0.3475369022
-0.0062585309 -0.1732293420 -0.3832220656
-0.0254408602 -0.1802292699 -0.3588417263
0.0183264786 -0.1375827719 -0.3755995713
0.0116274637 -0.1969567128 -0.4037633300
-0.0032734985 -0.1354092813 -0.3822269873
-0.0029464234 -0.1962455409 -0.3856144823
0.0099955915 -0.1688037121 -0.4175440034
0.0327439178 -0.1941766145 -0.3311656963
0.0009997162 -0.1854608542 -0.3177136727
-0.0128620896 -0.1644743609 -0.3225400665
0.0334476894 -0.1734227760 -0.3918681024
0.0247609643 -0.1635290374 -0.3399063249
-0.0187515228 -0.1331786431 -0.3703557154
0.0318099410 -0.1508669951 -0.3713776840
-0.0012214118 -0.2093645170 -0.3583067911
0.0223751495 -0.2118268525 -0.3967421486
0.0299273828 -0.1671827839 -0.3020549801
0.0002548852 -0.2231204015 -0.3309582391
0.0586920335 -0.1885557641 -0.3110162550
0.0071980053 -0.2201629481 -0.3381163345
0.0466596765 -0.1636095846 -0.3640647988
0.0340245838 -0.1644866293 -0.3907416922
-0.0016919102 -0.1743311270 -0.4025928805
0.0298472496 -0.2136173193 -0.3443385934
-0.0037001337 -0.1374693431 -0.3739686114
-0.0003782583 -0.1860709473 -0.3215105628
0.0305242139 -0.1738471128 -0.4078008675
-0.0028802337 -0.1445300187 -0.3256015366
-0.0254948674 -0.1496950147 -0.3657741917
0.0349399615 -0.1691150998 -0.4044435530
-0.0119924911 -0.1879588268 -0.3129735898
-0.0128814271 -0.1707023531 -0.3164405823
0.0061578428 -0.2133644375 -0.3678192563
0.0245149087 -0.1883110789 -0.4356933599
-0.0112112778 -0.1758332893 -0.3139369582
-0.0265391417 -0.1500162187 -0.3512111585
-0.0203336816 -0.1986774605 -0.3320246985
0.0056131490 -0.1474164687 -0.3930757127
0.0009561344 -0.2013392602 -0.3905873483
0.0605576817 -0.2004774010 -0.3110015336
-0.0314062832 -0.1542509756 -0.3562565032
0.0317439831 -0.1726443413 -0.3472580311
-0.0015049392 -0.2116029243 -0.3799688688
0.0142375291 -0.1890156282 -0.4158374926
-0.0226360131 -0.1597681078 -0.3724269152
0.0086502754 -0.1405500567 -0.3580484506
0.0460846927 -0.2177813790 -0.3960902736
0.0588664509 -0.1686497784 -0.3439469681
-0.0056781475 -0.1640792662 -0.3221356159
0.0076726398 -0.2212764115 -0.3547685704
-0.0038440269 -0.1276771664 -0.3980861762
-0.0209186829 -0.1572335776 -0.3460811097
-0.0158269108 -0.1882730311 -0.3555531352
-0.0238803096 -0.1930451394 -0.3433135520
0.0451112207 -0.1670387865 -0.3768387518
