0.0106167808 -0.1412166157 -0.2494807671
-0.0164453630 -0.1177245581 -0.2405043199
-0.0031208141 -0.1236311265 -0.2635217740
-0.0308787897 -0.1180283055 -0.2242151052
-0.0117941969 -0.1274557842 -0.2355561347
-0.0115337924 -0.1291234143 -0.2329890219
0.0644650182 -0.1207216827 -0.3054529344
0.0394331699 -0.1686510811 -0.2561644514
-0.0200289845 -0.1718634791 -0.2281183886
0.0551386267 -0.1263238087 -0.2700865565
-0.0022996403 -0.1777815470 -0.2392305657
0.0523325262 -0.1927193906 -0.2627745210
0.0034031770 -0.1421986453 -0.2431325109
0.0223680545 -0.1086118726 -0.2836848546
0.0670037475 -0.1892988462 -0.3062676197
0.0155590952 -0.1089290869 -0.2722007827
0.0000591899 -0.1397801206 -0.2403287250
0.0021016398 -0.1445458829 -0.2411248455
-0.0496572105 -0.1411412685 -0.2310366864
-0.0483913987 -0.1230492463 -0.2350380071
0.0615078223 -0.1087267540 -0.3077457417
0.0476271696 -0.1470653329 -0.2608575370
-0.0271759814 -0.1391576041 -0.2282936738
0.0333826593 -0.1126237300 -0.2608141252
0.0500080886 -0.1493588883 -0.2649742112
-0.0286238933 -0.1713307528 -0.2202843925
0.0426411247 -0.1421307044 -0.2623250407
0.0096469254 -0.1075923389 -0.2709461718
0.0628950609 -0.1515089696 -0.3026090165
-0.0020622272 -0.1468493570 -0.2403149552
-0.0216661775 -0.1214053422 -0.2300677870
-0.0268935835 -0.1316483111 -0.2274126497
0.0229856128 -0.1403290134 -0.2480317712
-0.0157225078 -0.1184230454 -0.2603209177
0.0126026907 -0.1374190345 -0.2498346930
0.0163843473 -0.1309136106 -0.2552785623
-0.0657791668 -0.1340725738 -0.2306101925
0.0101520761 -0.1314454956 -0.2875630758
-0.0399668129 -0.1153164251 -0.2274982919
0.0348405985 -0.1500623784 -0.2562592157
-0.0502363110 -0.1728637957 -0.2243140655
0.0190854046 -0.1732236672 -0.2497965763
0.0730936875 -0.1726298527 -0.3151527981
-0.0245132536 -0.1336353781 -0.2304785591
0.0523364518 -0.1521095281 -0.2630800511
-0.0351253719 -0.1741210247 -0.2245088346
0.0555635180 -0.1982770955 -0.3027267780
0.0375829905 -0.1960971414 -0.2617795619
0.0129095306 -0.1303918858 -0.2694900322
0.0344790996 -0.1082397228 -0.3035269180
0.0673845751 -0.1365860077 -0.3026510983
0.0652987223 -0.1575842859 -0.2953617819
0.0485594254 -0.1927171649 -0.2628583308
-0.0144451277 -0.1593278216 -0.2299393463
0.0549152873 -0.1126066011 -0.3030597425
0.0418268672 -0.1595093260 -0.2601064170
0.0594453530 -0.1182210593 -0.2677204479
0.0636927935 -0.1248689556 -0.2780552207
0.0597193510 -0.1380789776 -0.2644318161
0.0087765653 -0.1783870562 -0.2444679105
-0.0155151334 -0.1569155740 -0.2300968315
0.0548085979 -0.1571912738 -0.2953268764
-0.0321525626 -0.1093457808 -0.2271866543
0.0294499678 -0.1599422828 -0.2524522155
0.0421752813 -0.1692783075 -0.2603964246
0.0180311426 -0.1270190303 -0.2502390114
0.0225761828 -0.1148034493 -0.2505344020
0.0153460399 -0.1321512021 -0.2484835043
-0.0170458802 -0.1268125623 -0.2323358843
-0.0262724655 -0.1136620070 -0.2448495058
0.0051848058 -0.1197073116 -0.2430845924
0.0290842596 -0.1383735727 -0.2814182074
0.0373612189 -0.1544478861 -0.2562063134
0.0446043903 -0.1639493133 -0.2589033600
0.0385642833 -0.1717973617 -0.2566731612
0.0642061887 -0.1542130196 -0.3104507722
0.0672170356 -0.1369306438 -0.2933570264
-0.0096254627 -0.1419856877 -0.2355325745
0.0235642314 -0.1167539820 -0.2483672431
-0.0633503411 -0.1301688794 -0.2360564232
0.0158153643 -0.1298457056 -0.2503235186
-0.0045105854 -0.1240456270 -0.2756660394
0.0107152090 -0.1146660581 -0.2479027792
0.0104895904 -0.1392970180 -0.2473025276
0.0570985742 -0.1375888768 -0.2661320215
0.0126555223 -0.1302090024 -0.2462167206
0.0287564871 -0.1941342216 -0.2561829537
0.0553318684 -0.1891055428 -0.2799845031
-0.0160413836 -0.1674628509 -0.2294941129
-0.0416476681 -0.1166605617 -0.2388332815
0.0021428899 -0.2017793204 -0.2641476702
-0.0469706829 -0.1784825460 -0.2168085884
0.0599872920 -0.1131330202 -0.3075594960
-0.0465138789 -0.1296833430 -0.2263011355
-0.0211871047 -0.1083792318 -0.2307052922
0.0116327366 -0.1086548164 -0.2586486348
-0.0301385972 -0.1485669264 -0.2255804727
0.0529380791 -0.1591592620 -0.2840444564
0.0593715843 -0.1169241923 -0.3027196145
0.0129759927 -0.1265694222 -0.2495087232
-0.0204064112 -0.1810470629 -0.2290572414
0.0609807311 -0.1178187436 -0.2980908763
0.0105667640 -0.1245805683 -0.2455429604
0.0548913930 -0.1515588880 -0.2821670383
0.0453942660 -0.1518811267 -0.2602253332
0.0469773816 -0.1641788053 -0.2658141873
0.0472094383 -0.1621853139 -0.2633092757
0.0191797756 -0.1916804648 -0.2490641575
-0.0048646331 -0.1342053593 -0.2401594883
0.0499493856 -0.1217978810 -0.2631370909
-0.0195129022 -0.1486143897 -0.2305501327
-0.0246351691 -0.1303046620 -0.2303663571
0.0330606017 -0.1405638831 -0.2787276259
0.0072255522 -0.1298839453 -0.2437815991
-0.0196101916 -0.1469324824 -0.2302380608
0.0527929744 -0.1592861513 -0.2684139524
0.0322885389 -0.1047668375 -0.2863243757
0.0082821158 -0.1659484331 -0.2408187611
0.0390598888 -0.1092703790 -0.2905476861
0.0585922958 -0.1376843244 -0.2700113865
0.0279154494 -0.1369626939 -0.2571782159
-0.0252672040 -0.1669095329 -0.2280172127
-0.0367235846 -0.1807876506 -0.2245138903
0.0077295386 -0.1173154661 -0.2454835632
0.0516017689 -0.1118394157 -0.2883392303
0.0180091298 -0.1700148209 -0.2503872989
0.0247509099 -0.1491072982 -0.2512045577
-0.0003774521 -0.1420890270 -0.2406983309
0.0580988266 -0.1247606352 -0.2732473314
-0.0237971686 -0.1467093803 -0.2310500213
0.0486811992 -0.1461221373 -0.2749372268
-0.0055025695 -0.1219515936 -0.2646557066
0.0615563563 -0.1824046161 -0.2689682826
0.0661610249 -0.1537331755 -0.3028472563
0.0076536219 -0.1092548102 -0.2534384856
0.0526269847 -0.1129005360 -0.2906839450
0.0468857620 -0.1443926360 -0.2604796838
-0.0501397578 -0.1535580991 -0.2358812128
-0.0057487787 -0.1093835357 -0.2475626498
0.0610227018 -0.1682867401 -0.2679118340
-0.0200326341 -0.1550375702 -0.2296310918
0.0205489312 -0.1371694155 -0.2526497238
-0.0091688227 -0.1348487374 -0.2376981419
-0.0276710004 -0.1658908209 -0.2241040577
0.0355036541 -0.1491418477 -0.2577491905
0.0500809201 -0.1594609502 -0.2622844583
0.0490992629 -0.1992100607 -0.2745046993
0.0228832550 -0.1415056195 -0.2524264468
-0.0573446965 -0.1320674256 -0.2349953112
0.0699473965 -0.1679920972 -0.3015531863
0.0680321039 -0.1561152592 -0.3182403198
0.0456861771 -0.2065248364 -0.2918682627
0.0035365570 -0.1094751101 -0.2506717389
-0.0055915388 -0.1223719747 -0.2504740130
-0.0369187046 -0.1373511088 -0.2255187925
0.0120977680 -0.1469550158 -0.2457132287
-0.0346523720 -0.1477019243 -0.2248100000
-0.0098093146 -0.1416989161 -0.2331540687
0.0097171587 -0.1291965210 -0.2651664389
-0.0180579464 -0.1820136391 -0.2322681277
0.0527414467 -0.1132854306 -0.2716990155
-0.0499028022 -0.1784436345 -0.2178266180
0.0485623482 -0.2000914943 -0.2773853848
0.0531048610 -0.1150183335 -0.2652994694
-0.0235816373 -0.1044436657 -0.2695912066
0.0123849914 -0.1318366915 -0.2819393054
0.0196571469 -0.1095119600 -0.2653338644
-0.0300219233 -0.1327582431 -0.2270052840
-0.0486110247 -0.1496352844 -0.2347952122
0.0574393477 -0.1153468251 -0.2793551696
0.0697611426 -0.1618136965 -0.2883377180
0.0648322654 -0.1821862241 -0.2798025343
0.0722064368 -0.1630937656 -0.3132122255
0.0578467700 -0.1267658284 -0.2706458496
-0.0269704501 -0.1824878892 -0.2242149800
0.0005033525 -0.1169891534 -0.2402828659
0.0289771726 -0.1523488106 -0.2508877131
-0.0442967512 -0.1266773822 -0.2253483572
0.0147289944 -0.1419100410 -0.2482494311
-0.0071972299 -0.1146648265 -0.2370362488
0.0470505904 -0.1987055903 -0.2866335230
0.0466383534 -0.1437213635 -0.2643662141
0.0669825566 -0.1258555028 -0.2762715640
0.0345864348 -0.1274010504 -0.2579513520
0.0415578212 -0.1566770877 -0.2561244660
0.0718137522 -0.1816688216 -0.3159757283
-0.0047683388 -0.1196904083 -0.2373217083
0.0406463146 -0.1366063952 -0.2619925737
-0.0603640105 -0.1435557895 -0.2379185804
0.0471703587 -0.1118273528 -0.2747650401
-0.0447339415 -0.1793129807 -0.2210866519
0.0543193161 -0.1503884673 -0.3013211750
0.0455192617 -0.1909009953 -0.2604053478
0.0230942021 -0.1267674751 -0.2549287135
0.0097417107 -0.1108067106 -0.2424481671
-0.0222332608 -0.1418925080 -0.2279755407
0.0656541505 -0.1632149910 -0.2730145704
-0.0125438919 -0.1595929405 -0.2329151464
-0.0016581374 -0.1772214006 -0.2428803413
0.0046009564 -0.1948946569 -0.2438620623
0.0010619185 -0.1221749671 -0.2400675412
0.0003331781 -0.1219481474 -0.2381723217
0.0492199775 -0.1649444942 -0.2650766185
-0.0188365059 -0.1177321311 -0.2670321735
-0.0267999148 -0.1563212484 -0.2248678497
-0.0120108111 -0.1398187938 -0.2331770968
-0.0267908782 -0.1702683943 -0.2267815948
0.0375274470 -0.1495211781 -0.2579620817
0.0499515409 -0.1347857137 -0.2638541477
0.0712815470 -0.1720069488 -0.2991385480
-0.0323245109 -0.1684812911 -0.2221533472
0.0679008445 -0.1192613288 -0.3093266200
0.0284368142 -0.1293478564 -0.2572778310
0.0674411184 -0.1266156604 -0.2936477081
0.0031121495 -0.1522501394 -0.2426011791
0.0211817812 -0.1280164984 -0.2470821353
0.0185704016 -0.1330656004 -0.2762342878
-0.0131802836 -0.1850686747 -0.2355957007
0.0248508834 -0.1536791924 -0.2533799639
-0.0225097127 -0.1515910427 -0.2274676836
0.0540913142 -0.1619786291 -0.2705159547
-0.0466786025 -0.1636364972 -0.2243072923
0.0653401041 -0.1350533336 -0.2799147938
-0.0178923448 -0.1542968621 -0.2301257390
-0.0618305834 -0.1451435194 -0.2199610666
-0.0126994569 -0.1450473610 -0.2306491074
0.0378675065 -0.1373485593 -0.2602787187
-0.0470774260 -0.1608500950 -0.2247670713
-0.0409132974 -0.1811832413 -0.2232637274
0.0476897217 -0.1443908607 -0.2629363698
-0.0268733455 -0.1063218759 -0.2548986663
0.0168551658 -0.1583205614 -0.2472344480
0.0143359473 -0.1743413416 -0.2475489202
0.0503708892 -0.1150221279 -0.2648729921
0.0540592079 -0.1690618708 -0.2837717493
-0.0680425457 -0.1434574002 -0.2359339071
-0.0547722936 -0.1316079640 -0.2342175845
-0.0342651123 -0.1398473583 -0.2258854037
0.0351040382 -0.1544759247 -0.2572564825
0.0231995573 -0.1128522712 -0.2521110862
-0.0004155707 -0.1254201879 -0.2704870313
0.0728846179 -0.1351412504 -0.3083794396
-0.0255076800 -0.1401852597 -0.2295135764
0.0617917610 -0.1773643648 -0.2718832485
0.0256269021 -0.1240610425 -0.2554609033
0.0083769521 -0.1824805447 -0.2445973920
-0.0448728876 -0.1418924369 -0.2335997171
0.0563672928 -0.1699627148 -0.2645607050
0.0080588552 -0.1119504636 -0.2449106815
0.0588959906 -0.1174053393 -0.2797519288
0.0580903292 -0.1706906740 -0.2784745516
-0.0144826506 -0.1518209668 -0.2296025273
0.0371542044 -0.1248232610 -0.2584211733
0.0168674492 -0.1348693299 -0.2961116606
0.0193096818 -0.1326468882 -0.2642164800
0.0736691646 -0.1408750939 -0.3098964001
-0.0120708914 -0.1170051694 -0.2312920392
0.0623953804 -0.1601850919 -0.2678432476
-0.0310937745 -0.1659170485 -0.2201319097
0.0251439966 -0.1093701978 -0.2794305523
0.0121611771 -0.1643447594 -0.2473380166
0.0050853358 -0.1465919068 -0.2457918796
-0.0144922870 -0.1619933965 -0.2344999059
0.0475625657 -0.1392753043 -0.2647903490
-0.0164379898 -0.1791341558 -0.2298608777
0.0322975811 -0.1398171128 -0.2818241199
0.0057591049 -0.1667991892 -0.2409246291
0.0153233847 -0.1482946230 -0.2521348811
0.0092927115 -0.1353655922 -0.2462936985
0.0528323265 -0.1371853915 -0.2633199864
-0.0259769578 -0.1859278297 -0.2264436734
-0.0089887931 -0.1214949491 -0.2590816606
0.0527808958 -0.1701961025 -0.2628411163
0.0171153720 -0.1199423264 -0.2484280832
0.0069951337 -0.1560128907 -0.2409591513
0.0153910118 -0.1422536798 -0.2497774133
0.0575125430 -0.1672885138 -0.2863312039
0.0236042175 -0.1374255771 -0.2969641275
-0.0015441422 -0.1143431647 -0.2427381588
0.0477574340 -0.1346303024 -0.2648597422
0.0448279529 -0.1460931697 -0.3039301912
-0.0130524308 -0.1795853526 -0.2317413868
0.0139728345 -0.1635684065 -0.2440456239
-0.0515004438 -0.1135936444 -0.2328932476
-0.0244838733 -0.1050626877 -0.2603073106
-0.0074099909 -0.1569799667 -0.2350043439
0.0685152810 -0.1286553521 -0.2941437416
0.0697865479 -0.1230882969 -0.2818176967
0.0695403624 -0.1798246315 -0.2938170994
0.0482088381 -0.2043735591 -0.2761887672
-0.0162802342 -0.1689043346 -0.2316963999
0.0666251091 -0.1585988065 -0.2880241230
-0.0439443210 -0.1318955704 -0.2255548515
0.0454082121 -0.1274024410 -0.2629894603
0.0097037398 -0.1390596134 -0.2462396589
0.0537707640 -0.1594647894 -0.2730315943
0.0671917478 -0.1264813802 -0.3034815561
0.0077069015 -0.1391887358 -0.2452776463
0.0335734850 -0.1836638975 -0.2545246953
0.0237008291 -0.1044676671 -0.2899300746
0.0621840029 -0.1184727792 -0.3039462200
0.0381754366 -0.1516953172 -0.2581373506
0.0672797236 -0.1767315275 -0.2748147404
0.0226941927 -0.1045263070 -0.2935632757
0.0679899535 -0.1806934169 -0.2819910507
0.0415136434 -0.1718057862 -0.2601441578
-0.0085584929 -0.1120522485 -0.2362163892
0.0070783264 -0.1504216417 -0.2419561964
0.0713403600 -0.1697504158 -0.3098966952
0.0399695823 -0.1537481568 -0.2565047083
-0.0428522022 -0.1065408064 -0.2373599220
-0.0173675548 -0.1126987671 -0.2323533463
0.0158698642 -0.1877692666 -0.2458012586
0.0082516232 -0.1055396039 -0.2785230106
-0.0376522856 -0.1735020242 -0.2210909547
0.0074725515 -0.1080259476 -0.2846072390
0.0161329449 -0.1626135636 -0.2504986127
0.0449159329 -0.1397547764 -0.2650996348
0.0100479780 -0.1679038429 -0.2417488382
-0.0149484096 -0.1525357660 -0.2327941457
-0.0163165649 -0.1179444088 -0.2523425667
0.0118125798 -0.1776219448 -0.2456002478
0.0097413416 -0.1305180132 -0.2461597543
-0.0179347979 -0.1048571961 -0.2679573802
0.0554850865 -0.1266279593 -0.2679574490
0.0605621587 -0.1617074303 -0.2985973136
0.0426599155 -0.1196429181 -0.2605442065
-0.0136220095 -0.1113452483 -0.2359273176
0.0662483561 -0.1226050978 -0.2873734519
0.0636923964 -0.1497010791 -0.3079950425
-0.0293862354 -0.1246276274 -0.2274009883
0.0365104101 -0.1741827367 -0.2567495117
0.0059710349 -0.1223885610 -0.2446392667
0.0359512018 -0.1836471098 -0.2556148774
0.0609354505 -0.1715551088 -0.2667789378
-0.0321803352 -0.1395315294 -0.2227951310
0.0139263424 -0.1245029625 -0.2493919451
0.0068726228 -0.1112119245 -0.2488422474
-0.0303951777 -0.1598567421 -0.2253078876
0.0156628951 -0.1376491036 -0.2498915482
0.0342098528 -0.1053037014 -0.2750898035
0.0089677427 -0.1712432412 -0.2416752166
0.0151782213 -0.1250759165 -0.2496799649
-0.0163999384 -0.1091338058 -0.2328065391
0.0530587358 -0.1971103858 -0.2928885225
0.0455123101 -0.1468127185 -0.2972750480
0.0277631586 -0.1692905510 -0.2531706084
0.0151820299 -0.1321282232 -0.2503676684
0.0572398206 -0.1291655871 -0.2726721911
-0.0222627194 -0.1274583577 -0.2318582395
0.0342343085 -0.1389952692 -0.2691717486
0.0273060714 -0.1416181641 -0.2575976826
0.0265365055 -0.1622339346 -0.2538923385
-0.0147040187 -0.1097975070 -0.2344865789
0.0154119883 -0.1396092257 -0.2499182941
-0.0172873453 -0.1347325700 -0.2281986397
-0.0316554330 -0.1167943106 -0.2249668452
0.0506033645 -0.1193468400 -0.2636408060
0.0177082029 -0.1273326130 -0.2518972425
-0.0488704258 -0.1257123725 -0.2259355348
-0.0492825472 -0.1228209259 -0.2264008295
0.0314335444 -0.1409938111 -0.3003426004
-0.0372646476 -0.1512510475 -0.2271231670
0.0524407205 -0.1691947967 -0.2679038810
0.0553815376 -0.1296784314 -0.2659723853
0.0359574089 -0.1957327682 -0.2573581175
-0.0069055753 -0.1294741600 -0.2374025648
0.0432447955 -0.1099414602 -0.2828591589
0.0551051526 -0.1522096900 -0.2659979079
-0.0570662588 -0.1403673026 -0.2343744692
0.0101323569 -0.1091746262 -0.2568571052
0.0719718665 -0.1716861609 -0.2831470092
-0.0004629105 -0.1535161998 -0.2366144474
0.0208649976 -0.1678578933 -0.2489971016
0.0136894822 -0.1780498666 -0.2469064174
-0.0335889453 -0.1063575163 -0.2452847469
-0.0207718344 -0.1050917835 -0.2653986307
0.0287936628 -0.1738387861 -0.2533804990
0.0478351337 -0.1222764774 -0.2675155925
-0.0480329484 -0.1671369360 -0.2258286529
0.0025467382 -0.1066172698 -0.2852942619
0.0409368969 -0.1090482760 -0.2954361240
-0.0158871668 -0.1095185087 -0.2383058358
-0.0660116528 -0.1560076441 -0.2359306717
0.0096588988 -0.1541705402 -0.2453322157
0.0662258946 -0.1363521610 -0.2832953521
-0.0248074161 -0.1151272741 -0.2261685477
0.0353031379 -0.1396081634 -0.2576279888
0.0470372699 -0.1818236332 -0.2655083301
0.0174835575 -0.1421954910 -0.2504224428
0.0146414974 -0.1052243359 -0.2940887062
0.0414930449 -0.1081958022 -0.3013590921
0.0342749124 -0.1882363504 -0.2562194866
-0.0121249629 -0.1163007943 -0.2327243408
-0.0674278240 -0.1599409650 -0.2372710632
0.0001747183 -0.1067320981 -0.2861959152
0.0304581747 -0.1397307439 -0.2573669277
0.0529942489 -0.1371044900 -0.2671610602
0.0037908391 -0.1750154364 -0.2419009918
0.0423474732 -0.1495447494 -0.2604059088
-0.0036823587 -0.1058323907 -0.2810147060
-0.0361409695 -0.1058796173 -0.2444139964
0.0526621465 -0.1447913977 -0.2627547080
-0.0253371772 -0.1100198671 -0.2303563844
0.0618190224 -0.1847092983 -0.2781299033
0.0288741240 -0.1698748596 -0.2556127266
0.0714065936 -0.1738792948 -0.2797877295
0.0452706089 -0.1419033329 -0.2613568891
0.0036256417 -0.1284236422 -0.2831446431
0.0089497669 -0.1339730173 -0.2468631417
-0.0424284354 -0.1657861207 -0.2231916453
0.0273990136 -0.1395107391 -0.2533716235
0.0485675316 -0.1490921889 -0.2591233200
0.0180819457 -0.1952519335 -0.2495446414
0.0449884693 -0.1939650623 -0.2626442862
0.0119455675 -0.1808471241 -0.2459580003
0.0199588344 -0.1347895922 -0.2510081823
0.0598247107 -0.1852080300 -0.2690709375
0.0265903486 -0.1875839136 -0.2541317288
-0.0271231760 -0.1345683452 -0.2277654525
0.0168189388 -0.1657754110 -0.2497485025
0.0530201102 -0.1992692253 -0.2944093345
0.0667050497 -0.1419038942 -0.3069186907
0.0222802118 -0.1391641239 -0.2513668276
0.0652509174 -0.1566898881 -0.2932517304
0.0478405023 -0.2020452225 -0.2621116268
-0.0179733887 -0.1395541087 -0.2285229966
-0.0017888287 -0.1295601842 -0.2398468222
0.0450717919 -0.1248202920 -0.2613335252
0.0210369900 -0.1269819073 -0.2519857878
0.0600938301 -0.1394127689 -0.2731520812
0.0570680443 -0.1581485245 -0.2985744288
-0.0190955096 -0.1644176902 -0.2251199296
0.0049539006 -0.1298919925 -0.2410881523
0.0484596727 -0.1473302760 -0.3039078307
0.0767745129 -0.1347116693 -0.3027721317
-0.0200182913 -0.1648560816 -0.2286442398
-0.0293929055 -0.1222785152 -0.2273773625
-0.0106142660 -0.1672933219 -0.2325157737
-0.0178918787 -0.1080866367 -0.2431682238
0.0374678739 -0.1422737896 -0.3078131822
-0.0297844983 -0.1218980528 -0.2260227196
0.0103065104 -0.1898753877 -0.2409202668
0.0623369755 -0.1911692366 -0.2969331748
0.0077280042 -0.1268451587 -0.2433694745
0.0685110223 -0.1520539271 -0.3104691134
-0.0274057378 -0.1719669667 -0.2240672618
-0.0317199586 -0.1218651607 -0.2254668705
0.0724801665 -0.1814815176 -0.3084527155
0.0751757026 -0.1780852989 -0.3089162177
0.0531581257 -0.1328831768 -0.2706942117
-0.0154482648 -0.1644400973 -0.2300041114
-0.0173404215 -0.1189281892 -0.2281903388
-0.0125949228 -0.1475775391 -0.2328254073
-0.0200311678 -0.1198401017 -0.2285590332
0.0640186011 -0.1527452878 -0.2726935276
0.0502849278 -0.1777911193 -0.2607124650
0.0533301121 -0.1466595820 -0.3147396674
0.0177305359 -0.1441422563 -0.2490629660
0.0563854713 -0.1850844803 -0.2694534081
0.0636322583 -0.1211303346 -0.3000787047
0.0723904637 -0.1722822184 -0.2868064430
0.0066139582 -0.1299479579 -0.2868343740
-0.0072943803 -0.1783110148 -0.2339883435
-0.0023025777 -0.1493538873 -0.2382482170
0.0129092604 -0.1145000191 -0.2457562230
0.0501243166 -0.1853993730 -0.2609283915
0.0254206978 -0.1491330299 -0.2536078744
0.0734581823 -0.1685482499 -0.2854549575
0.0462458750 -0.1108762355 -0.2788500266
0.0733580332 -0.1779149083 -0.3130132748
-0.0293335017 -0.1063418500 -0.2540010084
0.0425828480 -0.1446810620 -0.3102209503
-0.0417262816 -0.1207334490 -0.2257479861
0.0290013845 -0.1372861609 -0.2634946348
-0.0217970553 -0.1089598793 -0.2357362946
0.0501147743 -0.1425490552 -0.2631870032
0.0414767894 -0.1543887902 -0.2633941690
0.0010841308 -0.1424838415 -0.2426280111
0.0025521733 -0.1490138087 -0.2399367044
-0.0157434004 -0.1852189690 -0.2316726469
0.0301039725 -0.1341479579 -0.2555542022
0.0121783674 -0.1873107012 -0.2435712555
0.0227070824 -0.1123450128 -0.2544312590
0.0226061933 -0.1249617493 -0.2553925349
0.0444922249 -0.1673372803 -0.2585613567
0.0538219506 -0.1128609591 -0.3005185589
0.0679577957 -0.1191753574 -0.3141376077
0.0548964354 -0.1399248558 -0.2653310191
0.0100993020 -0.1397778662 -0.2434164695
0.0501183302 -0.1992991264 -0.2714521400
0.0556141372 -0.1172008224 -0.2657894946
0.0286296645 -0.1843002919 -0.2538602715
0.0658884544 -0.1396729131 -0.2855720287
-0.0037473624 -0.1626668537 -0.2353733734
0.0074925455 -0.1244435114 -0.2456275406
0.0075388338 -0.1529196567 -0.2440811126
0.0676758344 -0.1326859388 -0.2825213929
-0.0018120661 -0.1518224450 -0.2407243004
0.0302041929 -0.1396904562 -0.2558963175
0.0674710833 -0.1622040572 -0.2753897491
0.0561022701 -0.1670690790 -0.2929455221
0.0230160816 -0.1805869630 -0.2470482379
-0.0124200146 -0.1191937492 -0.2696709488
0.0530872400 -0.1557736728 -0.2827812664
0.0520883759 -0.1846929778 -0.2665508846
0.0427749243 -0.1471364569 -0.2606100139
0.0555579557 -0.1139439720 -0.2940544493
-0.0172937938 -0.1150259121 -0.2280348584
0.0204757830 -0.1198150889 -0.2512765687
0.0687935920 -0.1256513411 -0.3107917328
0.0556062573 -0.1773059529 -0.2680507203
-0.0124164659 -0.1366496893 -0.2334700725
0.0005271138 -0.1270590227 -0.2406128650
0.0098566907 -0.1867590390 -0.2402835157
-0.0173034697 -0.1214140093 -0.2328314534
0.0267724618 -0.1381479427 -0.2998436913
0.0622942100 -0.1372894396 -0.2709695796
-0.0270968468 -0.1412029815 -0.2279181782
0.0320565953 -0.1517331316 -0.2538998418
-0.0026591232 -0.1246401915 -0.2813227382
0.0481006436 -0.1878122335 -0.2632357007
0.0503940825 -0.1543807506 -0.2630843177
-0.0325101106 -0.1486333113 -0.2253450941
-0.0052371341 -0.1171684460 -0.2354125452
0.0605131365 -0.1890864475 -0.2871076310
0.0328076266 -0.1393406312 -0.2575208089
-0.0231162912 -0.1248068536 -0.2290926927
0.0241889563 -0.1686443431 -0.2557987664
-0.0266751388 -0.1169290690 -0.2254879844
-0.0101980467 -0.1204085305 -0.2668817191
0.0027071350 -0.1322695639 -0.2411269805
-0.0314434275 -0.1560691715 -0.2280787372
0.0469290642 -0.1984956205 -0.2604913297
0.0175481984 -0.1499525176 -0.2505566787
0.0496247336 -0.1481957043 -0.3004862181
0.0192546781 -0.1633059170 -0.2482733425
0.0495701900 -0.2030912903 -0.2653748042
0.0176452597 -0.1366476313 -0.2530550426
-0.0063468600 -0.1073440940 -0.2564348649
0.0455477295 -0.1175313994 -0.2614173674
0.0490272862 -0.1479176895 -0.2962307616
-0.0397813831 -0.1396121576 -0.2269812442
-0.0219508939 -0.1170409771 -0.2281810564
0.0620517168 -0.1204463497 -0.2732250256
-0.0300994259 -0.1081311639 -0.2328554705
0.0197811704 -0.1513204552 -0.2492663422
0.0271846826 -0.1527250681 -0.2512085469
-0.0122162069 -0.1422069042 -0.2345319092
0.0055054621 -0.1112455621 -0.2450288590
0.0611006282 -0.1515327343 -0.3102135077
0.0570770152 -0.1170443320 -0.2678844522
0.0726274158 -0.1733951765 -0.2918675507
-0.0232560796 -0.1076187854 -0.2481081943
0.0484049052 -0.1270449184 -0.2646874693
-0.0280165752 -0.1481851490 -0.2247576208
0.0551997361 -0.1200852158 -0.2657247450
0.0586784922 -0.1514030699 -0.3050369713
-0.0184646475 -0.1091432662 -0.2388022069
0.0699381486 -0.1735557053 -0.3132952899
0.0449945549 -0.1464837218 -0.3008960567
0.0343039772 -0.1683593546 -0.2535037178
-0.0487582530 -0.1770736114 -0.2216067718
0.0051971392 -0.1321609796 -0.2427505228
-0.0098142876 -0.1473240314 -0.2357119333
0.0544872399 -0.1420434918 -0.2660856825
-0.0477324691 -0.1085271471 -0.2366454803
0.0712749839 -0.1762239154 -0.3164492871
0.0599994120 -0.1324329826 -0.2706495893
0.0192177073 -0.1054391032 -0.3005269949
0.0399526666 -0.1612049211 -0.2623221568
-0.0275204942 -0.1260185024 -0.2256453681
0.0434318582 -0.1243334714 -0.2628711093
0.0176075037 -0.1272745019 -0.2477632502
0.0520203921 -0.1398252925 -0.2634990073
0.0143119888 -0.1448570646 -0.2478863183
-0.0066348832 -0.1085032511 -0.2522150104
0.0335897533 -0.1407435349 -0.2865794727
0.0050356109 -0.1497885492 -0.2428472708
0.0179802259 -0.1065468351 -0.2912494322
-0.0102352670 -0.1091519463 -0.2427300501
0.0330635086 -0.1342241264 -0.2594277844
0.0654867280 -0.1579344587 -0.2776201006
0.0427863590 -0.1292575828 -0.2622374063
-0.0297548677 -0.1281263649 -0.2294411775
-0.0080833953 -0.1603918284 -0.2361304996
0.0658631376 -0.1599990186 -0.3023774912
-0.0048598179 -0.1470281976 -0.2382456346
0.0369087986 -0.1864544315 -0.2558358658
0.0601846510 -0.1706881377 -0.2805659943
-0.0323164126 -0.1245646453 -0.2236021431
0.0327637340 -0.1241488349 -0.2574343214
-0.0217380390 -0.1339597048 -0.2296849725
0.0254043065 -0.1063634116 -0.2760384949
-0.0259365170 -0.1787977879 -0.2260003935
0.0548084053 -0.1999912169 -0.2965744032
-0.0228191298 -0.1367222529 -0.2294755834
0.0525116603 -0.1248481579 -0.2655963748
0.0142142010 -0.1825954089 -0.2434053449
0.0073204425 -0.1401536921 -0.2436460186
-0.0274052169 -0.1299495806 -0.2277398670
0.0628982698 -0.1875708627 -0.2865250740
-0.0322145976 -0.1300408913 -0.2231210067
0.0590361202 -0.1702270524 -0.2839217009
0.0535450382 -0.1873803604 -0.2669818919
-0.0273865830 -0.1323790402 -0.2297802675
0.0317099929 -0.1733793094 -0.2545188710
-0.0374831335 -0.1151892241 -0.2408185064
-0.0216834113 -0.1882503296 -0.2281068604
0.0004671239 -0.1469038885 -0.2425086968
-0.0594129262 -0.1385538200 -0.2362746759
0.0443249058 -0.2011223222 -0.2600720253
0.0493500712 -0.2024921306 -0.2596647580
-0.0299168399 -0.1310840916 -0.2255973087
0.0419076304 -0.1692697646 -0.2584422186
0.0355928471 -0.1272319554 -0.2596930555
-0.0119237590 -0.1376531786 -0.2347143383
0.0566194611 -0.1511170391 -0.2874875962
0.0303365588 -0.1967188247 -0.2565209138
-0.0303379415 -0.1339554772 -0.2259939856
-0.0301347052 -0.1270595616 -0.2253955255
-0.0079082307 -0.1090929929 -0.2451900841
-0.0192911097 -0.1851093533 -0.2287084066
0.0534331386 -0.1892628768 -0.2623304256
0.0679710498 -0.1665192482 -0.2742254510
0.0107295576 -0.1117783004 -0.2500366424
-0.0449646407 -0.1510458759 -0.2331092145
0.0540929052 -0.1543273181 -0.2700753966
0.0614860440 -0.1475442973 -0.3070484518
0.0105889250 -0.1288093895 -0.2540542538
-0.0231566179 -0.1155464341 -0.2548280518
0.0680905351 -0.1773699380 -0.3078796578
-0.0120436804 -0.1419904988 -0.2330502830
0.0032930826 -0.1803001997 -0.2395086236
0.0218730027 -0.1642032742 -0.2549768496
-0.0150063625 -0.1395337498 -0.2309730028
0.0013262459 -0.1802392062 -0.2412680861
-0.0068178886 -0.1727017472 -0.2382287476
0.0523007650 -0.1568029277 -0.2680502013
0.0150370560 -0.1221252422 -0.2486880400
0.0054902392 -0.1343019717 -0.2426234996
0.0477870994 -0.1574794737 -0.2601346017
-0.0516576552 -0.1253337290 -0.2264927278
-0.0259721674 -0.1640752090 -0.2271391430
0.0486868866 -0.1094073416 -0.3006129707
0.0064883085 -0.1078621452 -0.2817111224
0.0073392744 -0.1273540577 -0.2463131901
0.0509850722 -0.1996730207 -0.2969896401
-0.0015581776 -0.1162708801 -0.2399673293
0.0520017688 -0.1422991354 -0.2635955352
0.0717434504 -0.1650392983 -0.3093682500
-0.0183664195 -0.1114335339 -0.2310399813
-0.0111220946 -0.1056671681 -0.2753903395
0.0064165401 -0.1748121158 -0.2434382485
0.0137134107 -0.1304580252 -0.2545220816
-0.0081196032 -0.1222532583 -0.2749141083
0.0031048940 -0.1366226258 -0.2426130156
0.0586554558 -0.1934811883 -0.3009810764
0.0269935393 -0.1632040117 -0.2490157130
0.0122924751 -0.1495211623 -0.2483848501
-0.0139455204 -0.1193167153 -0.2436229710
-0.0281915497 -0.1661848010 -0.2272637119
0.0548323583 -0.1949552822 -0.2926398373
-0.0295845910 -0.1633369071 -0.2269202073
0.0154620954 -0.1856778362 -0.2429773375
-0.0527808301 -0.1627202082 -0.2335529367
0.0238423118 -0.1093994636 -0.2752814069
-0.0391724462 -0.1358021658 -0.2273658508
0.0286618410 -0.1094618941 -0.2704763180
0.0599933896 -0.1539797541 -0.2999276096
0.0344350462 -0.1385156308 -0.2554064856
0.0421402805 -0.1638045970 -0.2607282350
0.0515476293 -0.1124520820 -0.2656376015
-0.0372967270 -0.1276012173 -0.2246212669
-0.0223069027 -0.1596756342 -0.2272436195
0.0353046357 -0.1421404479 -0.2580159237
0.0041491811 -0.1603523079 -0.2430379523
-0.0499244122 -0.1214528181 -0.2372283503
0.0529237990 -0.1945178508 -0.2666715679
0.0655193320 -0.1541770641 -0.2778541178
0.0575200191 -0.1797083400 -0.2681626197
-0.0573347743 -0.1566010583 -0.2390620434
-0.0035537792 -0.1233212218 -0.2465774678
0.0574729855 -0.1448459595 -0.2727913747
0.0338316497 -0.1084645999 -0.2956270938
-0.0175957416 -0.1915660559 -0.2314164579
-0.0125971531 -0.1195773191 -0.2474398288
0.0375389556 -0.1343278267 -0.2599937879
0.0629122067 -0.1219884676 -0.2753073981
-0.0100131326 -0.1497909369 -0.2329665178
0.0203378966 -0.1247914550 -0.2550640489
-0.0460184710 -0.1117928273 -0.2334755928
-0.0178988778 -0.1570998252 -0.2296003568
0.0275230289 -0.1651608215 -0.2575533370
0.0443777052 -0.1744424561 -0.2599696510
0.0003923376 -0.1492893773 -0.2375666141
-0.0073437023 -0.1060504278 -0.2699168121
0.0658067189 -0.1159466531 -0.3097571832
0.0375033406 -0.1372436952 -0.2586642649
-0.0445057653 -0.1685987471 -0.2232938144
0.0142679774 -0.1943316126 -0.2472216169
0.0109878573 -0.1128681545 -0.2444096168
0.0264727565 -0.1760441442 -0.2523962540
0.0502209870 -0.1996429100 -0.2625451881
0.0276287510 -0.1473130578 -0.2551999487
0.0148347416 -0.1314541489 -0.2728032341
0.0330502277 -0.1269639433 -0.2555435118
-0.0026758531 -0.1420016925 -0.2385883526
0.0716696018 -0.1659517187 -0.3156704007
0.0524479772 -0.1478990791 -0.3093759487
0.0126517567 -0.1322903622 -0.2520703504
0.0368266655 -0.1575906170 -0.2541311464
-0.0177633874 -0.1161203390 -0.2284867852
0.0492946215 -0.2090892895 -0.2668864651
0.0304478996 -0.1403267702 -0.2974404219
-0.0003762749 -0.1108011843 -0.2402739864
-0.0244460151 -0.1093386722 -0.2367332390
-0.0681830000 -0.1507497194 -0.2338448256
0.0613585724 -0.1421440316 -0.2775727277
-0.0523012843 -0.1192783805 -0.2297802717
0.0532312815 -0.1471621569 -0.2673766173
0.0577649738 -0.1965890892 -0.2994020089
-0.0049429444 -0.1941492180 -0.2387518051
0.0676108172 -0.1370718790 -0.2971804547
0.0080070582 -0.1519968294 -0.2451077047
-0.0089435810 -0.1846378085 -0.2366585925
0.0453317492 -0.1519222138 -0.2629520102
-0.0348908390 -0.1225615610 -0.2252089427
0.0489588190 -0.2026614894 -0.2717872689
0.0570353442 -0.1663318169 -0.2883743265
0.0510793254 -0.1619603957 -0.2612011092
-0.0056537567 -0.1905971997 -0.2375652160
0.0579426979 -0.1872138572 -0.2698609994
0.0357949393 -0.1122664189 -0.2660792842
0.0576122192 -0.1419044500 -0.2665515960
-0.0192967174 -0.1414646245 -0.2301207307
0.0607145302 -0.1999844834 -0.3009164195
-0.0206192718 -0.1071863184 -0.2507911732
-0.0404263430 -0.1465918061 -0.2297236941
-0.0533319714 -0.1544039556 -0.2380392925
-0.0294725038 -0.1495509177 -0.2282731464
0.0399370113 -0.1344258974 -0.2608902235
0.0031188801 -0.1194764530 -0.2403522003
0.0423697738 -0.1539610800 -0.2603206188
0.0665749871 -0.1578750193 -0.2854450690
0.0460504936 -0.1792289193 -0.2653464297
0.0303268351 -0.1424036456 -0.2559210491
0.0305029957 -0.1298934106 -0.2558757325
0.0651142399 -0.1187643001 -0.3111597902
-0.0147978193 -0.1546536263 -0.2299914984
0.0226550762 -0.1323475170 -0.2530470644
0.0518381265 -0.1492379514 -0.3046989340
-0.0071175644 -0.1200149915 -0.2361240938
0.0423221068 -0.1150812277 -0.2612504325
0.0305310265 -0.1607892167 -0.2586104925
0.0275321638 -0.1806390621 -0.2520255151
-0.0241665055 -0.1140359985 -0.2271112384
0.0120028991 -0.1580631364 -0.2469338116
0.0070311204 -0.1251839692 -0.2432222807
-0.0128867002 -0.1794413297 -0.2293393545
0.0050262336 -0.1149635699 -0.2413473663
0.0002217107 -0.1249064171 -0.2482875165
-0.0202500560 -0.1367050721 -0.2284902260
-0.0144082747 -0.1244176170 -0.2343972078
-0.0203251903 -0.1391427364 -0.2283801833
0.0669291790 -0.1545350002 -0.3108231693
-0.0066919480 -0.1226679608 -0.2369960174
-0.0099197154 -0.1720820331 -0.2353033930
0.0480300218 -0.1644709021 -0.2629634878
0.0205224470 -0.1621987692 -0.2459828570
-0.0029426704 -0.1441837452 -0.2379753045
0.0054641151 -0.1165117129 -0.2445132259
-0.0324358274 -0.1585752101 -0.2229921974
0.0351412591 -0.1590295961 -0.2558237259
0.0157563334 -0.1110311616 -0.2525817269
0.0474648634 -0.1369477456 -0.2626314572
0.0221765866 -0.1353968044 -0.2827399784
0.0498404213 -0.1297356453 -0.2638398744
-0.0118870707 -0.1219791432 -0.2329671386
-0.0163143719 -0.1339542774 -0.2327054669
0.0236155346 -0.1347685377 -0.2547493566
-0.0002158488 -0.1093279482 -0.2480488531
0.0265648668 -0.1962313521 -0.2535002275
0.0559427809 -0.1341456625 -0.2673922693
-0.0226298648 -0.1390754464 -0.2293686397
0.0380498774 -0.1441119341 -0.2970793017
0.0175381818 -0.1146016395 -0.2484496159
0.0158022325 -0.1146299466 -0.2483937591
-0.0236709476 -0.1100840024 -0.2278037039
-0.0069945464 -0.1346155323 -0.2360522795
0.0711025071 -0.1770136437 -0.2871220090
0.0521305174 -0.1596662390 -0.2951232261
0.0075275047 -0.1493948790 -0.2461871793
0.0666464464 -0.1631084231 -0.3060183011
0.0483183490 -0.1295958208 -0.2612841605
-0.0075308805 -0.1371437068 -0.2361000009
0.0680469969 -0.1617426322 -0.2777906935
0.0643867578 -0.1538594214 -0.2814966075
-0.0046953070 -0.1349397952 -0.2361278345
0.0498539750 -0.1470209143 -0.2677754531
0.0536371387 -0.1174436318 -0.2656098053
-0.0079868755 -0.1121821249 -0.2332079932
0.0111175813 -0.1373129338 -0.2494815588
0.0264005624 -0.1087009569 -0.2702667520
0.0323488303 -0.1154791340 -0.2588236034
-0.0552811579 -0.1681228710 -0.2240825653
0.0104237920 -0.1372417577 -0.2481893192
-0.0150892467 -0.1488607827 -0.2321064263
0.0647513534 -0.1084348322 -0.3058241940
-0.0093093981 -0.1125868999 -0.2327985593
-0.0175272574 -0.1171961845 -0.2300816791
0.0640172080 -0.1946493030 -0.3025733030
0.0173433738 -0.1068450938 -0.2720072953
-0.0021858552 -0.1245412071 -0.2394390135
-0.0297612822 -0.1465369926 -0.2258177829
-0.0117906733 -0.1073747974 -0.2559116176
0.0029828063 -0.1221686129 -0.2409046940
0.0225336391 -0.1245306084 -0.2528761831
-0.0147574824 -0.1418111896 -0.2322359603
0.0098384991 -0.1170422509 -0.2439998537
-0.0552889437 -0.1463395932 -0.2379700677
0.0630331021 -0.1242784075 -0.2751911283
0.0170396678 -0.1537537922 -0.2466573169
0.0680683504 -0.1299088400 -0.2804184587
0.0593749443 -0.1913479894 -0.2890667019
-0.0339867718 -0.1257250441 -0.2232187310
0.0545434785 -0.1223280487 -0.2659175394
-0.0345661172 -0.1226939264 -0.2230492087
0.0209322680 -0.1093371294 -0.2737841813
0.0689294192 -0.1339149664 -0.3031289638
0.0569228954 -0.1446923561 -0.2745421774
0.0155105286 -0.1272614056 -0.2499448781
0.0313428650 -0.1123129018 -0.2607010213
0.0712329842 -0.1275469874 -0.2839769798
0.0440390081 -0.1092752332 -0.2937654490
0.0106541236 -0.1299082323 -0.2478883709
0.0501729210 -0.1290159393 -0.2610193906
0.0561276134 -0.1726410496 -0.2700530148
-0.0073724493 -0.1320733875 -0.2373327449
0.0327003224 -0.1091540939 -0.2914022290
-0.0615804511 -0.1362964655 -0.2335332759
0.0351672473 -0.1445369515 -0.2580538815
0.0458892205 -0.1295507022 -0.2603829954
-0.0001065768 -0.1227327123 -0.2426953089
0.0574712612 -0.1739388234 -0.2707624661
0.0278858052 -0.1200196770 -0.2535099814
0.0645801489 -0.1117919827 -0.3035641638
-0.0167462429 -0.1659333459 -0.2333176424
0.0549384487 -0.1697807371 -0.2700215801
0.0466098492 -0.1959117501 -0.2660948365
0.0431606636 -0.1295635221 -0.2608122050
0.0688293516 -0.1593060880 -0.3112050293
0.0423874111 -0.1170011244 -0.2606752786
0.0103009206 -0.1238852319 -0.2484381355
0.0551832479 -0.1527138567 -0.2776161608
0.0627127382 -0.1541285583 -0.3021970036
-0.0594330015 -0.1414140885 -0.2354570817
0.0279233147 -0.1531809545 -0.2531529492
0.0672394598 -0.1556652661 -0.3085617769
0.0061928224 -0.1078745808 -0.2628617778
-0.0081888579 -0.1651452688 -0.2334512865
0.0426729797 -0.1568495597 -0.2588507042
-0.0049998932 -0.1248172333 -0.2374725950
-0.0503327342 -0.1636828451 -0.2242838171
0.0260678030 -0.1788615316 -0.2527254032
0.0456355171 -0.2028147361 -0.2926048811
-0.0510044044 -0.1648237623 -0.2288601571
0.0051109810 -0.1543992200 -0.2448946246
-0.0476650120 -0.1351565150 -0.2276718266
-0.0458744477 -0.1049287760 -0.2414786286
0.0582329647 -0.1825458227 -0.2701159594
0.0476951176 -0.1426821665 -0.2611041694
-0.0059913648 -0.1239636355 -0.2814665860
-0.0393508112 -0.1057862103 -0.2430267014
0.0289514977 -0.1799589503 -0.2542194044
-0.0108369702 -0.1620077603 -0.2322925022
0.0542277773 -0.1548154475 -0.2647086969
-0.0070785468 -0.1226417488 -0.2787370644
0.0164270642 -0.1054458991 -0.2990387984
0.0481984870 -0.1418988215 -0.2627125572
0.0677591525 -0.1837913507 -0.2982274641
0.0126279498 -0.1271069893 -0.2486942912
0.0508187526 -0.1264492827 -0.2651963375
0.0481087132 -0.1474464660 -0.2908912197
-0.0093795528 -0.1838955776 -0.2341912208
0.0515835775 -0.1045919020 -0.3050942883
0.0497699194 -0.1447940563 -0.2648910266
0.0210759273 -0.1085528020 -0.2778295695
0.0708807780 -0.1339337461 -0.2959900489
0.0313910954 -0.1419715583 -0.2573616505
0.0541287167 -0.1944909049 -0.2884549352
0.0113522640 -0.1100791054 -0.2509682118
0.0579940480 -0.1167803160 -0.2835545318
0.0312199397 -0.1398730356 -0.2911168591
0.0498696164 -0.1789267638 -0.2631322795
-0.0193613302 -0.1619915662 -0.2289348856
0.0182231740 -0.1668733669 -0.2483061940
-0.0376951057 -0.1471389455 -0.2275171769
-0.0398848557 -0.1680859279 -0.2230590047
-0.0021450033 -0.1321413715 -0.2404707816
0.0706525867 -0.1876805735 -0.3091562225
0.0277248544 -0.1398389407 -0.2557632970
0.0606423784 -0.1416435167 -0.2726548314
-0.0663100906 -0.1533593572 -0.2333346731
0.0579597476 -0.1062791349 -0.3021438079
0.0098698820 -0.1422633478 -0.2471832227
0.0683684968 -0.1274982810 -0.2807262534
-0.0204190341 -0.1171987850 -0.2341061685
0.0296489654 -0.1064627253 -0.2874605076
-0.0100726213 -0.1521846997 -0.2357151293
0.0602660109 -0.1485188547 -0.2930806551
-0.0524953467 -0.1572921674 -0.2366655735
-0.0533239787 -0.1604286033 -0.2344436374
-0.0024476981 -0.1221611504 -0.2373170366
-0.0250845754 -0.1323230618 -0.2294438047
0.0532797699 -0.1285769703 -0.2612867112
0.0089000813 -0.1033610150 -0.2888564286
-0.0253347135 -0.1680481552 -0.2234437631
0.0299663805 -0.1375682617 -0.2686600468
0.0396197132 -0.1443235912 -0.3072426881
0.0478122697 -0.1542653461 -0.2613005096
0.0181689348 -0.1323375860 -0.2503480919
0.0508053253 -0.1474156739 -0.2624243877
0.0114673330 -0.1176258326 -0.2441945970
0.0535677506 -0.1070961299 -0.3035395440
0.0186378925 -0.1906000587 -0.2472063081
0.0221502300 -0.1974625100 -0.2577223005
0.0411550420 -0.1144685396 -0.2639705614
0.0411633396 -0.1247899317 -0.2621281956
0.0509553995 -0.1075763545 -0.3026035207
-0.0045963861 -0.1577723232 -0.2355517251
-0.0170208774 -0.1193552270 -0.2320215279
-0.0046624297 -0.1600683131 -0.2343053224
0.0013717296 -0.1107851381 -0.2381761243
0.0560192864 -0.1470061625 -0.2759201184
0.0542490158 -0.1721527545 -0.2673392831
-0.0639186878 -0.1393279451 -0.2375929615
0.0389902179 -0.1083831278 -0.2945037198
0.0492081459 -0.1844944258 -0.2662825967
0.0376884180 -0.1423350171 -0.2604487283
0.0150037643 -0.1346250947 -0.2500866147
0.0278762108 -0.1371902232 -0.2535575785
0.0015284362 -0.1082893376 -0.2549638341
-0.0318281955 -0.1193064825 -0.2256743287
-0.0337575021 -0.1617224660 -0.2247555367
0.0516464025 -0.1746883758 -0.2648983530
0.0230926900 -0.1200077997 -0.2522990042
-0.0066724729 -0.1291666158 -0.2403413103
0.0185169725 -0.1072741492 -0.2693880072
0.0373266115 -0.1664021223 -0.2571870819
-0.0047070868 -0.1487677569 -0.2383073569
0.0350181423 -0.1299044420 -0.2583283737
0.0610731202 -0.1855620986 -0.2716794896
-0.0367826663 -0.1139479852 -0.2282869278
0.0402267102 -0.1868555835 -0.2591040566
-0.0049395089 -0.1498175734 -0.2363349780
0.0490097021 -0.2074953825 -0.2608832428
-0.0447593824 -0.1337515244 -0.2263185490
0.0177718845 -0.1370863483 -0.2499778130
0.0445967109 -0.1397077600 -0.2614806131
-0.0633878947 -0.1429215497 -0.2249438794
0.0457498962 -0.1399127135 -0.2621800383
0.0527293882 -0.1271962773 -0.2623481364
0.0176549741 -0.1343771024 -0.2510814132
-0.0261608180 -0.1144190780 -0.2548395783
0.0515545492 -0.1129314736 -0.2690599737
0.0018253649 -0.1271999231 -0.2410564823
0.0375415359 -0.1494413221 -0.2597292518
0.0250939057 -0.1400777717 -0.2537153305
0.0311895141 -0.1072306745 -0.2929288227
0.0380420156 -0.1296426952 -0.2609527315
0.0655744356 -0.1559618045 -0.2726568428
0.0034335113 -0.1242657100 -0.2427184519
0.0454575479 -0.1668894213 -0.2602469270
-0.0512184168 -0.1335640329 -0.2327432625
0.0038074232 -0.1445185183 -0.2468576446
0.0535611079 -0.1586092796 -0.2804750311
0.0169298336 -0.1098176404 -0.2551478863
-0.0208562391 -0.1051920536 -0.2616630737
0.0674961437 -0.1518716195 -0.3062181147
0.0182318184 -0.1390587810 -0.2519631867
0.0429861702 -0.1915981723 -0.2591687315
-0.0391637324 -0.1191316830 -0.2257104546
0.0697829938 -0.1766904092 -0.2809788906
-0.0423476718 -0.1301483434 -0.2271752475
0.0636072368 -0.1887543502 -0.2994195503
0.0670998187 -0.1360068975 -0.2859316961
0.0446317425 -0.1690225962 -0.2627598990
0.0252315192 -0.1195339675 -0.2513389268
0.0575964313 -0.1372580155 -0.2684785027
0.0532534240 -0.1893677729 -0.2760731060
0.0545280269 -0.1654945878 -0.2756187508
0.0079484144 -0.1675612312 -0.2447667757
-0.0220153583 -0.1750097518 -0.2285174966
0.0578151834 -0.1547943054 -0.2972760294
-0.0018513186 -0.1192926226 -0.2385335303
0.0162159678 -0.1034612066 -0.2730002195
-0.0024481394 -0.1172135547 -0.2373530123
0.0049094799 -0.1547711592 -0.2399195679
0.0584893487 -0.1161212997 -0.2926107980
-0.0150501297 -0.1274802394 -0.2296430686
0.0252954260 -0.1394918640 -0.2551696942
-0.0246278151 -0.1627884900 -0.2229577383
0.0045174219 -0.1075813804 -0.2740512884
0.0243419281 -0.1346185777 -0.2629756442
-0.0446582982 -0.1360851042 -0.2275441340
-0.0292060088 -0.1551500075 -0.2237838850
0.0398944851 -0.1333504067 -0.2589161098
0.0566780448 -0.1142244124 -0.2904624896
0.0440810903 -0.1125346041 -0.2651234131
0.0026176481 -0.1470816657 -0.2404810265
0.0619180978 -0.1458365710 -0.2872479819
0.0564547584 -0.1767460648 -0.2707872909
0.0005895059 -0.1124846463 -0.2420158358
0.0474281464 -0.1573457839 -0.2624231196
0.0032104965 -0.1252723067 -0.2450634816
0.0072191290 -0.1593319751 -0.2415288116
-0.0130431637 -0.1693177648 -0.2309268530
0.0658516810 -0.1572308261 -0.2829812814
-0.0489170672 -0.1362421949 -0.2290705338
0.0130268363 -0.1191696081 -0.2495297840
-0.0198958889 -0.1441959267 -0.2319041310
0.0152435171 -0.1150515988 -0.2459170861
-0.0496435719 -0.1387511570 -0.2309288701
0.0573831932 -0.1615551729 -0.2940273226
0.0249162451 -0.1472741635 -0.2536813033
0.0423081232 -0.1545718153 -0.2586145304
0.0555914125 -0.1628629870 -0.2959247542
0.0721567411 -0.1721523607 -0.2957819392
0.0021141793 -0.1255069389 -0.2552861220
-0.0680836948 -0.1476837647 -0.2349618794
0.0683268237 -0.1697034440 -0.2717867066
-0.0433441365 -0.1755731472 -0.2208859795
0.0149612828 -0.1541055723 -0.2472999806
-0.0008966492 -0.1643059737 -0.2362006127
0.0052353514 -0.1775587130 -0.2409784883
0.0062279242 -0.1118302444 -0.2419706315
0.0546537585 -0.1571613222 -0.2648821927
0.0535090760 -0.1912989046 -0.2723077671
0.0450123316 -0.1547432009 -0.2589508347
0.0156414566 -0.1619604975 -0.2476601353
0.0504717120 -0.1936530371 -0.2755700840
0.0563528650 -0.1243904456 -0.2693741620
0.0407118315 -0.1447263958 -0.2601855036
-0.0227228071 -0.1526295398 -0.2316813689
-0.0053096252 -0.1649468107 -0.2349360508
0.0428027288 -0.1815254152 -0.2613549821
-0.0208210436 -0.1694057339 -0.2288351759
0.0205258598 -0.1323941861 -0.2523762618
-0.0077368085 -0.1395823625 -0.2356484086
0.0366935064 -0.1680892934 -0.2545245156
0.0182270478 -0.1345809662 -0.2519569910
-0.0118553864 -0.1245910581 -0.2314795487
-0.0172015216 -0.1321373500 -0.2324298135
-0.0321089974 -0.1797076911 -0.2232347594
0.0540009694 -0.1622279708 -0.2730405459
0.0240497351 -0.1772848493 -0.2529922857
-0.0059511558 -0.1675295287 -0.2344532713
0.0441991732 -0.1112162186 -0.2752045072
-0.0444921792 -0.1209693016 -0.2252971357
-0.0198091290 -0.1164290270 -0.2285846439
0.0278818544 -0.1839779370 -0.2505998622
0.0581586356 -0.1323743452 -0.2700180812
0.0077197563 -0.1087943140 -0.2480585564
0.0420281770 -0.1803113289 -0.2587550028
-0.0241114111 -0.1338364782 -0.2255183094
0.0320378751 -0.1524553973 -0.2578760416
0.0306896531 -0.1337849239 -0.2517726328
0.0225632199 -0.1450285483 -0.2522034909
-0.0095590882 -0.1369708267 -0.2354995677
0.0599865749 -0.1730340082 -0.2747916132
0.0699360587 -0.1746136190 -0.3105926910
-0.0053312088 -0.1526202419 -0.2357408640
0.0022452039 -0.1261794367 -0.2692361501
0.0051823450 -0.1342078491 -0.2451948792
-0.0447376224 -0.1198388666 -0.2364928436
0.0255164382 -0.1449753349 -0.2553439227
0.0475809596 -0.1272980599 -0.2637500052
0.0632197403 -0.1727565720 -0.2712212042
0.0203962335 -0.1545425620 -0.2513304259
-0.0141294340 -0.1321056837 -0.2344713627
0.0606127795 -0.1109104335 -0.3101613853
-0.0174178023 -0.1222772275 -0.2302478377
-0.0119211460 -0.1324955968 -0.2346959779
-0.0178787620 -0.1887237983 -0.2303478953
0.0673260720 -0.1382487706 -0.3012193509
0.0529935098 -0.1570649271 -0.2629857151
0.0632629226 -0.1682240905 -0.2713484923
-0.0039774055 -0.1399912740 -0.2400553465
0.0559522919 -0.1295806020 -0.2674213350
0.0100110834 -0.1469466376 -0.2486043194
0.0682184458 -0.1272466606 -0.2848359537
0.0678607890 -0.1267928087 -0.2982555419
-0.0176442132 -0.1529711128 -0.2332389865
-0.0026549210 -0.1527211191 -0.2372140397
0.0640192609 -0.1461139214 -0.2842878506
0.0050354468 -0.1097406794 -0.2477201675
0.0452830583 -0.1470413406 -0.2632049982
-0.0001594448 -0.1619642738 -0.2363906044
-0.0490247999 -0.1317726494 -0.2315261778
0.0136018302 -0.1142761453 -0.2487858163
-0.0588056070 -0.1190645186 -0.2317008195
0.0484403115 -0.2046390010 -0.2924511665
-0.0150664829 -0.1466406349 -0.2340317147
0.0157496035 -0.1095370601 -0.2579339208
-0.0415079690 -0.1383543598 -0.2258892325
-0.0379237465 -0.1124705941 -0.2297575818
-0.0296765328 -0.1139425028 -0.2411506855
0.0656877772 -0.1421870677 -0.2908465629
0.0473634444 -0.1376207026 -0.2655533635
-0.0025056888 -0.1669081703 -0.2341206944
0.0471959345 -0.1842426957 -0.2584187878
-0.0647709437 -0.1332090740 -0.2357795799
-0.0234024503 -0.1656255593 -0.2278394650
-0.0148231265 -0.1347974581 -0.2305587780
0.0534817728 -0.1121802956 -0.2762151134
0.0224118690 -0.1338760180 -0.2602263873
0.0382995525 -0.1545973166 -0.2583426386
-0.0324650901 -0.1153483109 -0.2232619941
-0.0322980489 -0.1131550972 -0.2236681116
0.0708342949 -0.1817108922 -0.3033992251
0.0300219509 -0.1547355587 -0.2549569546
-0.0644315951 -0.1511227684 -0.2365329460
0.0032200276 -0.1824554401 -0.2407917876
-0.0255612369 -0.1078948848 -0.2471145585
0.0685256440 -0.1605583750 -0.2928704706
0.0211997621 -0.1268550497 -0.2549328249
0.0639971575 -0.1536842387 -0.3005166102
-0.0249915540 -0.1477860861 -0.2275681497
0.0084625005 -0.1470940661 -0.2477648562
-0.0455649597 -0.1323678829 -0.2291565637
-0.0164045439 -0.1086816928 -0.2448464695
0.0262856368 -0.1363197122 -0.2685158663
0.0201232469 -0.1294312741 -0.2513724849
0.0236625792 -0.1190218150 -0.2506174328
0.0212781988 -0.1296345935 -0.2550919577
0.0232407530 -0.1295750506 -0.2550121226
-0.0018861428 -0.1444839428 -0.2399942592
-0.0089113936 -0.1284222673 -0.2376696893
0.0698701418 -0.1726067978 -0.3068882890
0.0560312016 -0.1316291259 -0.2702918212
0.0662959309 -0.1723207748 -0.2730679805
-0.0143590468 -0.1123147965 -0.2326538399
-0.0684696248 -0.1485520624 -0.2313063626
0.0241443498 -0.1647643757 -0.2506002226
-0.0067118487 -0.1201113862 -0.2382791949
-0.0246486284 -0.1270429988 -0.2301959163
0.0228881459 -0.1415351492 -0.2550237948
0.0624078334 -0.1504833829 -0.3001829591
0.0661605111 -0.1358102971 -0.2738966475
0.0688046860 -0.1536383861 -0.3033558811
0.0525222065 -0.1648750516 -0.2630506558
0.0269035125 -0.1338566411 -0.2530604687
0.0275780242 -0.1099228949 -0.2767844357
-0.0298878099 -0.1380878809 -0.2258413132
0.0000860504 -0.1452494571 -0.2422500962
0.0460274222 -0.1458823856 -0.3064427182
0.0006398341 -0.1300755095 -0.2399059873
0.0119279223 -0.1442742795 -0.2454992086
0.0373124652 -0.1169432447 -0.2575203939
-0.0369888135 -0.1065228555 -0.2412465563
