-0.0912145046 0.0580068359 -0.3932862376
-0.0205628881 0.0897712691 -0.4149070528
-0.1150928618 0.1314784779 -0.3913509393
-0.0526320328 0.1492785858 -0.3935881492
-0.0814536243 0.1510898302 -0.3722888690
-0.0095021762 0.1507020305 -0.4082609711
-0.0252425814 0.1142273971 -0.4329948136
-0.0281114834 0.1205059402 -0.4154982045
-0.0708716374 0.1034634781 -0.3915376819
-0.0981808275 0.1318052544 -0.4153365588
-0.0825821012 0.1109717786 -0.3918059170
-0.0743360511 0.1287039774 -0.4103762935
-0.0604266137 0.0828976285 -0.3960216482
-0.0662698578 0.0693050144 -0.4491990568
-0.0957258417 0.1128070085 -0.3858503452
-0.0470873310 0.1094600212 -0.4147932608
-0.0341569195 0.0620138543 -0.3939359889
-0.0157424670 0.0807858044 -0.4157474257
-0.1025911711 0.0673453970 -0.3753505563
-0.0201769661 0.0716304482 -0.3698006293
-0.0450455222 0.1290256932 -0.4551822734
-0.1404207297 0.1015049032 -0.3965773216
-0.0582349471 0.0663383171 -0.3935265087
-0.0330151614 0.0975913567 -0.4111546706
-0.0155677187 0.0718854841 -0.4704698899
-0.0445565398 0.0640669368 -0.3800271478
-0.0180334160 0.0739190224 -0.4718695225
-0.0507070038 0.0582328969 -0.3952928088
-0.0210238678 0.0713673010 -0.4717396055
-0.0725019642 0.0630347389 -0.3438928649
-0.1016532497 0.0300572738 -0.3935913846
-0.0370737376 0.0606991634 -0.4096428553
-0.0707255863 0.0555575300 -0.3874678081
-0.0209501337 0.0852783745 -0.4125047883
-0.1043807415 0.0795115970 -0.3821454348
-0.0830375395 0.0949207499 -0.3882812924
-0.0915876745 0.0617634170 -0.3935387484
-0.1156618683 0.0825892563 -0.3863138160
-0.0485682388 0.1405170720 -0.3703474648
-0.1074865715 0.1319463831 -0.4141663022
-0.0591524892 0.1276581101 -0.4503375376
-0.0251811891 0.0664349785 -0.3866511839
-0.0211979046 0.0753942558 -0.4128033991
-0.1403172496 0.1053037793 -0.3979248940
-0.0375762629 0.1430443942 -0.3817842094
-0.0438374668 0.0983901411 -0.3974227376
-0.1078152667 0.0836674116 -0.3858861142
-0.0499242010 0.0672952693 -0.3666149870
-0.0601527623 0.0573351037 -0.3533524561
-0.0948911582 0.0947564977 -0.4404091599
-0.0471111855 0.1354660098 -0.4394019461
-0.0728929572 0.1051123003 -0.3929986310
-0.0261577063 0.1050827477 -0.4135814913
-0.1353604283 0.1178869917 -0.4383188002
-0.0233750525 0.1200535892 -0.4186512713
-0.0793193843 0.0281659762 -0.4057917550
-0.0242256787 0.1200494202 -0.4148309110
-0.0781943426 0.1315969327 -0.4224792228
-0.0836033274 0.0773175222 -0.4429580152
-0.0536354472 0.0910083916 -0.3983182272
-0.1347261671 0.1274121867 -0.4135701804
-0.0427039278 0.1281171653 -0.4232581132
-0.0514273139 0.0962804765 -0.4479858277
-0.0755918270 0.0424159557 -0.3854008683
-0.0479843332 0.0881114186 -0.4025673031
-0.1121892514 0.1335847099 -0.4083855916
-0.0039846879 0.1031846184 -0.4675977948
-0.0540829211 0.0775836659 -0.3977096339
-0.1103412950 0.1306054408 -0.4048274618
0.0016272840 0.1469856460 -0.4119668622
-0.1002291074 0.0569786239 -0.3780529251
-0.0632077599 0.0650843011 -0.3636924211
-0.0222603265 0.1271790970 -0.4405067354
-0.0345124540 0.1014946139 -0.4685986312
-0.0905489922 0.0727861039 -0.3835903108
-0.0065955553 0.1230631246 -0.4655495534
-0.0480755497 0.1000570219 -0.4025145898
-0.1119683022 0.1388899424 -0.4005042227
-0.0231228181 0.1146346515 -0.4286403213
-0.1245644164 0.0772052165 -0.3976624719
-0.0421707470 0.1148459459 -0.4177433866
-0.0098431427 0.0804802664 -0.4199013263
-0.0802555762 0.0963910171 -0.3898619260
-0.0878287256 0.0634404645 -0.3875248177
-0.1071742656 0.1285120984 -0.4238301556
-0.1140854508 0.0921737626 -0.3925382793
-0.0506160511 0.0896409040 -0.4022486385
-0.0774168037 0.0531023368 -0.3812647164
-0.0488335536 0.1129618384 -0.4072176450
-0.0782100020 0.0723593402 -0.3854992415
-0.0363644870 0.1154572216 -0.4143464860
-0.1110243934 0.0836620567 -0.3896063772
-0.0070700059 0.0865643049 -0.4388451683
-0.0505843617 0.0525324591 -0.3932354800
-0.0879980125 0.0852063583 -0.3847849828
-0.1419806807 0.0889502584 -0.3992114482
-0.1225545524 0.0979055641 -0.3881512278
-0.0456354976 0.1160882927 -0.4499778716
-0.1008818292 0.0723348886 -0.3781575392
0.0141599625 0.1376571164 -0.4028178142
-0.0412628826 0.1277587354 -0.4253749107
-0.0511294344 0.0704009173 -0.3981603797
-0.1107031985 0.0673249681 -0.3778108050
-0.1149891443 0.0813547353 -0.3928450135
-0.0496149745 0.1192268489 -0.4189079897
-0.0064768359 0.0932427581 -0.4267485201
-0.0900668872 0.0330311580 -0.3934538250
-0.0236523357 0.0871296758 -0.4105273558
-0.1132423580 0.1051258389 -0.3831072524
-0.0757902736 0.0877802350 -0.3883727792
-0.0684417973 0.0431526796 -0.3880197697
-0.0542552403 0.0554315416 -0.4371330081
-0.1199649331 0.1281858678 -0.4342120439
-0.1242133937 0.1041871784 -0.3834635653
-0.0879445996 0.0593321072 -0.3790124274
-0.0280818636 0.1175686821 -0.4155957142
-0.0867909976 0.1273306019 -0.4303409792
-0.0705132597 0.1313557848 -0.4328173433
-0.0109501995 0.1325537617 -0.4355678109
-0.0246881927 0.0625152194 -0.4280199372
-0.0076513656 0.1022286875 -0.4224017315
-0.0809144103 0.1200020015 -0.3918860916
-0.0535486329 0.1281410970 -0.4053531462
-0.0707512119 0.1291685132 -0.4386906714
-0.0683943662 0.0852541944 -0.3907062727
-0.0111178661 0.1253641289 -0.4304070855
-0.0252632948 0.0590203942 -0.4186177741
-0.0683337363 0.0611988706 -0.4182645268
-0.0585712310 0.1005177775 -0.3997657081
-0.0404294105 0.0549460133 -0.4000365354
-0.0102662620 0.0754319181 -0.4156590287
-0.0444999817 0.1229377298 -0.4533227608
-0.0979018664 0.0622622069 -0.3776613355
-0.0477915729 0.1256332910 -0.4373741426
-0.0516124583 0.1463380113 -0.3784816396
-0.0679316104 0.1299349402 -0.4367442387
0.0062669908 0.0998384172 -0.4584048571
-0.1076570359 0.0640732781 -0.3880528418
0.0148374636 0.0766826654 -0.3874540550
-0.0573432334 0.0774897486 -0.3938198388
-0.1122296378 0.0998682529 -0.3858351111
-0.0382922478 0.1026540257 -0.4111111521
-0.0610095233 0.1080701826 -0.4003379497
-0.0857388048 0.1200497282 -0.4235171547
-0.0086081846 0.1172858669 -0.4708751940
-0.0278991422 0.1330790553 -0.3863498635
-0.0789268618 0.0984800445 -0.3777709927
-0.0631986316 0.0732375911 -0.4471014097
-0.0360520937 0.1218735587 -0.4633722171
-0.0151914221 0.0548836695 -0.4522788368
-0.0425238318 0.1210774905 -0.4667611934
-0.0769196583 0.1196209621 -0.4031292173
-0.0581954900 0.1079569172 -0.4008034642
-0.1331145800 0.1030577111 -0.3783079138
-0.0401363522 0.0651857060 -0.3802099586
-0.0530132731 0.1285487027 -0.4143692094
-0.0159095837 0.0551070395 -0.4107777629
-0.0315147394 0.0969904665 -0.4104610638
-0.0632362729 0.0775284791 -0.3927407941
-0.0697171580 0.0841936634 -0.4541877878
-0.0531870248 0.0945931392 -0.3877134356
-0.1033385268 0.0566515722 -0.3760852327
-0.0756879704 0.0628895716 -0.3830863400
-0.0471359171 0.0718361607 -0.4617974329
-0.1404651774 0.0909308993 -0.4041969123
-0.0876377664 0.0556218931 -0.3803432693
-0.0127936125 0.1245722038 -0.4496202490
-0.0379634177 0.0706915135 -0.4047429622
-0.0085319745 0.0721510783 -0.4433161429
-0.0958237272 0.0728238369 -0.3797606851
-0.0749793512 0.1029353113 -0.3854535877
-0.0619455186 0.0694647028 -0.3511166575
-0.0761860097 0.1167367422 -0.4553465758
-0.1058790984 0.0799492087 -0.3832417995
-0.0034319226 0.0839698568 -0.4302772093
-0.1075991447 0.1327037228 -0.4080415685
-0.1066837990 0.1446272874 -0.3639134408
-0.0994775568 0.1387078893 -0.4006472414
-0.0765740023 0.0679613365 -0.4475461059
-0.0091807989 0.0738135286 -0.4462754283
-0.0729240626 0.0695541762 -0.3900916427
-0.0485254540 0.1414434351 -0.4060039680
-0.1110799238 0.1161653048 -0.3849690364
-0.0528329067 0.0681397488 -0.3949586752
-0.0474275908 0.0711479924 -0.4578704248
-0.0120184407 0.1294775805 -0.3907085132
-0.0502627130 0.1186469230 -0.4317269441
-0.1178828541 0.0979849483 -0.3888995393
-0.0625546330 0.0962360580 -0.3979481322
-0.0085050552 0.1220372729 -0.4318703677
-0.1374432706 0.0882386092 -0.4103617846
-0.0908768777 0.0536790189 -0.3796329568
-0.0917738304 0.1303613136 -0.4098108746
-0.0425581417 0.0952761273 -0.3950603478
-0.0125509330 0.0852036488 -0.4173999528
-0.0332534696 0.1064708711 -0.4293632871
-0.0043351785 0.0904978334 -0.4171855257
-0.0364826963 0.1054423203 -0.4111370733
-0.0310697424 0.1052087089 -0.4111735427
-0.0760015979 0.1283374524 -0.4402070043
-0.0719717407 0.0798847516 -0.4586402536
-0.1269474717 0.1123897855 -0.3902847576
-0.0633712059 0.1149116570 -0.4019023685
-0.1328713346 0.1159065953 -0.3982783510
-0.0986930504 0.0574794039 -0.3762760162
-0.1136263353 0.1100884523 -0.3833161982
-0.1185693025 0.1049551178 -0.3848269027
-0.0745042388 0.1138554751 -0.3909426807
-0.0112021974 0.1162148735 -0.4735583825
-0.0512191245 0.0826494624 -0.3992734596
-0.0688265738 0.0598794731 -0.3901985861
-0.1016613469 0.1004364714 -0.3843817115
-0.0965463357 0.1184238362 -0.4214779844
-0.0251620113 0.0802594038 -0.4126320425
-0.1135801887 0.1086862946 -0.3811046639
-0.0335300534 0.0765409703 -0.4678982545
-0.0485693046 0.0903170371 -0.4028077999
-0.0379267685 0.0951932207 -0.4074016971
-0.0851106127 0.1329813030 -0.4248720555
-0.0446135196 0.1207858809 -0.4147781232
-0.0383573672 0.0625676020 -0.4050503444
-0.0404954589 0.1271868884 -0.4280406072
-0.0394006514 0.0545926035 -0.4444112561
-0.0681731902 0.0777975353 -0.3908998939
-0.0625825718 0.0610507968 -0.3934749492
-0.0830998346 0.0828751810 -0.3849312365
-0.0945896656 0.1331738195 -0.4347337157
-0.1236250098 0.0899262535 -0.4312006563
-0.0662730251 0.0592903876 -0.4136376534
-0.1205265978 0.1090423617 -0.3839283738
-0.0254530262 0.0951025498 -0.4151552338
-0.0713386950 0.0552773471 -0.4075176989
-0.0827225230 0.1232603412 -0.3925544757
-0.0484066767 0.1273882588 -0.4054996570
-0.1430257619 0.1005132846 -0.3800661183
-0.0601714227 0.0349433508 -0.4018619230
-0.0061102561 0.1045851556 -0.4254408517
-0.0379995697 0.1201117942 -0.4143190311
-0.0689842501 0.0621553737 -0.3885001280
-0.1009930287 0.1155295961 -0.3850277929
-0.1085762425 0.1156158729 -0.3850101452
-0.1057446907 0.0670943405 -0.3763313599
-0.0087777317 0.1177281208 -0.4228296250
-0.0607232296 0.0652328098 -0.3983160112
-0.0051808399 0.1190990508 -0.4345034361
-0.1275766296 0.1138635850 -0.4241125763
-0.1005067519 0.1149519281 -0.3835292967
-0.0731720062 0.0391858519 -0.3905682148
-0.0156025175 0.1199989049 -0.4207052389
-0.0578609423 0.0461536063 -0.3937402250
-0.0353516477 0.1248050407 -0.4648550825
-0.1203177682 0.1297224888 -0.4052923510
-0.1200867034 0.0904031583 -0.3957047738
-0.1204681570 0.0958910566 -0.3912959447
-0.1089232042 0.1145622730 -0.3829382956
-0.1042402666 0.0829502354 -0.3821393284
-0.0984381892 0.0392399285 -0.3834378540
-0.0959158768 0.0521586551 -0.3760962828
-0.0681888520 0.1266335529 -0.4096115603
-0.0355743014 0.0715338338 -0.3624666670
-0.1053762838 0.1299248629 -0.3899624520
-0.0404910913 0.0902028946 -0.4072952706
-0.0160229458 0.1116803986 -0.4241632103
-0.0623693712 0.0661291845 -0.4461816779
-0.0853872015 0.1253022918 -0.3901124223
-0.1173238452 0.0956792335 -0.3834981500
-0.0681541031 0.0565544287 -0.3884428891
-0.1101303596 0.0711929452 -0.3808142395
-0.0986974397 0.0948331222 -0.3804318417
-0.0458498249 0.1129202187 -0.4084036558
-0.0795081610 0.0616794182 -0.4385461431
-0.0362549864 0.1283431016 -0.4299454396
-0.0172250607 0.0870090573 -0.3678006618
-0.0382235930 0.1012268713 -0.4653885119
-0.0406228310 0.0704569649 -0.4025862901
0.0127578874 0.0723100933 -0.3853630854
-0.0007403564 0.0965179955 -0.4399548365
-0.0905796436 0.0534381191 -0.4277902728
-0.0131121492 0.1278167693 -0.4295342325
-0.1053566545 0.1316039233 -0.3931127077
-0.1179212529 0.1261404169 -0.4378174578
-0.0379067901 0.0957333995 -0.4065804999
-0.0406803331 0.0876029388 -0.4071577407
-0.0727155534 0.0644334486 -0.3701043910
-0.1110735908 0.1176040098 -0.3839924037
-0.0598368212 0.0799781645 -0.4608286463
-0.0725665505 0.1173080379 -0.4529926664
-0.0558376902 0.1250312675 -0.4028309247
-0.0781064035 0.0972667108 -0.3889001324
-0.0991445677 0.1044941060 -0.3801873628
-0.0612982885 0.1290865796 -0.4600115610
-0.0982798390 0.1204501313 -0.3852685267
-0.0093259569 0.0775522151 -0.4345262798
-0.0496045461 0.1274317582 -0.4315515126
-0.0936041877 0.0967758176 -0.4262141118
-0.0062446897 0.0544519126 -0.4189277887
-0.0443014426 0.1369941042 -0.3657658444
-0.1051892282 0.0678979070 -0.3865601725
-0.0532458497 0.0574472966 -0.3951704397
-0.0032580233 0.1430448884 -0.4260605575
-0.1195840603 0.1011656081 -0.3791008303
-0.0611550659 0.0475289617 -0.3887570202
-0.1095239737 0.1291387636 -0.3928550159
-0.0254311029 0.1052428062 -0.4151095825
-0.0674598792 0.0784769985 -0.4599476799
-0.0476704131 0.0532104308 -0.3951605638
-0.0355927827 0.1029959297 -0.4088060866
-0.1364735167 0.1045750199 -0.4019167546
-0.0246858985 0.1247915083 -0.4409506266
-0.0637992707 0.1257791713 -0.3901458490
-0.0425004885 0.1225735024 -0.4095833004
-0.0233316186 0.0664930202 -0.4681566826
-0.0286006031 0.0994224229 -0.4128529607
-0.1325869662 0.1237493996 -0.4287085343
-0.0089153372 0.1124543565 -0.4209809440
-0.0391182103 0.0705194002 -0.4032910342
-0.0710324573 0.1180429845 -0.3958125732
-0.0020694530 0.1071292914 -0.4656902932
-0.1340505133 0.1143819495 -0.4075694708
-0.0479871863 0.0825466083 -0.4004693447
-0.0358550825 0.1252034728 -0.4171383986
-0.0507756240 0.0746824057 -0.4606109010
-0.0835433902 0.0928226881 -0.3859769609
-0.0533144129 0.1033850386 -0.4010001910
-0.0205859663 0.0676046362 -0.4215198855
-0.0701153366 0.0758177771 -0.3466653509
-0.1135884294 0.1238968489 -0.3881363021
-0.0958131221 0.0572628222 -0.4073055672
-0.0993362933 0.0569613308 -0.4085595222
-0.0564964666 0.1291963534 -0.4104268894
-0.0346540259 0.1194721147 -0.4431190536
-0.0365448185 0.1128105622 -0.4115034946
-0.0927455949 0.1196726620 -0.4169285904
-0.0748157763 0.0868875176 -0.3894578152
-0.0230640324 0.0502920894 -0.4079261699
-0.1139270983 0.1227245427 -0.3781402158
-0.0715038347 0.1278441715 -0.4437587903
-0.0751576646 0.1434499936 -0.3719849565
-0.1083010783 0.1348776136 -0.4248557421
-0.0182326942 0.1224060446 -0.4205403216
-0.0489898109 0.0881792438 -0.4009828173
-0.0743768769 0.0747161154 -0.3453641352
-0.1202243965 0.0861819295 -0.3860311878
-0.0432328273 0.0850330641 -0.4031972639
-0.1318246112 0.0892163189 -0.4238426974
-0.0901544823 0.0554031477 -0.3797704534
-0.1062244030 0.0742945475 -0.3821262998
-0.0839350549 0.1092915593 -0.3974347705
-0.0483145998 0.0706588246 -0.4009723685
-0.0985805631 0.0498690789 -0.3752169960
-0.1176690414 0.1301225729 -0.4014763241
-0.0339521575 0.0680426312 -0.3730494017
-0.0234196899 0.0714782959 -0.3654009847
-0.0865648372 0.0642592351 -0.3724275496
-0.0618388978 0.0656096820 -0.4529978047
-0.0711201770 0.1148139655 -0.3913935838
-0.0108836221 0.1151121378 -0.4257915400
-0.0257693940 0.1194380396 -0.4196243166
-0.0159558538 0.1117747632 -0.4803749517
-0.1349992183 0.0894257268 -0.3946658669
0.0074754768 0.1063435302 -0.4607206090
-0.0178562926 0.0963972965 -0.4095391039
-0.0200472853 0.0649776820 -0.3739254428
-0.0433434782 0.1354533981 -0.3608497809
-0.0824990848 0.1292334431 -0.4396057553
-0.0482061999 0.0617710871 -0.3559225115
-0.0340883282 0.0778850487 -0.4077260631
-0.0607638311 0.0497176453 -0.3901133176
-0.0292016704 0.1111804288 -0.4193952766
-0.1007005874 0.1058714771 -0.3772670058
-0.0907584280 0.0427376580 -0.3810165235
-0.0007819398 0.1150701670 -0.4384902330
-0.1300376534 0.1245815750 -0.4292045461
-0.0235633711 0.1185824437 -0.4731693354
-0.0780919732 0.0772227356 -0.3857125952
-0.0533371297 0.0435085484 -0.3950637804
-0.0582328107 0.1355378655 -0.4344408359
-0.0610527259 0.0779290352 -0.3959144559
-0.1262838901 0.1309575140 -0.4250344575
-0.0358428823 0.0541153877 -0.4502984082
-0.1180195886 0.0661079391 -0.3795513386
-0.0777648488 0.1248778379 -0.3923555742
-0.1177504659 0.1148982346 -0.3839958906
-0.0309793321 0.1154970634 -0.4347571940
-0.0067284022 0.1209109430 -0.4389618819
-0.0315979948 0.0616559123 -0.4314393930
-0.0566760323 0.0656388122 -0.3553698937
-0.1156502107 0.0526757600 -0.3781147543
-0.0779886491 0.1121773816 -0.3854768836
-0.0738246792 0.0704496229 -0.3850083389
-0.0810201803 0.0599756663 -0.3778201311
-0.0294919683 0.0573411012 -0.4617503940
-0.0213355172 0.0592479650 -0.4289800914
-0.0911434505 0.0444024028 -0.3784002289
-0.0451987258 0.0571902697 -0.4132983326
-0.0161571874 0.1050037817 -0.4178169441
-0.0070436481 0.1181575910 -0.4603346088
0.0035782822 0.0679690575 -0.4118280272
-0.0774936508 0.1380034240 -0.4098159439
-0.0705382691 0.0622308025 -0.3878358895
-0.0537171762 0.1297266966 -0.4203677938
-0.0609289981 0.1052774846 -0.4003294446
-0.1116389821 0.1196568927 -0.4230697264
-0.0843058258 0.1151321163 -0.3980159951
-0.0671546702 0.1361663497 -0.4328807723
-0.0636872847 0.0620162046 -0.3677301292
-0.0437086716 0.0628152328 -0.3998058398
-0.0349089332 0.0982118270 -0.4017552700
-0.0256508130 0.0849974627 -0.4128034944
-0.1045627495 0.0607764498 -0.3786751445
-0.1174945213 0.1223531313 -0.4411932504
-0.1221898161 0.1236078709 -0.4309171789
0.0010676526 0.0928325044 -0.4459241639
-0.0358824619 0.0805969643 -0.4047723728
-0.0150509890 0.0647329900 -0.3773021410
-0.0549021756 0.1264175515 -0.4561918140
-0.0580206632 0.1104692450 -0.4004961311
0.0003072458 0.0612103127 -0.3972876046
-0.0411104798 0.0603425954 -0.4012691176
-0.1061333488 0.0960261427 -0.3844326619
-0.1346392816 0.0982753347 -0.3931473159
-0.1081690767 0.1238611891 -0.3880993539
-0.1030816423 0.0719021150 -0.3789481710
-0.0330828689 0.0506021563 -0.4045291503
-0.0655283551 0.0875083891 -0.3931380497
-0.0555225227 0.1280005950 -0.4052716860
-0.0901571217 0.1318936900 -0.4210058950
-0.0904191514 0.0821671988 -0.3831605164
-0.1160128397 0.0778856541 -0.3841517495
-0.0096573923 0.0781756324 -0.4294483420
-0.0139351218 0.0923538748 -0.4184106239
-0.0651661269 0.0650292367 -0.3696021641
-0.0357108762 0.0994935876 -0.4053064923
-0.0772392856 0.0317165424 -0.4011483684
-0.0951461143 0.0788442351 -0.3405451234
-0.0334076022 0.1192420759 -0.4601192158
-0.0941899991 0.1250661881 -0.4281051123
-0.0204738959 0.0596052459 -0.4024540445
-0.0997088937 0.0640274240 -0.4310688924
-0.0302142863 0.1274184206 -0.4343371493
-0.0394036960 0.1301267576 -0.4498989546
-0.0606660120 0.0952957913 -0.3957651854
-0.0331928263 0.0901413927 -0.4097884385
-0.0075811348 0.0641620988 -0.3917806414
-0.0078723438 0.0851753234 -0.4382217396
-0.1104476492 0.0826143360 -0.3884820878
-0.0308533775 0.0976212845 -0.4119941587
-0.0433995527 0.0851370097 -0.4051680199
-0.0783277521 0.0941104303 -0.3881711204
-0.0074381617 0.1418115347 -0.4250818980
-0.1115169981 0.0952843924 -0.3788842267
-0.0401367107 0.0678178959 -0.4028276229
-0.0835040005 0.0400241568 -0.3856800643
-0.0784643078 0.1285959982 -0.4555504119
-0.0732816943 0.1296721656 -0.4024240286
-0.0421752731 0.0882694912 -0.4082995606
-0.0820660311 0.0657865157 -0.3406776854
-0.0040698101 0.1189946372 -0.4418963210
-0.0357833035 0.0671306741 -0.3597659381
-0.0180926879 0.0904509224 -0.4171897091
-0.0090967606 0.1212515752 -0.4231492599
-0.0926891214 0.0758360929 -0.3806946185
-0.0570539162 0.0558802523 -0.3925607204
-0.0468961652 0.1287366838 -0.4234563465
-0.0241407099 0.0624189780 -0.4646807271
-0.0936823724 0.1197658632 -0.3857936481
-0.1136432044 0.1313592857 -0.4084300665
-0.0730845906 0.0473824184 -0.3827747795
-0.0805664132 0.1160630398 -0.3902691173
-0.0818154536 0.1303116993 -0.4315435047
-0.0803358584 0.1057165534 -0.4473421414
-0.0829022082 0.1281362657 -0.3867609138
-0.0728248529 0.1256323459 -0.4583951079
-0.0185048010 0.1149173621 -0.4203750363
0.0023999045 0.1028813966 -0.4440324680
-0.1029072052 0.0749511028 -0.3800647824
-0.1398673728 0.0926787676 -0.4116668072
-0.0287874967 0.0533917543 -0.4583944003
-0.1355794115 0.0920972511 -0.3955800813
-0.0163341916 0.0554930957 -0.4413008719
-0.0987084381 0.1256410723 -0.3859928244
0.0081340322 0.1417417327 -0.3998882996
-0.0955636462 0.1276167949 -0.3856947984
-0.1163046991 0.0837840024 -0.3828428160
-0.0083325444 0.1004462397 -0.4199080360
-0.0708358645 0.0890084693 -0.3406301067
-0.0885535695 0.1394359842 -0.4143282383
-0.1291940158 0.0912659688 -0.3949915515
-0.0559963634 0.0874210806 -0.3976649269
-0.1210057993 0.1104362585 -0.3850629424
-0.0749160777 0.1303738876 -0.4177770648
-0.1006342787 0.0647425130 -0.3757495508
-0.0759988757 0.0805231703 -0.3882273312
-0.0648028338 0.1002286210 -0.3914758934
-0.0044611586 0.0862639982 -0.4458330980
-0.0263899607 0.0559373411 -0.4513383108
-0.0737816652 0.0276107932 -0.4090784825
-0.0691923564 0.1023092375 -0.3937127931
-0.0475751239 0.0749210701 -0.3558591353
-0.1002320994 0.1058348917 -0.4272035805
-0.0529708721 0.0622781481 -0.3976822374
-0.0978498051 0.1371618053 -0.4043864751
-0.0192519210 0.0681282978 -0.3692202140
-0.0912094764 0.1525912682 -0.3676866083
-0.0088270679 0.1277697047 -0.4444263590
-0.0587540912 0.1272546571 -0.3981528171
-0.0010678149 0.1025899765 -0.4347424876
0.0018490739 0.1066830732 -0.4399143393
-0.0757025876 0.0606548899 -0.3926998198
-0.0884606472 0.0549328529 -0.3789945041
-0.0676465016 0.1136586129 -0.4508443994
-0.0997540861 0.0575651769 -0.4053007133
-0.0963176889 0.0987026802 -0.3842006289
-0.0828777869 0.1378775836 -0.4292218600
-0.0656992521 0.1280279208 -0.3562475581
-0.0839055028 0.0734504297 -0.3858167938
-0.0091832019 0.0769452332 -0.4162570872
0.0102025059 0.0665665407 -0.3912470561
-0.0803114867 0.1008932530 -0.4520133162
-0.0354021694 0.1125603510 -0.4134706759
-0.0935773215 0.1235374408 -0.3948350296
-0.0034787263 0.0925376986 -0.4401085552
-0.0514037410 0.1214674692 -0.4109818803
-0.0301758510 0.0634777668 -0.4078372196
-0.0864147054 0.0594843668 -0.3941977192
-0.0751695918 0.1217541205 -0.4515776612
-0.1204322776 0.1119814435 -0.4310320409
-0.0574625951 0.0599200208 -0.3856540222
-0.0542279810 0.1042716173 -0.4485522956
-0.0582508359 0.1155674913 -0.4003743580
-0.0859579188 0.0671851482 -0.3825394487
-0.1170536902 0.0690167522 -0.4188627305
-0.1154370189 0.1348043484 -0.4150944207
-0.1282912588 0.1199066546 -0.3952519179
-0.0744963148 0.0765723260 -0.4547764796
-0.0657573410 0.0808706978 -0.3905999030
-0.0578207199 0.1308734759 -0.4503148860
-0.1226459703 0.0682921296 -0.3847084378
-0.1168635272 0.1288381413 -0.4197698867
-0.0885153337 0.1290339986 -0.3952481396
-0.0761698985 0.0457290171 -0.3814951952
-0.0850173803 0.1043497673 -0.4068991050
-0.0656144493 0.1128209522 -0.3956578633
-0.0884705092 0.0600694077 -0.3799499233
-0.0740187350 0.0927338170 -0.4483254471
-0.1253939323 0.1320533086 -0.4160602633
-0.0649745968 0.0568569619 -0.3911918036
-0.0425150748 0.0626120778 -0.4028461393
-0.0801988893 0.0550536911 -0.4274512492
-0.0133561586 0.0993881199 -0.4117597538
-0.1005924344 0.0371021535 -0.3875347525
-0.0079896185 0.0927492623 -0.4287675157
-0.0020077304 0.0678188600 -0.4192673575
-0.1115653180 0.1163617585 -0.3735516485
-0.0464713361 0.1170896233 -0.4322516726
-0.1066308042 0.1150717692 -0.3827912552
-0.0475906548 0.1201714907 -0.4269168705
-0.1269707024 0.1060976383 -0.3898246928
-0.0357434419 0.0926655254 -0.4101312931
-0.0615963660 0.0772736171 -0.4564039961
-0.1219026645 0.0786938049 -0.4273261729
-0.0457734736 0.0679995157 -0.3976912126
-0.0941397197 0.0982658397 -0.4394524612
-0.0882887184 0.1107288036 -0.3900084856
-0.0985305124 0.0921888444 -0.3825688727
-0.1244505362 0.1250911325 -0.4236318974
-0.0860185119 0.0630039169 -0.3659109372
-0.0005134631 0.1100555020 -0.4325818961
-0.0684453150 0.1267761424 -0.3870179540
0.0102667201 0.1364655727 -0.3952911780
-0.0122758981 0.1350765112 -0.4423493348
-0.0327025515 0.0779007992 -0.4092447844
-0.0193122162 0.0575837301 -0.4328006247
-0.0254787655 0.0647030261 -0.3961607573
-0.0312506001 0.0647892449 -0.3793849010
-0.0548518217 0.0735459175 -0.3502436420
-0.0190082499 0.0697077837 -0.4689788238
-0.0632850645 0.0724124527 -0.3911715955
-0.1238670444 0.0899369726 -0.3839954214
-0.1004342302 0.1459483820 -0.3820912086
-0.0103948728 0.0951903212 -0.4223933159
-0.1062652629 0.0865524460 -0.4367041165
-0.0626655733 0.0705241427 -0.3937702683
-0.0293804748 0.0871051270 -0.4781461285
-0.0799179620 0.1153616575 -0.3948531028
-0.0879517424 0.0525244930 -0.3796469805
-0.0610905030 0.1240790815 -0.4466710845
-0.0984525862 0.1172289085 -0.3850917820
-0.1174170935 0.0706428342 -0.3829315315
-0.0604916502 0.1290372956 -0.4199993801
-0.0017130625 0.1472233821 -0.4121629142
-0.0429393482 0.1473968244 -0.3953881481
-0.0983931412 0.0593934212 -0.4013638024
-0.0564056636 0.1480524334 -0.3816835507
-0.0304936938 0.0828736819 -0.4079147322
-0.0134848823 0.1229863720 -0.4584733247
-0.1214619496 0.0769495164 -0.3965879125
-0.0255164069 0.0898761366 -0.4127636928
-0.0022226351 0.0603574589 -0.4214024544
-0.1090603881 0.1325731324 -0.3896917907
-0.1352548549 0.1124022910 -0.3984695265
-0.0732375050 0.0827831744 -0.3445751702
-0.0790076496 0.1309937759 -0.4028096459
-0.0881840555 0.0575324580 -0.4023053258
-0.0207772073 0.1049445814 -0.4156896042
-0.0806362888 0.1256033496 -0.4156400820
-0.0034064882 0.1079910890 -0.4346914647
-0.0478217346 0.0805740158 -0.3985509241
-0.0537275444 0.0685683090 -0.3978955563
-0.0233459482 0.0997240613 -0.4151531550
-0.0303749259 0.0679979701 -0.3806940173
-0.0875229266 0.1172087530 -0.3840636107
-0.0735655666 0.0346365886 -0.3986713219
-0.0283686617 0.0608791364 -0.4201456603
-0.0752545522 0.0475374494 -0.3848785752
-0.1080395719 0.0675766364 -0.3781164979
-0.0668598061 0.1286339208 -0.3642353809
-0.0935108368 0.0987459749 -0.4290046239
-0.0858821308 0.0848597944 -0.3830606836
-0.0762256659 0.1470339116 -0.3747806105
-0.0749043963 0.0667180474 -0.3565438643
-0.0111811559 0.0823187387 -0.4155952076
-0.0733091395 0.0703890208 -0.3883622100
-0.0954744330 0.0575502799 -0.3777691780
-0.0978421366 0.0576203407 -0.3780254475
-0.0619385278 0.0404699949 -0.3913784474
-0.0893605498 0.1386240634 -0.3981234635
-0.0827223236 0.0688562826 -0.3844559841
-0.0856813027 0.0598894979 -0.3807196843
-0.0618566395 0.0694406522 -0.4518964141
-0.0071096383 0.0672016077 -0.4303414943
-0.1113916696 0.1300519255 -0.3673656530
-0.0363027070 0.1181622497 -0.4402496155
-0.1179925610 0.1171414041 -0.3848385756
-0.0314250866 0.1219329241 -0.4131349214
-0.0628823736 0.0704112655 -0.3907948401
-0.0610434050 0.0851866814 -0.4619907894
-0.0439718915 0.0963414835 -0.4535475994
-0.1381633783 0.1196064231 -0.4042130873
-0.0012852647 0.0918494335 -0.4389918189
-0.0734340623 0.0371824168 -0.3942148983
-0.0417686268 0.1118847028 -0.4732425909
-0.0701737693 0.0850615543 -0.3902812529
0.0048308473 0.0731948340 -0.3799779480
-0.0187875445 0.1191699668 -0.4164361782
-0.0528487896 0.0657236763 -0.3747848784
-0.1317384366 0.1198213464 -0.4090195009
-0.1054199263 0.0565090664 -0.3767511249
-0.1136993621 0.0723434850 -0.3859483314
-0.0960082655 0.0700269671 -0.3783014277
-0.0658594184 0.0550146862 -0.3850801867
-0.1245488388 0.1215343838 -0.4323690406
-0.0442177045 0.1183477543 -0.4399260586
-0.0785878588 0.0452121272 -0.3832346184
-0.0286553968 0.1263654685 -0.4488891347
-0.0634646989 0.1288196919 -0.4155953437
-0.0443130078 0.0990281645 -0.3945094514
-0.0404447456 0.1081703725 -0.4604892167
-0.0909422314 0.0786824929 -0.3842317521
-0.0473566150 0.1133173083 -0.4485903846
-0.1032184965 0.0676771411 -0.3770770998
-0.0935608500 0.0640052289 -0.3738399718
-0.0229307134 0.1252370314 -0.4440577408
-0.0489519735 0.1094905690 -0.4483865769
-0.1011089413 0.0592436278 -0.3785647696
-0.0797510967 0.0750482976 -0.3840952814
-0.0258351300 0.0738432033 -0.4131790505
-0.0434257512 0.1173369533 -0.4097507116
-0.0110842560 0.1154633734 -0.4697388008
-0.0522680723 0.0835362703 -0.3957640906
-0.0427497926 0.1273786639 -0.4367342183
-0.0082441404 0.1071352621 -0.4255020029
-0.1219807402 0.0924270981 -0.3951183366
-0.0374044855 0.0627201118 -0.3590985500
-0.0339866296 0.0590222474 -0.4617143171
-0.0700743955 0.0733198346 -0.3419067699
-0.0819366163 0.1127281644 -0.3982745493
-0.0405037201 0.0638463150 -0.4619878989
-0.0545111386 0.1294866018 -0.3620221091
-0.0256821629 0.0501625030 -0.4072585728
-0.0184211120 0.0876449265 -0.4147823509
-0.1079047966 0.1257843678 -0.4249188601
-0.0182900358 0.1359186740 -0.4485600281
-0.0490493831 0.0636104818 -0.3891045106
-0.0805492107 0.1297987421 -0.4277003670
-0.0758894950 0.0954083797 -0.4497216686
-0.0185777950 0.1048423453 -0.4161693769
-0.0601703506 0.0680912696 -0.3930246234
-0.1103140130 0.0956059651 -0.3882723348
-0.0375585231 0.0577367261 -0.4024389136
-0.0330778669 0.1390457847 -0.3866768324
-0.0669369709 0.0633171564 -0.3648147725
-0.0290126238 0.1268394863 -0.4525120213
-0.1031059785 0.0978424862 -0.4326592194
-0.0017714453 0.0636190720 -0.4000970077
-0.1221602123 0.1277219140 -0.4323752650
-0.0591627624 0.1371216554 -0.4150270758
-0.0696315705 0.1067177516 -0.3886072507
-0.0805707356 0.0586395631 -0.3814606391
-0.0155535058 0.0790678848 -0.3682359019
-0.0248037527 0.1217758542 -0.4322183393
-0.1040758703 0.1326130919 -0.4380208065
-0.0973481421 0.1159040553 -0.3811861705
-0.0423609477 0.0592097259 -0.4241792332
-0.0850384787 0.0744488383 -0.4436842215
-0.0099268842 0.0622826823 -0.4334540789
-0.0723088255 0.0609646465 -0.4035082631
-0.0781593454 0.1053214748 -0.3910373300
-0.0349708776 0.0703346007 -0.4709851245
-0.0177657423 0.1057101768 -0.4747605130
-0.0183405288 0.1156483360 -0.4275301341
-0.0550294040 0.0460215528 -0.3917869294
-0.0831763015 0.1189517383 -0.3947283976
-0.0136646577 0.1157520078 -0.4291495810
-0.0240089639 0.1290603925 -0.4510488259
-0.1156820898 0.0724295432 -0.4230391818
-0.0649302579 0.1027484888 -0.4511598318
-0.0258354802 0.1092091723 -0.4849739775
-0.0060322143 0.0704853250 -0.3747326547
-0.0513924793 0.1206466098 -0.4157821233
-0.0634032056 0.0840991401 -0.4642453754
-0.0655277005 0.0352775012 -0.3989526412
-0.0610265738 0.0683758043 -0.3858614090
-0.0687747797 0.1346616274 -0.3599300769
-0.1191923642 0.0924344256 -0.3798406019
-0.0378592027 0.0424227677 -0.4026400944
-0.1303226316 0.0962312744 -0.3887511005
-0.0655767777 0.0654153889 -0.4478615590
-0.0521779436 0.0779255290 -0.3506348694
0.0030084579 0.1069794340 -0.4501444892
-0.1404990680 0.1077167474 -0.3959908585
-0.0422136598 0.1048863152 -0.4022236099
-0.0865775819 0.1139592733 -0.4334883471
-0.0104788648 0.0554288571 -0.4102402589
-0.0813235131 0.1349292161 -0.4433353494
-0.0219290474 0.1113816126 -0.4812700665
-0.0116158973 0.1148381346 -0.4212437445
-0.0939615158 0.0941288967 -0.4274849850
-0.0707506665 0.0978277387 -0.3911075265
-0.0636976942 0.1189122594 -0.4082347022
-0.0365944897 0.1077550617 -0.4222475260
-0.0820412959 0.1385213972 -0.3481053528
-0.0725116979 0.0846753802 -0.4526374860
-0.1086145832 0.0732708874 -0.3836105304
-0.0696448328 0.1356307917 -0.4390691894
-0.0930517970 0.1308082844 -0.4029653679
-0.0193067868 0.1115517571 -0.4737574822
-0.1108052667 0.0633184366 -0.3755263669
-0.1069159556 0.0632774529 -0.3837177090
-0.1064031646 0.1208205695 -0.3850484886
-0.0809519314 0.0964457423 -0.4471175115
-0.0886368901 0.0649412423 -0.3824904263
-0.0275423738 0.0582227334 -0.4229586721
-0.0530698894 0.1160447646 -0.4061109529
-0.0344880184 0.0644178272 -0.3861491219
-0.1117651537 0.1013614088 -0.3849697709
-0.0395020993 0.1201025297 -0.4556576069
0.0016973618 0.1065185405 -0.4581046329
-0.0197197889 0.0633271138 -0.3804669173
-0.0817936874 0.0300777428 -0.3996420087
-0.0487120522 0.1443462522 -0.4040685211
-0.0982157084 0.0829199572 -0.3807753573
-0.0459382254 0.0669972065 -0.3580747168
-0.0306937519 0.1150151197 -0.4149114950
-0.0155719925 0.0585240609 -0.4165711491
-0.0886747343 0.1306731956 -0.4127413050
-0.0394953447 0.0644440533 -0.4073498871
-0.0150739305 0.0649729573 -0.3910747233
-0.0580659173 0.0369537398 -0.3997044563
-0.0659122008 0.0751913707 -0.3904092981
-0.0877337068 0.1336644445 -0.4453067037
-0.0339995406 0.0624491908 -0.4644449965
-0.1362157306 0.0915917842 -0.4231177083
-0.0604380845 0.1289301464 -0.4549262679
-0.0834530917 0.1025885844 -0.3878374852
0.0017584233 0.0973258356 -0.4449005689
-0.1068170026 0.0757555440 -0.3843878089
-0.1216664746 0.0847537065 -0.3910744322
-0.0579912322 0.0404951014 -0.3942507622
-0.1031081539 0.0503633439 -0.3772350418
-0.0087521197 0.0486267395 -0.4165970385
-0.0905347001 0.1102923580 -0.4040237837
-0.0144230139 0.1172802521 -0.4725599978
-0.0897552789 0.1086354452 -0.3993747421
-0.0514479208 0.0545754099 -0.4487289328
-0.0815397680 0.1181789067 -0.4433168296
-0.1171227856 0.1129219658 -0.4295177963
-0.0852506736 0.0661866041 -0.3626279847
-0.0613491798 0.0614407655 -0.4115082658
-0.0330893788 0.1122358889 -0.4150023680
-0.0254487873 0.1225431793 -0.4196782248
-0.0087895417 0.1446278858 -0.4176619420
-0.1077108683 0.0705532938 -0.4327683063
-0.1205582085 0.0704917834 -0.3846029927
-0.0696152034 0.1395904004 -0.4284947382
-0.0477330282 0.0827583416 -0.4030453014
-0.0511092831 0.0999920662 -0.4004992724
-0.0455933676 0.0841865755 -0.3523000121
-0.0914157699 0.1318048654 -0.4405949924
-0.0063371998 0.0482384302 -0.4200597405
-0.0532753635 0.0590239420 -0.3941581345
-0.0059816398 0.1125087756 -0.4259216456
-0.0580807701 0.0654247440 -0.3913202584
-0.0381172530 0.1068401139 -0.4263654465
-0.0834702301 0.0735960373 -0.3816719698
-0.0966539958 0.1345391475 -0.4092629350
-0.0584581191 0.0877655235 -0.3959657225
-0.0503431145 0.1152182346 -0.4159134576
-0.0776306655 0.0638053014 -0.3719497131
-0.0234528418 0.1277826793 -0.4381459708
-0.0734688342 0.0898424089 -0.3900517896
-0.0110278641 0.0923719921 -0.4060973349
-0.0735750958 0.0924791379 -0.3904977525
-0.0580286309 0.0990124270 -0.3983393312
-0.0287458836 0.1305892583 -0.3642651322
-0.1084814076 0.1027016751 -0.4293653052
-0.0753922972 0.1030419504 -0.3924296017
-0.1124507324 0.0740544267 -0.3845134069
-0.0027484769 0.0924883624 -0.4688488348
-0.0415906425 0.0697958244 -0.3657344941
-0.0385899641 0.0608540821 -0.4131455874
-0.1434693219 0.1115198322 -0.4040517510
-0.1220017798 0.0545870486 -0.3813547638
-0.0694065908 0.1043648204 -0.3870253547
-0.0851185337 0.0627588952 -0.3853384506
-0.0847631625 0.1327962978 -0.3820844032
-0.0505978618 0.0881481285 -0.4006741039
-0.0896219910 0.1308972216 -0.4252869400
-0.0177042185 0.0689947641 -0.3891619312
-0.1204929336 0.0561790582 -0.3790741960
-0.0648340526 0.1268728499 -0.4600022651
-0.0208348801 0.0563873384 -0.4403144626
-0.0425032214 0.0981436175 -0.4081433022
-0.0307587669 0.0624182210 -0.4059418683
-0.1206412947 0.1000481077 -0.3879956909
-0.0229457346 0.1149524747 -0.4186116318
-0.0885821791 0.1559758654 -0.3661444727
-0.0719047383 0.0534243370 -0.4383205576
-0.0483896639 0.0398720317 -0.3985719532
-0.1175546534 0.0943227303 -0.4306285653
-0.0977922073 0.0646079825 -0.3696831596
-0.0557952971 0.0610053496 -0.4124452855
-0.1121610245 0.0952495640 -0.4303812414
-0.0695042483 0.1308847114 -0.4337693381
-0.0795177743 0.1239076629 -0.3882755637
-0.0201119097 0.1311373963 -0.4574177897
-0.0113640362 0.0927282539 -0.4207216882
-0.0198762874 0.0589610814 -0.4593451461
-0.0713969392 0.0561523583 -0.4325977813
-0.0481149231 0.1262901131 -0.4336180531
-0.0463931659 0.1160798802 -0.4062012822
-0.0764609973 0.0746487920 -0.4490850894
-0.0060035484 0.0606499524 -0.4084614108
-0.0435382668 0.1454992972 -0.3785721059
-0.1161524171 0.0655062030 -0.3784470724
-0.1077760127 0.0672822466 -0.4234364484
-0.0459474996 0.0450412784 -0.3976512253
-0.0706259730 0.1302738426 -0.4129676415
-0.0629528281 0.1236827028 -0.3936146280
-0.1154333301 0.0979345685 -0.3880660192
-0.0487731822 0.0510565984 -0.3969563423
-0.1039802219 0.1444721110 -0.3575037630
-0.0507802621 0.1086744843 -0.4006690366
-0.1287403758 0.0805259152 -0.3951568792
-0.1376733336 0.0935425483 -0.4254401064
-0.0950813653 0.1347360411 -0.3865618674
-0.1286664438 0.1285125437 -0.4099082961
-0.0454675168 0.0780652641 -0.4033145762
-0.0881950171 0.1319010126 -0.4226455280
-0.0478867068 0.1152375250 -0.4082893943
-0.0876325369 0.0807175413 -0.3844617605
-0.0939903217 0.0681565134 -0.4303613294
-0.1107931775 0.0785291878 -0.4292089397
-0.1163093397 0.0827254552 -0.3956744494
-0.0535079633 0.1053974292 -0.4011092458
-0.0386711247 0.1269209892 -0.4202943031
-0.0099226060 0.1352827499 -0.4285210838
-0.0332089212 0.0789329995 -0.4709781950
-0.0581523972 0.0647175822 -0.3994829987
-0.0392035252 0.0662736508 -0.4595404939
-0.0793363044 0.1117704251 -0.3997551024
-0.0432677011 0.0729769186 -0.4023618116
-0.0781914869 0.1231392132 -0.3945889150
-0.0757176458 0.1254174135 -0.4124583072
-0.0482775510 0.1151651617 -0.4282249261
-0.1040935413 0.1413240259 -0.3801853112
-0.0405969053 0.1171790292 -0.4550600191
-0.0068036588 0.0707553532 -0.4240857671
-0.0159481970 0.1253843479 -0.4246413715
-0.0176968418 0.0584769325 -0.4239953806
-0.0833158664 0.0615568767 -0.4394895175
-0.0288655027 0.1045728830 -0.4113762073
-0.0423988088 0.1266259044 -0.4170215412
-0.0055812271 0.1049553821 -0.4237983434
-0.0208622072 0.1183228434 -0.4217112853
-0.0511538190 0.1367849949 -0.4101189472
-0.0790203361 0.1152424507 -0.4125258279
-0.0675479272 0.1119008159 -0.3982306214
-0.0682811335 0.1384066692 -0.4258756944
-0.0879860521 0.0453286661 -0.3777454267
-0.0961805628 0.0694360588 -0.4330522183
-0.0937778361 0.1501276942 -0.3665089114
-0.0707145910 0.1074517520 -0.3929959957
-0.0349834901 0.1086446263 -0.4338305878
-0.0110571834 0.1276719490 -0.4512813410
-0.0307954652 0.0706459433 -0.4082217085
-0.0052821823 0.1095513623 -0.4300897517
-0.0859346759 0.1296414304 -0.4034960305
-0.0113517753 0.1212059996 -0.4679134328
-0.0912710652 0.0625458732 -0.3776874244
-0.1135992660 0.1319731158 -0.4327327575
-0.0677214596 0.0352800711 -0.3979373679
-0.1110594366 0.1300869458 -0.3713985756
-0.0959351282 0.1232990674 -0.3975793751
-0.0509869775 0.1225737208 -0.4054855573
-0.0453382973 0.0403218213 -0.4011729062
-0.0533179210 0.0753068914 -0.3976858004
-0.0302152871 0.1195250970 -0.4189538291
-0.1078297272 0.0908766463 -0.3866657019
-0.0878262449 0.1164705938 -0.3955986985
-0.0904338765 0.0399704661 -0.3849164512
-0.0059930846 0.1174027406 -0.4293134036
-0.0980288733 0.1077837598 -0.3851182720
0.0084048753 0.1023744908 -0.4554564486
-0.0758028515 0.1101166550 -0.3924016878
-0.0427816572 0.1214907373 -0.4236618912
-0.1271590920 0.0918922774 -0.4256415732
-0.0926337091 0.1308706070 -0.4003305516
-0.0534547204 0.0977554003 -0.4013213684
-0.1083234915 0.0924591875 -0.3863315860
-0.1330863690 0.0821700875 -0.4112068249
-0.0760637544 0.0617847654 -0.3659570237
-0.0756854948 0.1003588253 -0.3805531945
-0.0752767012 0.0837997936 -0.3897052927
-0.0732463040 0.0443914192 -0.3856628601
-0.0851844671 0.0951784892 -0.3871384116
-0.0633312904 0.1174373642 -0.3984031963
-0.0471610859 0.0948506304 -0.4055845238
-0.1282068832 0.0909808181 -0.3982588302
-0.1009780422 0.1191683334 -0.3895038062
-0.0138882883 0.0777787340 -0.4743278086
-0.0084077622 0.0730033494 -0.4250100878
-0.0100265031 0.0760042688 -0.3730264464
-0.0702732197 0.1156837493 -0.4091070513
-0.0054446831 0.0886693274 -0.4230502499
-0.0278534589 0.0876430268 -0.4100638855
-0.0348795158 0.1081815969 -0.4685648567
-0.0304241863 0.0951337460 -0.4124695367
-0.0020372786 0.0832820765 -0.4276653644
-0.0064167385 0.1081628427 -0.4243836105
-0.0979636567 0.0342606704 -0.3896058816
-0.0959441371 0.1194909121 -0.3840442824
-0.0482794873 0.0551708281 -0.3958285803
-0.0355680281 0.1039857691 -0.4684492900
-0.0280882954 0.0747016110 -0.4101654291
-0.0581938215 0.0710308665 -0.3944412653
-0.0079521695 0.0975891501 -0.4250610769
-0.0279830909 0.0796264498 -0.3626502117
-0.0977238590 0.0471769000 -0.3770005187
-0.1419295433 0.0913275246 -0.4196956827
-0.0519482784 0.0622255426 -0.4103115512
-0.1389676703 0.1104103320 -0.4003020291
-0.0385859024 0.0970492569 -0.3976470318
-0.1246268432 0.0909328800 -0.3974228973
-0.0662437037 0.0478064959 -0.3859295375
-0.0455008606 0.0728582612 -0.4669126176
-0.1060862852 0.1302289685 -0.4403586081
-0.0430125130 0.0649505639 -0.3867623372
-0.0791002427 0.0599549338 -0.4067041833
-0.1224216391 0.1076119815 -0.3862494525
-0.0898833471 0.1379347695 -0.4203913627
-0.0257264581 0.1076697832 -0.4179084264
-0.0878770688 0.1349272494 -0.4220218874
-0.0975277809 0.0855268581 -0.3817248529
-0.0878694057 0.0477168012 -0.3779499755
-0.1015713328 0.0615826023 -0.4302079525
-0.0731874107 0.1150588953 -0.3949572196
-0.0855258818 0.0969737977 -0.3838606451
-0.0801659969 0.1249883248 -0.4522138106
-0.0605793738 0.0439997677 -0.3897202247
-0.0726382718 0.0953186212 -0.4507155538
-0.0997955340 0.0556737528 -0.4254884639
-0.1205846959 0.1245625430 -0.3950308196
-0.1073938021 0.0555599754 -0.3767414438
-0.0334010679 0.0596947477 -0.4040267918
-0.1412558092 0.0963789400 -0.3957622521
-0.1139708479 0.0966462843 -0.3895059177
-0.0907045326 0.1056547976 -0.3876508556
-0.0603438753 0.0427230054 -0.3901050766
-0.0540781586 0.0930497852 -0.3987777672
-0.0189270933 0.0632935447 -0.4071678694
-0.0514115495 0.1169384434 -0.4445684912
-0.0766652533 0.1109636639 -0.3895227516
-0.0881169810 0.0798433366 -0.3831577774
-0.0095809316 0.0597407723 -0.4068552936
-0.0058773875 0.0998924629 -0.4275990880
-0.0746289554 0.1127743696 -0.4014078589
-0.0808629515 0.1099585400 -0.3906814291
-0.0185260710 0.1176928231 -0.4203163389
-0.0530198572 0.0689233222 -0.4542730070
-0.0661615343 0.0594994041 -0.3860807828
-0.1105955802 0.1050596200 -0.3827810585
0.0028354008 0.0693749555 -0.3906744597
-0.0993072391 0.0449891873 -0.3767285049
-0.0988905677 0.1154295203 -0.4265447888
-0.1106357458 0.1074517288 -0.3833410655
-0.0259957882 0.0995866518 -0.4782171450
-0.0095720477 0.1179255396 -0.4246280193
-0.0357395889 0.0602429871 -0.4051039599
-0.1191197069 0.0663926157 -0.4000446669
-0.0181371195 0.0590671379 -0.4146957655
-0.0627839261 0.1396483878 -0.4282836772
-0.0380375787 0.1535851833 -0.3861445653
-0.0607552196 0.0690471645 -0.3670530187
-0.0478534046 0.1345946570 -0.3640070181
-0.0848825782 0.0708860757 -0.3489745077
-0.1451188759 0.1066837995 -0.3969387826
-0.0190265291 0.1075144762 -0.4162933490
-0.0650904743 0.0512111836 -0.3913155521
0.0009855877 0.1358573149 -0.3932332321
-0.0086522970 0.0646908545 -0.4128646382
-0.0528148655 0.1262889102 -0.4478662467
-0.1261634090 0.0928293147 -0.3952645060
-0.0800301060 0.0639025047 -0.3806045055
-0.0831267152 0.1312001426 -0.4138009480
-0.0146196826 0.1177578472 -0.4310649701
-0.0832008236 0.0771602784 -0.3847931892
-0.0781695288 0.0980971294 -0.3902549047
-0.1298426409 0.0753189056 -0.4003432647
-0.1036962823 0.1175963289 -0.3842683047
-0.0562312833 0.1005628440 -0.3903396388
-0.1256313386 0.0878847754 -0.3991681908
-0.0705717239 0.0377281921 -0.3930263859
-0.0945621198 0.1365598571 -0.4149405057
-0.0477529911 0.0474422612 -0.3975054551
-0.0349364265 0.1289036618 -0.4341787785
-0.0470777426 0.0969798731 -0.4056134383
-0.1086588114 0.1293039522 -0.3740067997
-0.0920017771 0.1365329547 -0.3827321378
-0.0454625115 0.1429372931 -0.3783295442
-0.0584109772 0.1034465261 -0.4000848492
-0.0207994107 0.0531706222 -0.4512352518
-0.0407353185 0.1150012041 -0.4108287219
-0.0406601562 0.0928386644 -0.4096951320
-0.0714370736 0.1343654863 -0.3601235737
-0.1126594410 0.0748581772 -0.4253746546
-0.0924586803 0.0850337371 -0.3847915530
-0.0687243802 0.1297694274 -0.4242025116
-0.0635273978 0.1195187047 -0.3988544941
-0.0102579246 0.0844541732 -0.4223817439
-0.0412098453 0.0642175311 -0.3940221461
-0.0134249283 0.0724895149 -0.4155235291
0.0089144602 0.1315042210 -0.3881703513
-0.1224503110 0.0884739826 -0.4269391694
-0.0317950222 0.1206479484 -0.4447093870
-0.0553822293 0.0428896427 -0.3927613609
-0.0564837111 0.1291233505 -0.4220886604
-0.0159879510 0.0922095311 -0.4173894259
-0.0752799571 0.1302588300 -0.4145179253
-0.0926053371 0.0615438000 -0.3792950085
-0.0900833517 0.0746437025 -0.4383759408
-0.0157083790 0.0654855017 -0.4134494812
-0.0208979272 0.1125236180 -0.4177984237
-0.1031801056 0.0790204726 -0.3526647824
-0.0633642018 0.1055701674 -0.3976310306
-0.1104167812 0.1028284244 -0.3839855045
-0.0284592500 0.0955484484 -0.4125665657
-0.0554306853 0.0913707397 -0.3868374836
-0.0138019217 0.1259016570 -0.4215427912
-0.0962987873 0.0825864823 -0.4383680954
-0.0023097386 0.0928045144 -0.4265855897
-0.0790293154 0.1138659506 -0.3898240307
-0.0383790161 0.0755690713 -0.4672362644
-0.0314470607 0.1263504074 -0.4620060973
-0.0528598964 0.0981850907 -0.3982527519
-0.0556992589 0.0950776005 -0.3868914803
0.0055077346 0.1512729521 -0.4048359993
-0.0606421615 0.1285860978 -0.4340308900
-0.0275473383 0.0612933769 -0.4102518742
0.0092637318 0.0638064798 -0.3858240369
-0.0883171383 0.1086357289 -0.3951417877
-0.0610931556 0.0635686967 -0.3814958702
-0.0956567785 0.0826801607 -0.3828487678
-0.1132412217 0.1028036292 -0.3852378907
-0.0365811107 0.0596881841 -0.4197238097
-0.0731001187 0.1407419108 -0.3718304254
-0.1068650439 0.1319906159 -0.3801522500
-0.0854111463 0.0351429451 -0.3939164877
-0.0479245611 0.1178628056 -0.4083175668
-0.0332725070 0.1377232643 -0.3688092522
-0.0869591208 0.0962869544 -0.4383035680
0.0006146470 0.0620743062 -0.3789742550
-0.0084727199 0.0597148659 -0.4181839526
-0.0990210406 0.0724355027 -0.4367770068
-0.0970785984 0.0294005612 -0.3968377238
-0.0577134539 0.0619521681 -0.4017984116
-0.1030402004 0.1452649186 -0.3784731671
-0.0152211542 0.0567368162 -0.4249394784
-0.0814070532 0.1033581026 -0.4034007657
-0.1425738619 0.1057890125 -0.3945208450
-0.0087007659 0.0754939162 -0.4236228756
-0.0808757303 0.0773851582 -0.3848540194
-0.0678491974 0.0452101084 -0.3859320691
-0.0883747106 0.1256724069 -0.4161167342
-0.1081492685 0.1004628361 -0.3856554580
-0.0500239213 0.1542012525 -0.3828373738
-0.0182661451 0.1072395465 -0.4200448971
-0.0238078815 0.1249410901 -0.4208628785
-0.0602753865 0.1131795066 -0.4025762220
-0.0184643873 0.1151684991 -0.4734531936
-0.1060130758 0.0780696872 -0.3825047289
-0.0227085557 0.1074174742 -0.4197920859
-0.0284976723 0.1336729348 -0.3816132939
-0.1064941617 0.1408592029 -0.3994663749
-0.0429664348 0.0758182858 -0.4029395416
-0.0434732532 0.0902215882 -0.4057935547
-0.1256304734 0.1274569247 -0.4304696435
-0.0371548664 0.0572164073 -0.4547817629
-0.0326196079 0.0875284517 -0.4738955252
-0.0446055184 0.1191470082 -0.4363008004
-0.0257755635 0.0751524485 -0.4754139525
-0.0614004691 0.0355894133 -0.3989677946
-0.0207557660 0.0477117524 -0.4088377655
-0.1187294393 0.0852609794 -0.4309492748
-0.1292240136 0.0946429851 -0.4260110671
-0.0386931673 0.1181066429 -0.4376705780
-0.0735781279 0.0635902907 -0.3488703627
-0.0851998068 0.1338457958 -0.4465457345
-0.0757419604 0.1074875028 -0.3926108802
-0.1027160066 0.0651549865 -0.3866083755
-0.1293918147 0.0731939142 -0.4059193288
-0.0618391565 0.1365621896 -0.4217770113
-0.0253411451 0.0555480849 -0.4098746878
-0.0008243372 0.1143959810 -0.4355598302
-0.0752200920 0.1318599861 -0.4445830669
-0.1226475984 0.0983804241 -0.3927905858
-0.0482624193 0.0873507767 -0.3514944638
-0.0718100928 0.0732270055 -0.4496983549
-0.0212497428 0.1285323479 -0.4520904574
-0.0302446738 0.0675074815 -0.3638352489
-0.0905936177 0.0672783228 -0.3681877874
-0.0959685935 0.0675749237 -0.3778308912
-0.0482128955 0.0449571823 -0.3954214636
-0.0187578025 0.0919932198 -0.4153608952
-0.0800656802 0.1252117039 -0.3943962263
-0.0413126555 0.1419304531 -0.3726653177
-0.0402342456 0.0645666840 -0.3891655792
-0.0634782003 0.1278397741 -0.4392052593
-0.0334977516 0.1253543387 -0.4156415169
-0.0307634631 0.1258131759 -0.4479206259
-0.1293643041 0.1179081996 -0.4386102258
-0.0167805684 0.1236345754 -0.4586587471
-0.0629753845 0.0636427128 -0.3955577205
-0.0030300920 0.0872914881 -0.4408976354
0.0011295250 0.0743827153 -0.3786602158
-0.0359977816 0.1179299020 -0.4457678154
-0.0364218049 0.1102023016 -0.4111034047
-0.1079787770 0.0655478069 -0.3762034927
-0.1328786009 0.1201451708 -0.4350309081
-0.0137796110 0.1215525133 -0.4729443011
-0.0377668469 0.0634138289 -0.3953347185
-0.0397853759 0.1224308135 -0.4302931309
-0.0460389866 0.0657579982 -0.3635141339
-0.0307259261 0.0583598477 -0.4300699692
-0.0654162355 0.0926201921 -0.3931970447
-0.0881066940 0.0746817492 -0.3833735687
-0.0428637193 0.1004648697 -0.4075670500
-0.0458598548 0.0606137066 -0.4170817223
-0.0222936450 0.0804877430 -0.4142748564
-0.0221377893 0.0517322230 -0.4409801784
-0.0930805929 0.0930282083 -0.3849505681
