-0.2123816923 0.0556079208 -0.4240432649
-0.1908659065 0.1608713328 -0.3860050337
-0.1634346497 0.1391665082 -0.2996846901
-0.1665094862 0.0614305287 -0.3761828737
-0.1970987162 0.1291628102 -0.3981563455
-0.1721308449 -0.0323018754 -0.2853266939
-0.2101081883 0.0304350715 -0.4190194390
-0.1614261763 0.1105131409 -0.3110627424
-0.1838174134 0.1481812992 -0.3750520639
-0.1653370908 0.0532087297 -0.3327590351
-0.1786246337 0.1508612216 -0.3246398727
-0.1711079153 0.0940354024 -0.3605240211
-0.1689532853 0.0695638052 -0.3666818739
-0.2013323773 0.0333385430 -0.4342292194
-0.1679093870 0.0735697819 -0.3268678244
-0.1752594406 0.0362024331 -0.4019659842
-0.1589768123 0.0716442646 -0.3380825192
-0.1754710074 0.0252988135 -0.3977681061
-0.1929199464 0.0906145178 -0.4057304876
-0.1732119863 -0.0182668277 -0.3253689509
-0.2051744908 0.0901738927 -0.4124912024
-0.1799728310 0.0986664482 -0.2377731205
-0.1607258304 0.0690942494 -0.3175577487
-0.2128162425 0.1264433816 -0.4090903813
-0.1862973544 0.1073235852 -0.2366616006
-0.1763612141 -0.0415803411 -0.3354714092
-0.1676257166 0.0455555981 -0.2767040371
-0.1668152175 0.1228853144 -0.3610271833
-0.1928708058 0.1434003784 -0.3859474205
-0.1763681943 -0.0553266792 -0.2949303741
-0.1695759299 -0.0054347530 -0.2835157035
-0.1779660309 -0.0465178951 -0.3030016194
-0.1586058324 0.0495852770 -0.3623117672
-0.1773786057 -0.0197450003 -0.2600706261
-0.1833102869 0.0920520376 -0.2293966108
-0.1872677356 0.1329323575 -0.4093157500
-0.1712548879 0.0946753833 -0.3142160704
-0.1979015752 0.1285769396 -0.3813894033
-0.1748423650 0.0958821081 -0.3316464480
-0.1761859790 0.0811478395 -0.2251245207
-0.1678325840 0.1252239978 -0.3086385796
-0.1910382455 0.1659378867 -0.3339472631
-0.1755528420 0.1266921087 -0.3752842505
-0.1675644347 -0.0122611172 -0.2930900550
-0.1636386032 0.0392388333 -0.2956958927
-0.1626794533 0.0598323690 -0.3288677445
-0.1984020904 0.1443255410 -0.3691134415
-0.1662738926 0.0959301231 -0.2729889971
-0.1555441767 0.0742739444 -0.3263312132
-0.1789573085 0.0304484648 -0.3226334699
-0.1963626545 0.0659046059 -0.3930860861
-0.1769984914 0.1433052376 -0.3743434604
-0.1730749771 0.1376754391 -0.3472858565
-0.1719024352 0.0450483293 -0.3865582335
-0.1832899854 0.0690109903 -0.4179483043
-0.1641944499 0.0828120896 -0.2694240123
-0.1655038775 -0.0280717177 -0.2891166107
-0.1753391748 0.0401736680 -0.3895743466
-0.1745837716 0.0726021029 -0.2791044454
-0.1711991554 0.1027484049 -0.3640018905
-0.1998390256 0.1402325975 -0.3989108727
-0.1739543853 0.1352855404 -0.3126095990
-0.1670259051 0.1075222602 -0.3080292714
-0.1938721307 0.1293079229 -0.4064176833
-0.2219771403 -0.0070579939 -0.4318414390
-0.1670889102 0.0279541153 -0.2616635913
-0.1747134462 0.1056072090 -0.3189906225
-0.1579760646 0.0578531149 -0.2821604847
-0.1759079343 0.0849676249 -0.2535586809
-0.1838770109 0.0456500697 -0.3864549739
-0.1886466707 0.0837320560 -0.3923043189
-0.1951361776 0.1402000593 -0.4030462490
-0.1684870337 0.1344924817 -0.3154276157
-0.2091853321 0.0512245260 -0.4121094346
-0.1693399082 0.0902432765 -0.2488330515
-0.1773976331 0.0445203643 -0.3334286748
-0.1861691290 0.1054033733 -0.2322449462
-0.1964140864 0.0817981504 -0.4294687781
-0.1896993229 0.1546428469 -0.3815850025
-0.2122213244 0.0583228354 -0.4219456679
-0.1600973688 0.0678236488 -0.3619637293
-0.1879048009 0.1296075753 -0.3760770179
-0.1812372855 0.0655633637 -0.4060726785
-0.1891479909 0.1116072158 -0.3681918576
-0.1810485075 0.1053555342 -0.2236782306
-0.1759837780 0.0339439085 -0.3149666238
-0.1745190522 0.1122072806 -0.2460240531
-0.2015648840 0.1191596697 -0.3904958765
-0.1798321382 0.0798443949 -0.2432531679
-0.1762834003 0.1108255650 -0.2882138677
-0.1740419136 0.1406934189 -0.3051845551
-0.1853659263 0.1579713494 -0.3203800348
-0.1826209894 0.1442388473 -0.3285648634
-0.1733262472 -0.0011798650 -0.3175088161
-0.1738234688 0.0847311090 -0.2816564637
-0.1765967772 0.1128905286 -0.2837824281
-0.2062201325 0.1496105462 -0.4082375884
-0.1758299733 0.0544750757 -0.2492039173
-0.1813706717 0.1175664536 -0.3293846562
-0.1845887265 0.0759512722 -0.4110579855
-0.1821970663 0.0386406950 -0.3285355490
-0.1668760282 0.1104890523 -0.2798953087
-0.2029231237 0.0382853320 -0.4382803359
-0.1901702282 0.0414584035 -0.3912872428
-0.1851603639 0.1512306218 -0.3662539083
-0.1996161445 0.0491385223 -0.4333669838
-0.2093062583 -0.0037670950 -0.4241060524
-0.1673427953 0.0662354717 -0.2612337600
-0.1801428905 0.0905634382 -0.2601749803
-0.2317266762 -0.0161905084 -0.4421699941
-0.1822154431 0.0508905845 -0.3901419923
-0.1801207062 0.1310743781 -0.3648804429
-0.1685214066 0.1276010360 -0.3061275057
-0.2223513166 0.0011276011 -0.4192022457
-0.2188908866 0.0105002548 -0.4162608839
-0.1867831946 0.0964730299 -0.3642132111
-0.1728096139 0.0466682533 -0.2814501318
-0.1671698391 0.1051143145 -0.2569268483
-0.1987203238 0.0443048753 -0.3925893866
-0.2147933914 0.0613363410 -0.4206453922
-0.1848616014 0.1070245300 -0.2465512795
-0.1582000837 0.0655486776 -0.2779665804
-0.1657527421 0.1052087665 -0.2717416663
-0.1712183827 0.0741723766 -0.3057643891
-0.2146600541 0.1330402616 -0.4091249429
-0.1910603055 0.1456937978 -0.3334629888
-0.1640859516 0.0579116967 -0.2465872376
-0.2020381705 0.0466732505 -0.4076309392
-0.1765654385 0.1233237686 -0.3402304411
-0.1915915693 0.0993134107 -0.3964044347
-0.1778608088 0.0614720517 -0.2511513835
-0.1369043808 0.1184155891 -0.3143386861
-0.2139962054 0.0380944509 -0.4084717234
-0.1709833362 0.0644549382 -0.2596213094
-0.1715589858 -0.0332554513 -0.2989009687
-0.1674156759 0.1434095640 -0.3238009352
-0.1918715657 0.0649099974 -0.4022600729
-0.1599862137 0.0940084527 -0.3084649821
-0.1854348401 0.1177790048 -0.2508877191
-0.1783000838 0.1269344691 -0.3845027012
-0.1675358234 0.0639610299 -0.3594446797
-0.1860158899 0.1004469377 -0.3918395434
-0.1648491157 0.0218091846 -0.2887569070
-0.1657922919 0.0817381208 -0.3224094539
-0.2004020982 0.1195177904 -0.4016339001
-0.1541591508 0.1178846404 -0.3188370728
-0.1782322764 0.0871898900 -0.3514815142
-0.1918276831 0.1393937084 -0.3891927876
-0.1797707673 0.1396890522 -0.3260001684
-0.1586052320 0.0258911883 -0.3054300832
-0.2071393852 0.0911702652 -0.4152137813
-0.1759376241 0.0229771983 -0.2646818669
-0.1956586981 0.0554782030 -0.3981408448
-0.1679503337 0.1232192782 -0.3175703133
-0.1926868137 0.1286407004 -0.3621830583
-0.1759981404 0.0826320639 -0.2555834422
-0.1594934717 0.1243527084 -0.3382237870
-0.1955727089 0.1250322561 -0.4157852771
-0.2028997342 0.0097299600 -0.4206841389
-0.1839271902 0.1491138519 -0.3539044110
-0.1751497562 0.0720570318 -0.2822882840
-0.1708878883 0.0264875466 -0.3111628923
-0.1697280069 0.0506760935 -0.3341139561
-0.1846529852 0.0734823867 -0.3616465017
-0.1841666359 0.0622384086 -0.3745898251
-0.1713970101 0.0559147070 -0.3807234964
-0.2031567693 0.1329346150 -0.4238173366
-0.1723093761 0.0083002745 -0.3110748665
-0.1717187165 0.1269612695 -0.2876333522
-0.1631979017 0.0823090386 -0.2855256631
-0.1637731349 0.0564342640 -0.3174933382
-0.1854778826 -0.0022721372 -0.4121318460
-0.1727104440 0.1213188246 -0.3665976045
-0.1655782852 0.0940311215 -0.3644547842
-0.1662303359 0.0312431897 -0.2782984024
-0.1883791704 0.1028155975 -0.2226655915
-0.1835985067 0.1349154821 -0.3763973942
-0.1862551130 0.1500228591 -0.3831949121
-0.1775047331 0.1128010491 -0.3070802446
-0.1598133639 0.0312955487 -0.2845882112
-0.1751667233 0.0932652580 -0.2613355859
-0.2006128751 0.0843212867 -0.3936041027
-0.1625777638 0.1316650069 -0.2932410081
-0.1659814825 0.0031322630 -0.2539648315
-0.1795349056 0.0921767656 -0.3838481995
-0.1613710702 0.0962203365 -0.2766738503
-0.1704969731 0.1136045183 -0.3300580222
-0.1739019747 -0.0219813181 -0.3018631971
-0.1681686033 0.0068644805 -0.3164169176
-0.1961219673 0.0203527178 -0.4107889868
-0.1732356291 -0.0218706228 -0.3062703868
-0.1680966952 0.0709696556 -0.3803474990
-0.1694962881 0.0126709128 -0.2987509491
-0.1751694116 0.0109836177 -0.2712762282
-0.1883923324 0.0706299805 -0.4183913223
-0.1920522353 0.1075364016 -0.2295017308
-0.1641765603 -0.0369095028 -0.2859488627
-0.1759126187 0.1052696671 -0.3040854990
-0.1659216285 -0.0147693956 -0.3039025546
-0.1808984436 0.0732850804 -0.3337240158
-0.1696972045 0.0516297361 -0.2222296651
-0.2029342516 0.1224822956 -0.3938013176
-0.1843283933 0.1464044620 -0.2821373171
-0.1722354809 0.0802850287 -0.3012366200
-0.1963640815 0.0001844754 -0.4116651894
-0.2040342689 -0.0131375464 -0.4315684438
-0.1644233211 -0.0242198085 -0.3063469242
-0.1857815005 -0.0661189008 -0.3276786206
-0.1886561523 0.0257739500 -0.4076690324
-0.1792866068 0.0953751597 -0.2702711441
-0.1708248159 -0.0551361104 -0.3248803541
-0.2073394805 0.1267695725 -0.4135210514
-0.1666273323 0.0922062898 -0.3215820705
-0.1983748431 0.0839719747 -0.3949847902
-0.2043782387 0.1239055430 -0.4036269350
-0.1762656738 0.0313469554 -0.3972105418
-0.1930873383 0.0870184778 -0.3984442841
-0.1912145354 0.1220388660 -0.3626779369
-0.1610028765 0.1133442369 -0.2821752081
-0.1637910577 0.0736642656 -0.3341844069
-0.1757519279 0.0876228591 -0.3358320660
-0.1923278436 0.0640748155 -0.4295770128
-0.1636482683 0.1017732725 -0.2576313800
-0.1795542176 0.1346122425 -0.3934296693
-0.1801264823 0.1023779652 -0.3983787354
-0.1848439245 0.1177748782 -0.3451726938
-0.1750268870 0.0641044066 -0.3553124878
-0.1583004408 0.1098064571 -0.3071479845
-0.1630121275 0.0805695445 -0.3192463558
-0.2040047873 0.0082804346 -0.4063384700
-0.2009023130 0.0883626267 -0.4106104672
-0.1825615883 0.0306835862 -0.3951912069
-0.1973661050 0.1385975448 -0.4013705717
-0.1885312889 0.0703576834 -0.4107850014
-0.1853096932 0.1371396913 -0.3357468037
-0.2051479073 0.0517945158 -0.4041701930
-0.1715015918 -0.0025252298 -0.2877143339
-0.1702009676 0.0711482373 -0.3169505358
-0.1722133928 0.0546367940 -0.3241690437
-0.1904736478 0.0825228837 -0.3906676456
-0.1789333112 0.0568902444 -0.2779592747
-0.1779591141 0.1204048246 -0.2785314335
-0.1932570390 0.0376412637 -0.4247682238
-0.1953149340 0.1567270843 -0.3770338962
-0.1666302319 0.1322920005 -0.3127988718
-0.2014579907 0.0138268696 -0.4180740597
-0.1869330704 0.0943432972 -0.4024131298
-0.2027989442 0.0462962824 -0.4023397796
-0.1632118449 0.0504502233 -0.2422102158
-0.1844839250 0.0978560429 -0.2233132242
-0.2054567784 0.0252787070 -0.4121284187
-0.1592476717 0.1031274995 -0.3158007154
-0.1779207407 0.1181814951 -0.3050326986
-0.1889054260 0.0939653081 -0.3697773992
-0.1773631280 0.0781492040 -0.2217347077
-0.1629565134 0.1037576344 -0.3383385689
-0.1675050764 0.1164895003 -0.2711060168
-0.1802231304 0.1450955769 -0.3907171317
-0.1853099491 0.1597730028 -0.3361366757
-0.1739486095 0.0676143914 -0.2054791710
-0.2133769944 0.0460773227 -0.4256138865
-0.1630869046 0.0512456410 -0.3171911372
-0.1803198383 0.0334183678 -0.4143711192
-0.1827478504 -0.0692901507 -0.2953803625
-0.1673118956 0.0398333620 -0.2578163314
-0.1590293189 0.0745241026 -0.3257659425
-0.1860919952 0.1496680245 -0.3969731567
-0.1674460125 0.0352635788 -0.3200820992
-0.1881638660 0.1242447465 -0.3871614638
-0.1832315799 0.0853431730 -0.3890956765
-0.2099937776 0.1194504498 -0.4024039158
-0.2004781331 0.0643367248 -0.3998403759
-0.2047043783 0.0698610170 -0.4014014823
-0.1755682366 0.0678729859 -0.3954454776
-0.1683380613 0.0800207281 -0.2697728419
-0.1734259797 0.0506710854 -0.3262283516
-0.1725225598 0.0759688020 -0.3898247480
-0.1659330721 0.1306735207 -0.3499034060
-0.2250181212 0.0046296202 -0.4231491814
-0.1682328581 0.1245824743 -0.3569415671
-0.1723937000 -0.0544466457 -0.3302994240
-0.1788421604 0.0997585017 -0.3844953334
-0.1742686116 -0.0178658589 -0.2898379105
-0.1877874431 0.0753921209 -0.3417681987
-0.1649663607 0.0614278389 -0.3683935559
-0.1926254146 0.0323068150 -0.4054396566
-0.2005766327 0.1330584407 -0.4097172412
-0.1644991626 0.0832572968 -0.3513750142
-0.1952640364 0.0508656806 -0.3945290790
-0.1888377194 0.0564627861 -0.4049342242
-0.2008474786 0.0325872342 -0.3993071052
-0.1783644207 0.0880786618 -0.3160644975
-0.2253609283 0.0131270119 -0.4235227580
-0.1986010335 0.0312585134 -0.4297145489
-0.1836922071 0.0910431448 -0.4058490359
-0.1996416971 0.0711769785 -0.3937617891
-0.1686219201 0.0140724057 -0.3079805603
-0.1832976532 0.0431637612 -0.4029433540
-0.1796260647 0.1580385774 -0.3433360341
-0.1813881318 0.1360108396 -0.3231023892
-0.1866322842 0.1249716385 -0.3946710958
-0.1677123323 0.0895498543 -0.2917322450
-0.1797202188 0.1201568523 -0.3663309660
-0.1922832482 0.1246266468 -0.3758060342
-0.1664855669 0.0807839710 -0.3560489300
-0.1371035910 0.1136528948 -0.3092640642
-0.1903026314 0.1446223649 -0.3303300139
-0.1800211471 0.1579875834 -0.3089584038
-0.1759205006 0.1243426439 -0.3877613199
-0.1701192122 -0.0202505655 -0.2761167910
-0.1636182770 0.1297014394 -0.2791633557
-0.1790332023 0.0762458744 -0.3875265498
-0.1759567577 0.0599155733 -0.3549940466
-0.1683914964 0.0609320229 -0.2272711196
-0.1652925501 0.1312845369 -0.3362249037
-0.1681692709 -0.0065430940 -0.2921356053
-0.1677242784 0.0339238051 -0.2756261466
-0.1940034942 0.1339865795 -0.4114871336
-0.2129621597 -0.0049199583 -0.4173155705
-0.1709435115 0.0267280595 -0.2944064153
-0.1580673320 0.1127058258 -0.3433531668
-0.1790478892 0.0943533056 -0.2193209218
-0.1643393604 0.0422335070 -0.2915128517
-0.1634681288 0.0546903071 -0.3272515882
-0.1732971932 0.0477667730 -0.3180712056
-0.1858778813 0.0234493788 -0.4092849667
-0.1847641170 0.0779427812 -0.4011011124
-0.1627285130 0.0340832862 -0.2751334263
-0.1719869863 0.0846792724 -0.3044766892
-0.1743537761 0.0614704855 -0.2729730164
-0.2073926628 -0.0159331132 -0.4311110973
-0.1820186673 0.1079871764 -0.2340589550
-0.1967990570 0.0951575942 -0.4029898381
-0.1880249679 0.1359430403 -0.4164894521
-0.1668946501 0.1020328279 -0.2453460211
-0.1660446866 0.0670053621 -0.3722506240
-0.1984738335 0.0952203088 -0.4057129920
-0.1711049356 0.0710934161 -0.2522050316
-0.1746996322 0.1127063761 -0.3049933592
-0.1646973968 0.0418291697 -0.3261132800
-0.1771243472 0.0828638548 -0.3894915276
-0.1724022499 0.0931149467 -0.2517625133
-0.1792524179 0.1570004707 -0.3279612280
-0.1765978005 0.1450369508 -0.3708237933
-0.1743365438 0.1314101455 -0.3324274121
-0.1685050976 0.0281007808 -0.3082964632
-0.1711583576 0.1329446984 -0.3628598826
-0.1879591197 0.0944697633 -0.4017683566
-0.1875366417 0.0553198691 -0.3933524231
-0.1615086006 0.0463743268 -0.3136461591
-0.1876360928 0.0787662592 -0.3518764235
-0.2053199410 -0.0116022388 -0.4312059581
-0.1748947375 0.0930294383 -0.3082915405
-0.1777250491 0.0849980797 -0.2595062345
-0.1987745613 0.0366312601 -0.4091111124
-0.1728658816 0.0951581335 -0.3171732245
-0.2056610659 0.1288328986 -0.4035023347
-0.1937787533 0.1191452593 -0.4151488245
-0.1961228774 0.0730372480 -0.3908062454
-0.1818842858 0.1593671989 -0.3018236038
-0.1726740201 0.1293420573 -0.3384708682
-0.1894017328 0.0078155132 -0.4132379272
-0.1874081054 0.1518134943 -0.3764212847
-0.1737830578 0.0263084239 -0.3093863497
-0.1767523903 0.0647219967 -0.2853362571
-0.2056152600 0.0968451889 -0.4015506673
-0.1871304893 0.0459894984 -0.3897231858
-0.1988046211 0.1395440652 -0.4110263836
-0.1777083041 0.0886374348 -0.3705165675
-0.2139585192 0.1316624676 -0.4189483547
-0.1610398283 0.0940061404 -0.2963222666
-0.1856300980 0.1146723107 -0.4066464305
-0.1783079106 0.1056907826 -0.3427161858
-0.1941414445 0.1358184621 -0.3781512115
-0.1762596583 0.0873965607 -0.3410271487
-0.1786973918 0.0550849394 -0.3794623401
-0.1711853708 0.1228037164 -0.3609392192
-0.1628308880 0.0909518216 -0.3606624438
-0.1614407148 0.1038748956 -0.3317150923
-0.2020043621 0.0455785477 -0.4242690445
-0.1847785652 0.0708307183 -0.2219746357
-0.2010849717 0.1464513006 -0.4034701861
-0.1392033841 0.1160281993 -0.3060186466
-0.1822900672 0.0660410114 -0.3056500208
-0.1975784343 0.0389149350 -0.3974169229
-0.1859906465 0.1229999512 -0.3822080493
-0.1710969123 0.0731060577 -0.3858763749
-0.1671490083 -0.0386398707 -0.2929290162
-0.1840666950 0.0800641422 -0.2348638572
-0.1403857501 0.1093949760 -0.3094371453
-0.1672946007 0.1288741914 -0.3144831319
-0.1966637522 0.0433384627 -0.4064547122
-0.1712354618 0.0457958728 -0.2884199598
-0.1901974549 0.0774613925 -0.4185284888
-0.1863598253 0.0642084419 -0.3963238428
-0.1807662188 0.1400065537 -0.3591884883
-0.1635540898 0.0814155471 -0.3385263930
-0.1909700307 0.0512055682 -0.4230054121
-0.2160731960 0.0054033669 -0.4178576683
-0.1885179803 0.1308743720 -0.3407644823
-0.1797363977 0.0626572101 -0.3529195760
-0.1683941497 0.0533930086 -0.2344878036
-0.1796328529 0.0564871980 -0.3876535688
-0.2097387027 0.1166039442 -0.4086281876
-0.2020530487 0.0835081826 -0.4109949646
-0.1662949288 0.0412844649 -0.2424359880
-0.1806437887 0.1160884635 -0.3902512692
-0.2085816445 0.0126309617 -0.4088808223
-0.2026860382 -0.0021294052 -0.4225527914
-0.1895089732 0.0514005816 -0.4250607564
-0.1847574422 0.0809882373 -0.4087535465
-0.1611683647 0.0999727276 -0.2669166764
-0.1918012410 0.1510664955 -0.3794982469
-0.1764438787 0.0450449389 -0.2956815669
-0.1898727616 0.0619706529 -0.3835161145
-0.2194150378 0.0360153191 -0.4355907520
-0.1740882729 0.0099765551 -0.3212630478
-0.1701649604 -0.0151615711 -0.2846097854
-0.1681315468 -0.0498130984 -0.2845107864
-0.1687210689 -0.0006829711 -0.2542374342
-0.2021620443 0.0949686250 -0.4131874336
-0.1900518706 0.1045718261 -0.2387272549
-0.1947142854 0.0960642662 -0.3932140723
-0.2030165762 0.0358824061 -0.4353519792
-0.1908848224 0.0025429873 -0.4146408920
-0.1867549802 0.0934461320 -0.4152520817
-0.2012473794 0.0330459326 -0.4312926586
-0.1860043613 0.0637484909 -0.3534520930
-0.1716712835 0.0944894709 -0.3209521115
-0.2006257034 0.1351672151 -0.4031766370
-0.1680650022 0.0776114935 -0.3541865911
-0.1729885931 0.0879629042 -0.2815604720
-0.1673022052 0.1171392805 -0.2459349350
-0.1694269063 0.0897046863 -0.3377215573
-0.1809103347 0.0649201454 -0.2489960698
-0.1892811985 0.0766916970 -0.4147073313
-0.1676394265 0.0590454838 -0.2521722404
-0.1848272495 0.1332205248 -0.3712614296
-0.1868275335 0.1120044605 -0.3647666693
-0.1746807134 -0.0509783187 -0.2749880320
-0.2086829990 0.0124826850 -0.4191499054
-0.2036733823 0.0392115542 -0.4241028325
-0.1812682350 0.0649024182 -0.2663744822
-0.2133383105 0.0102804607 -0.4192562600
-0.1794361647 0.1264641399 -0.3679188495
-0.2059327230 0.0180820189 -0.4232712066
-0.1780122022 -0.0339446196 -0.3336491014
-0.1930711684 0.1428437293 -0.3651720084
-0.1792800140 0.0725640978 -0.2792013315
-0.1699804966 0.0051395313 -0.2759293776
-0.1992719145 0.0876694279 -0.3969339262
-0.2207126474 0.0008563605 -0.4142738756
-0.1827154401 0.0138046646 -0.4033391638
-0.1676195778 0.0520471781 -0.2416405840
-0.1672001944 0.1081002130 -0.2859548831
-0.1753417794 0.1119518551 -0.3144409498
-0.1720177865 0.0755417658 -0.2909818808
-0.1679443739 0.0746042030 -0.2938831513
-0.1688820627 0.0637419587 -0.3015975427
-0.1670582689 0.0122121542 -0.2711981500
-0.1906576170 0.1304704538 -0.3888014093
-0.1750924647 0.0642948077 -0.3382621073
-0.1700195451 0.1044715149 -0.3781873766
-0.1919205695 0.1249775185 -0.3885997729
-0.1742513716 0.0685701250 -0.2540897870
-0.1964023901 0.0151460050 -0.4155310836
-0.1672170917 -0.0109976172 -0.2634085600
-0.1718373125 -0.0306613734 -0.2893330621
-0.1685350766 0.1167466157 -0.3074347081
-0.2214670330 0.0066468851 -0.4276949465
-0.2006685420 0.1203739039 -0.4063270019
-0.1596866922 0.0373909128 -0.2487409701
-0.1708532719 0.0546933448 -0.3777108522
-0.1582686609 0.1051402580 -0.3080776241
-0.1806060388 0.0579618815 -0.3988777764
-0.1790749047 0.1076685815 -0.2864127141
-0.2018113392 0.0609455487 -0.3954587400
-0.1726175853 0.1136104629 -0.3834159687
-0.1671930819 0.1286347908 -0.3103651324
-0.1717447377 0.1030450098 -0.3298527982
-0.1740807195 0.0862860826 -0.2569274915
-0.1623395833 0.1024256172 -0.2806026168
-0.1798233548 0.0474981646 -0.3914365357
-0.1707634672 0.1008177456 -0.3079975861
-0.1811206062 0.1540766611 -0.3346553065
-0.1793558176 -0.0344222159 -0.3287768852
-0.1723156822 0.0119787626 -0.2738134530
-0.1917807255 0.0926357746 -0.3711020627
-0.1703320177 0.0952616125 -0.3802926025
-0.1914593854 0.0623006517 -0.4034612285
-0.1900972889 0.0428889267 -0.4144812123
-0.1683927452 -0.0320740931 -0.2956520383
-0.1608476843 0.0777110595 -0.3543983276
-0.1761635635 0.0180462099 -0.3126600453
-0.1997291231 0.1553152919 -0.3828503327
-0.1773059285 0.1229813241 -0.3647449339
-0.1575974757 0.0820844160 -0.3312875573
-0.2168502051 0.0516888186 -0.4331398233
-0.1617466965 0.0790298291 -0.3468228293
-0.1660272532 -0.0327878594 -0.2787205826
-0.1635411160 0.0420317395 -0.2988809764
-0.1755686822 0.0000872476 -0.2805113059
-0.1833930649 0.1116667129 -0.3927959296
-0.1612915198 0.0950040438 -0.2800505917
-0.1659535147 0.0801664057 -0.3445183424
-0.1672695867 0.0659999040 -0.3437341590
-0.1880394668 0.0936089502 -0.3841436128
-0.1627931064 0.0412461210 -0.3183801473
-0.1699250106 0.0734082480 -0.2684476749
-0.1637293592 0.0983857542 -0.3347282137
-0.1704034375 0.0008182442 -0.3189737064
-0.1750611949 -0.0092678330 -0.2706905113
-0.1600773936 0.1072658593 -0.3122189701
-0.1878744183 0.0293131463 -0.4106117590
-0.1875456342 0.1003224028 -0.3870860219
-0.1861642832 -0.0694289013 -0.3271844816
-0.1845840490 0.0664225782 -0.3244877822
-0.2180769574 0.0042194193 -0.4315142533
-0.1834672289 0.0620140042 -0.3351769281
-0.2052520768 0.0592849720 -0.4222751358
-0.2012386993 0.1166297047 -0.3967413496
-0.1874018027 0.0749308704 -0.3776711412
-0.1742266582 0.0569358798 -0.4037668312
-0.1776399656 0.0559762374 -0.3938246031
-0.1640876751 0.1373335685 -0.3071391228
-0.1691141771 0.1350383887 -0.3509502839
-0.1678128597 0.1113968363 -0.3533501306
-0.1702833686 0.1211101979 -0.2687727020
-0.1767023779 0.1303527433 -0.3619325958
-0.1706101804 0.0805644305 -0.2667174264
-0.1791997878 -0.0660849594 -0.3091399858
-0.1643927973 0.0714001534 -0.3212170249
-0.1846887816 0.1175093034 -0.3901779391
-0.1739820140 0.0452595000 -0.3310571052
-0.1995094597 0.0405408913 -0.3977669218
-0.1753057031 0.0415737521 -0.3306517627
-0.1879088980 0.0683531887 -0.3622330369
-0.1681340289 0.0942578018 -0.3489129220
-0.1991621110 -0.0020941933 -0.4168314581
-0.2209067731 0.0572555561 -0.4372725814
-0.2182663526 0.0200310803 -0.4157254602
-0.1894761170 0.0571292343 -0.3952025106
-0.1921834844 0.1185992078 -0.3699175041
-0.1683660580 0.0401345305 -0.2444612449
-0.2027291137 0.0604807783 -0.4234409298
-0.2001532551 0.1237358196 -0.3983647564
-0.1754415576 0.1171704257 -0.2410960149
-0.1643757287 -0.0040516921 -0.3194998353
-0.1851281288 0.0589278282 -0.3398576508
-0.1735337744 -0.0338723308 -0.3262732013
-0.1616629902 0.0739391062 -0.3177936124
-0.1712522586 0.0064525019 -0.3088743099
-0.1851531475 0.1182679210 -0.3746591829
-0.1854823799 0.1575729492 -0.3791314471
-0.1739230463 0.0880857390 -0.3013054380
-0.1732320843 0.0765960533 -0.2383765417
-0.1791228015 0.0772635874 -0.2854852367
-0.1643954599 0.1129158751 -0.3433972001
-0.1877201156 0.1424513749 -0.4060423862
-0.1671972228 0.0694749635 -0.3519255487
-0.1611006142 0.1051580860 -0.3207997394
-0.1872322845 0.1496152473 -0.3326445404
-0.1773276524 0.0786684460 -0.3481982378
-0.1708613409 0.0758073503 -0.2826025648
-0.1723790977 0.0572692934 -0.3559957975
-0.1686752204 0.0861481024 -0.3501139230
-0.1677086035 0.0624525203 -0.2742957240
-0.1698511768 0.0483886994 -0.3175943871
-0.1825414354 0.0684079689 -0.3914895626
-0.1745849879 0.0912986693 -0.3813035546
-0.2206646651 -0.0159492772 -0.4360425174
-0.1755670922 0.1204818779 -0.2956913262
-0.1636506110 0.0768751354 -0.3690842943
-0.1744778365 0.0004553665 -0.3079723331
-0.1768117858 0.0991933961 -0.3786499072
-0.1985955873 0.1450363679 -0.3961764872
-0.1740370928 0.0702190244 -0.3807065788
-0.1965211738 0.0018383880 -0.4104580989
-0.1788568208 0.1180337173 -0.3606499127
-0.1922934663 0.1204726907 -0.3961983270
-0.2036417226 0.0825509633 -0.3946398614
-0.1683312206 0.0615144611 -0.2930574723
-0.1667402633 0.0493527814 -0.2643461471
-0.1714848973 -0.0465408055 -0.2958438153
-0.1741331906 0.0491288489 -0.3334020851
-0.2023868263 0.0911923721 -0.4082608521
-0.1770784910 0.1397986125 -0.3741296877
-0.1873565604 0.1509832543 -0.3791842539
-0.1817336868 0.1594699796 -0.3112661086
-0.1739722916 0.1018111882 -0.2539650075
-0.2026598320 0.0411065563 -0.3980440975
-0.2046032283 0.0471893115 -0.4375210915
-0.1825627119 0.0577926055 -0.3329391495
-0.2030784525 0.0536630813 -0.4261272280
-0.2031820564 0.0149080426 -0.4174758576
-0.1798833646 0.1015596909 -0.3498635411
-0.1871807842 0.0553634822 -0.3955256270
-0.1731035468 -0.0008828547 -0.2673458325
-0.1657752229 0.0347578075 -0.2836562103
-0.1759001006 0.1405993410 -0.3251747650
-0.1858846712 0.0301903794 -0.4244896053
-0.1757480485 0.1432967640 -0.3381928713
-0.1805897268 0.0655969377 -0.3178327122
-0.1671095701 -0.0227412257 -0.2961195977
-0.2115240441 0.0168631329 -0.4232033157
-0.1779934267 0.0575373313 -0.3912778906
-0.2077209927 0.0236246179 -0.4121690036
-0.2182617933 -0.0113822725 -0.4302983880
-0.1747989261 0.1112944250 -0.2671352414
-0.1923494407 0.0445588441 -0.4310965396
-0.1638368983 0.1168262994 -0.3019821210
-0.1288097487 0.1123829330 -0.3003530831
-0.1574669912 0.0375163711 -0.3067762222
-0.1789321846 0.0698972775 -0.3020021187
-0.1837946701 0.1501209095 -0.3720113607
-0.1780106253 0.0628241009 -0.3929221795
-0.1902869787 0.1347902825 -0.3810956536
-0.1869813525 0.0974672271 -0.2276780883
-0.2100986074 0.0024205764 -0.4220461724
-0.2237137046 0.0252155211 -0.4272922096
-0.2102889466 0.0055071338 -0.4210589421
-0.2160049253 -0.0013176448 -0.4300120494
-0.1778370645 0.1098478022 -0.3490000672
-0.1959846757 0.1397464269 -0.3775920273
-0.1865176301 0.1484544041 -0.3244745531
-0.1855916916 0.0512615623 -0.3821000426
-0.1870708994 0.0682133552 -0.3403808283
-0.2066085628 0.0616205358 -0.4122418996
-0.1778425675 0.1291868027 -0.3242096413
-0.1795389332 0.1420073520 -0.3560198928
-0.1768926498 0.1111351035 -0.2518628890
-0.1880641648 0.0366197260 -0.3940497705
-0.1947662911 0.0416413295 -0.4314161835
-0.1855531033 0.0401966769 -0.3932209078
-0.2094770367 0.0183932192 -0.4280987756
-0.1925462252 0.0389045325 -0.4102632939
-0.2054591678 0.1437174500 -0.4065130744
-0.1655758551 0.1217456950 -0.2635604641
-0.1778120251 0.0340244271 -0.3314989742
-0.2018108881 0.1466510568 -0.3827992013
-0.1667453356 0.0466375175 -0.2802958800
-0.1779036181 0.0633376089 -0.2479780588
-0.1790313622 0.1154242042 -0.2454094741
-0.1720582689 -0.0571672284 -0.3202032096
-0.1805145057 0.1438637551 -0.2752194066
-0.1770005806 0.0827645936 -0.2615996225
-0.1765334631 0.0938952639 -0.2683120136
-0.1827543326 0.0655879999 -0.2828741312
-0.1949050743 0.0118991926 -0.4088755427
-0.1962293686 0.0801170727 -0.3709008384
-0.1944885096 0.0685560901 -0.4304408000
-0.1788553858 0.0954487954 -0.2971046704
-0.1794174281 0.1375233592 -0.3943088283
-0.1721802616 0.0526067981 -0.3699451144
-0.2162575583 0.0621075299 -0.4236885295
-0.1825949745 0.0269219590 -0.3212460369
-0.1831716677 0.0811950875 -0.2414683699
-0.1796623312 0.1478551063 -0.3279902904
-0.1801477502 0.1480538990 -0.3515364696
-0.1771270761 0.0185242977 -0.3229333366
-0.1799742751 0.0792142980 -0.2388589046
-0.1707556990 0.0685018597 -0.3330780649
-0.1743392304 0.1023587424 -0.3749098226
-0.1955201072 -0.0003108966 -0.4185764666
-0.1738163339 0.1072663359 -0.3774129005
-0.1683223772 -0.0335007379 -0.2823120061
-0.1702431029 0.0652541235 -0.2878398309
-0.1852567034 0.0836319489 -0.3906865731
-0.2162575587 0.0133965005 -0.4180944729
-0.1764021556 0.0332478585 -0.3930227648
-0.1791215092 0.0378013588 -0.4036175907
-0.1809369665 0.1354600125 -0.3470898577
-0.2132509588 0.0255888097 -0.4159032473
-0.1713598437 0.1291079757 -0.3113858217
-0.1867663621 0.0476003911 -0.3865935549
-0.1821574987 0.0712970509 -0.2756302141
-0.1960366517 0.0010363875 -0.4149645567
-0.1997504780 0.0122445462 -0.4127811876
-0.1700116061 0.1162142420 -0.3295844255
-0.1818175901 0.0606191195 -0.3163674660
-0.1704128913 0.1255981980 -0.3522031141
-0.1704893008 0.0811264287 -0.3757913203
-0.1742133158 0.0678636829 -0.3920513569
-0.1900427390 0.0621847789 -0.3949718189
-0.2051498495 0.1097014909 -0.3992723629
-0.1792808837 0.1110514440 -0.2613125172
-0.1904904168 0.0331168948 -0.4031133833
-0.1713758402 0.0895267901 -0.2582542874
-0.1734395871 0.0729327892 -0.3121027788
-0.2049537665 0.0589095153 -0.4093191789
-0.1905113708 0.0851712994 -0.3889546523
-0.1668538996 0.0452947441 -0.3161826170
-0.1647306943 0.0742184129 -0.2709343117
-0.1733591734 0.0631994274 -0.3799106304
-0.1806760028 0.0473897358 -0.3791797664
-0.2128335973 -0.0052481045 -0.4253564187
-0.1636707284 0.0120234223 -0.2888705129
-0.1823737956 0.0917725050 -0.3626014132
-0.2075833732 -0.0008733857 -0.4267281535
-0.1668218614 0.1014531857 -0.3615077937
-0.1634417088 0.0608601405 -0.3373506946
-0.1892555166 0.1451633533 -0.4051553803
-0.2103105834 0.0333646352 -0.4276904448
-0.1858964700 0.0610997929 -0.3952851603
-0.1914766417 0.1345734990 -0.3990721342
-0.1801551896 0.0554178771 -0.3073080658
-0.1882487504 0.0902718297 -0.3831457812
-0.1735737566 0.1127734549 -0.2521802438
-0.1752051147 0.0802774670 -0.3213587526
-0.1700036647 0.1277999911 -0.2711718592
-0.1603866395 0.0956073357 -0.3187131967
-0.1775394632 0.0905084830 -0.3530727896
-0.1280112784 0.1076089316 -0.2878861324
-0.1984672848 0.0764133487 -0.4226586361
-0.1892852044 0.0599405490 -0.3877537038
-0.2069134904 0.0092457753 -0.4075630142
-0.1714492806 -0.0396439134 -0.2956845779
-0.2129011994 0.0432877343 -0.4305344538
-0.1724813190 0.0923238354 -0.3863439396
-0.1556393558 0.0812807460 -0.3376368460
-0.1815939457 0.1025138089 -0.3437060046
-0.1658809245 0.1158464181 -0.3129179033
-0.1621422165 0.0317948349 -0.3147762219
-0.1807071750 0.0593944865 -0.3892614114
-0.1968392748 0.0261687032 -0.3944192489
-0.1725099270 0.0802160180 -0.3183670744
-0.1612386431 0.0159553314 -0.2641466318
-0.1628678519 0.1300440837 -0.3119885671
-0.1858847454 0.0563716865 -0.3307359721
-0.1767178409 0.0977364964 -0.3184655061
-0.1884400852 0.1367379476 -0.3457915746
-0.2022787884 0.1157926330 -0.3944318788
-0.1890280505 0.0260923929 -0.4210897941
-0.1893803367 0.0246368109 -0.4240538064
-0.1818864495 0.0899946317 -0.3987805545
-0.1687700673 -0.0258308466 -0.3005474612
-0.1757136760 0.1023934251 -0.2978041733
-0.1678245042 -0.0224301401 -0.2996102028
-0.2151410664 0.0105632603 -0.4150348180
-0.2054298592 0.0206443527 -0.4034923017
-0.1899665713 0.0798349926 -0.4149576055
-0.1940528020 0.0663362472 -0.3952751437
-0.1709509462 0.0679600717 -0.3270163568
-0.1773225949 0.1369266034 -0.3663679211
-0.1762586683 0.0527655948 -0.3951182663
-0.1648537042 0.0434331413 -0.3220942571
-0.1651002114 0.0065143143 -0.2795165136
-0.1639642808 0.0902895159 -0.2641145669
-0.1524475301 0.1150642325 -0.3177820925
-0.1739535178 0.1009281763 -0.2495562581
-0.2143249052 0.0408547599 -0.4257234451
-0.1673504954 0.1280820270 -0.3591755075
-0.1920627018 0.0392894217 -0.3978904279
-0.1913768512 0.0229607591 -0.4065029611
-0.1861416201 0.1338711275 -0.3950795797
-0.1783679899 0.0563697167 -0.2744252717
-0.1878450567 0.1318057662 -0.3961915348
-0.1601394172 0.0833297481 -0.3610471504
-0.1620332096 0.0849566216 -0.2558102646
-0.1949749030 0.0157625393 -0.4340229832
-0.1874083028 0.0700932866 -0.3709492486
-0.2052528663 0.0242624301 -0.4060995626
-0.2053028021 0.0812241047 -0.4025693524
-0.1703470452 0.0914764003 -0.3191202694
-0.1651987012 0.1079714358 -0.2953661649
-0.1735446086 0.0801009187 -0.3449053872
-0.2055710642 0.1368885139 -0.3898234815
-0.1826498736 0.0719327185 -0.3188137151
-0.1879812871 0.1015392059 -0.3979814265
-0.1592741585 0.0970589600 -0.2545768315
-0.1693690584 0.0303478427 -0.3369849752
-0.1768865388 0.0904890512 -0.3955057829
-0.1612713222 0.0432397254 -0.2784495856
-0.2145084760 0.0117821880 -0.4133013656
-0.1866967307 0.0928380015 -0.2351770384
-0.1660084084 0.0524284782 -0.3504871375
-0.2000069077 0.0453862843 -0.4234524282
-0.1902330367 0.0634972675 -0.3387689561
-0.1860772654 0.0138363904 -0.4077736640
-0.1710548536 -0.0540874982 -0.3034397186
-0.2026220620 0.0934475535 -0.3944114854
-0.1501957652 0.1194227128 -0.3256420578
-0.1585611006 0.0345054551 -0.2680287046
-0.2047091665 0.0628044436 -0.4357868153
-0.1729322962 -0.0245951391 -0.2804473118
-0.1788745339 0.0898995332 -0.3855891919
-0.1858235523 0.0125646815 -0.4136412144
-0.1749446612 0.0948349383 -0.2771467046
-0.2065575965 0.1077997007 -0.3994006098
-0.1833159157 0.0220868113 -0.4058959667
-0.2127397167 0.0458222855 -0.4303287664
-0.1794624365 0.1392529188 -0.3399303337
-0.2008159906 0.0689446181 -0.4099668264
-0.2119637989 0.0049598218 -0.4079806239
-0.2215491194 -0.0018558993 -0.4221325204
-0.1732126875 0.0755899410 -0.3732436491
-0.2081234100 0.0001927431 -0.4187665937
-0.1624807465 0.0514837343 -0.2789055887
-0.1665655150 0.0697291615 -0.3717020946
-0.1931131195 0.1435768790 -0.4107800915
-0.1945481089 0.0908851423 -0.4007813548
-0.1678919189 0.0671991753 -0.3757444613
-0.1701100640 0.0850190104 -0.3131079599
-0.1864680333 0.1392458072 -0.3907701925
-0.1636514863 0.0959565358 -0.2678280360
-0.2186495089 0.0207220659 -0.4112524867
-0.2087571964 0.0816032207 -0.4045025465
-0.1743164340 0.0988484400 -0.3656105486
-0.2080333347 0.1253474878 -0.4087174106
-0.1813345546 0.0737759099 -0.3662941829
-0.1877188720 0.1036279117 -0.3745404627
-0.1854580327 0.0456167318 -0.4051494464
-0.1704021845 0.0990461629 -0.2412323532
-0.1829745796 0.0548405968 -0.4007912508
-0.1704783762 -0.0167813332 -0.3268650458
-0.1663522015 0.1141365337 -0.3733104682
-0.2078320377 0.0552511641 -0.4164650316
-0.1710906433 0.0926141124 -0.2736898909
-0.1641662807 0.0855073257 -0.3357944269
-0.1634038337 0.0418730373 -0.2830847508
-0.1875778309 0.0486616136 -0.4152933223
-0.2169361335 0.0489040272 -0.4436411879
-0.1630318418 0.1074725259 -0.2850804626
-0.1646089482 0.0854133077 -0.2656042266
-0.1742828209 0.1480672407 -0.3458855335
-0.2162562180 0.0431851671 -0.4300486827
-0.1684536122 0.0490683428 -0.3020734048
-0.1919087606 -0.0061803536 -0.4172369416
-0.1792903381 0.0820292805 -0.4024840633
-0.1635179214 0.1161572486 -0.3296596574
-0.1609574310 0.1000243412 -0.3285859508
-0.1778980606 0.0751546027 -0.2880028988
-0.1935335360 0.0818848097 -0.3992046612
-0.2015934438 0.1329392642 -0.4171974659
-0.1852533681 0.1600995899 -0.3126526363
-0.1796405049 0.1250284561 -0.3796675690
-0.1779346368 -0.0268826987 -0.2688146683
-0.2172804332 0.0373819033 -0.4406508328
-0.1898504093 0.1426820167 -0.3362675262
-0.1795057397 -0.0502457550 -0.2903064063
-0.1785821801 0.0860507154 -0.2809223800
-0.1826182577 0.0817900363 -0.3798942530
-0.1876739366 0.1414105057 -0.4008045228
-0.1407663021 0.1080609263 -0.2987057655
-0.1713438139 0.0654529174 -0.2712625845
-0.1882082083 0.0902227283 -0.4157481104
-0.1863026996 0.0196784826 -0.4211461882
-0.1924424169 0.0139837170 -0.4264237336
-0.1756298306 0.0729924489 -0.3887023752
-0.1703138058 0.0008723676 -0.2509117763
-0.1893423624 0.0755153083 -0.3852321601
-0.1802034817 0.1257935548 -0.3429671933
-0.1574444909 0.0997932801 -0.3126579629
-0.1929691224 0.0601581559 -0.4040612367
-0.1716133043 0.0646645875 -0.2093540355
-0.1853024391 0.0605654614 -0.4061610743
-0.1923527326 0.0474103687 -0.4215956438
-0.1628965892 0.0590217841 -0.3218640641
-0.1950207847 0.0424749436 -0.4373322816
-0.1930310482 0.1594463802 -0.3326379804
-0.1800239867 0.1133859925 -0.3492046408
-0.1951846696 0.0455986641 -0.4037746970
-0.1924476822 0.0983056661 -0.3932113749
-0.1945888889 0.0688691916 -0.3884727838
-0.1777839386 0.1175254023 -0.3256661565
-0.2079061246 0.0215910271 -0.4067928151
-0.1868287018 0.1455017828 -0.3514618384
-0.1857515723 0.0281683337 -0.4065299332
-0.1683410236 -0.0024152162 -0.2798313185
-0.1876435907 0.0976508608 -0.3765046392
-0.1713986269 0.1092920587 -0.3421875445
-0.1835955677 0.1202619246 -0.3872972680
-0.1850146835 0.1268364918 -0.3742226855
-0.1838723551 0.1241254145 -0.3893029609
-0.1718402690 0.1056916685 -0.3857098669
-0.2039040399 0.1106252182 -0.4014904120
-0.1729518912 -0.0523632906 -0.3161292731
-0.1587814552 0.0663654327 -0.3253560654
-0.2037959546 0.0979020149 -0.4103800654
-0.1740459464 0.0796225974 -0.3297267658
-0.1864574354 0.0742034702 -0.3929013879
-0.1995932852 0.0371464532 -0.3969730296
-0.1783712246 0.1507297526 -0.3101926667
-0.1835961115 0.0788112893 -0.2291341098
-0.1810328511 0.1452385093 -0.3855793369
-0.1694254718 0.0032086989 -0.2660845811
-0.1915568754 0.0615757978 -0.4104834256
-0.1949564740 0.0027864617 -0.4160581380
-0.1893988401 0.1283641860 -0.3569890575
-0.1739640736 -0.0383864962 -0.3148321742
-0.1806254557 0.0698065237 -0.3483457126
-0.1821446328 0.1233666422 -0.3595711639
-0.1382415454 0.1055205716 -0.2960163862
-0.1671199044 0.0601615140 -0.2646319374
-0.1875360394 0.1481044918 -0.3490428141
-0.1701078562 -0.0111802247 -0.2709114444
-0.1737957344 0.0292718185 -0.3238010153
-0.1775935202 0.1368376598 -0.3611999909
-0.1849123399 0.0294112444 -0.3949525646
-0.1750642442 0.0767815371 -0.2183731007
-0.1845727318 0.0507585182 -0.3880427115
-0.1761993090 0.1074392138 -0.2421028089
-0.1648118219 0.1209633080 -0.3590292386
-0.1949522048 0.1273517013 -0.4141218066
-0.1624328978 0.0456120865 -0.2716168393
-0.1638705119 0.0954056087 -0.3500324496
-0.1827304644 0.0752596428 -0.3885465048
-0.1987393373 0.1410328810 -0.4089204107
-0.1703426599 0.0630103002 -0.2551824971
-0.1691944776 0.0541639967 -0.3128723139
-0.1798651512 0.1037194921 -0.3733111272
-0.1672302372 0.0388076603 -0.2963386480
-0.1654056593 0.0834610997 -0.3620571490
-0.1993815809 0.0813339313 -0.4068235229
-0.1969928532 0.0172879712 -0.4104694873
-0.1791910550 0.0178416453 -0.3080558676
-0.1686004355 -0.0325018717 -0.2853474943
-0.1693806728 0.0757568812 -0.3348526677
-0.1674217123 -0.0055604563 -0.3099917592
-0.1723535544 0.0539651893 -0.3864176951
-0.1918515677 0.0880329279 -0.3970301503
-0.1638310866 0.0498938888 -0.3515616243
-0.1891439282 0.1463808278 -0.3968636633
-0.1842936123 0.0559999709 -0.4118496078
-0.1667855524 0.1254311490 -0.2665311813
-0.1745662166 0.1151626327 -0.3375359061
-0.1587751369 0.0663025102 -0.3032592416
-0.1830114282 0.1064954176 -0.3725576389
-0.2123552859 0.0072793686 -0.4241405427
-0.2116451859 0.1079621613 -0.4221426249
-0.1745785192 -0.0625025798 -0.3103679240
-0.1825498784 0.1525863027 -0.3141706105
-0.1933074941 0.0601953150 -0.3958091117
-0.1885101795 0.0158068351 -0.4109321386
-0.1838433719 0.0514846532 -0.3396476932
-0.1759127283 0.0547957345 -0.3217305442
-0.1750234635 0.1283520114 -0.3465994566
-0.1667902874 0.0864763774 -0.2720601303
-0.1667741622 0.0704774085 -0.2553858798
-0.1720931395 -0.0561551904 -0.3074686712
-0.1847471637 0.0874496974 -0.2354299535
-0.1857808576 0.1608303799 -0.3900716059
-0.1845981072 0.0958706815 -0.3688722839
-0.1773778001 0.0697207812 -0.3623707914
-0.1962791292 0.1073730363 -0.3969235096
-0.2021051954 0.0447662078 -0.4287960997
-0.1998945177 0.0523745529 -0.4075293541
-0.1662290400 0.0574751812 -0.3450364503
-0.1781369313 -0.0231781812 -0.3235102530
-0.1771651991 -0.0532021883 -0.2975195199
-0.2165025023 0.0173090655 -0.4159160165
-0.2194963731 0.0045075507 -0.4264914365
-0.1875763668 0.0250601201 -0.4184303091
-0.2062152755 0.0628509200 -0.4005424576
-0.1718806498 0.0543517458 -0.3491409829
-0.2044651288 0.0643762211 -0.3983094009
-0.1685329092 0.0892974766 -0.3124002073
-0.1813092326 0.0434872010 -0.3313443216
-0.2135105780 -0.0046522593 -0.4205288820
-0.1794366683 -0.0013516533 -0.2611801692
-0.1767817617 0.0086612868 -0.3143828827
-0.2010563518 0.0326531728 -0.4096180084
-0.1722084227 0.1151793435 -0.3680203897
-0.1696530643 0.0486458026 -0.2850673928
-0.1594426742 0.0225623912 -0.2614220956
-0.2099949681 0.1036501203 -0.4033457400
-0.1656350909 0.0583891438 -0.2917969521
-0.1692596983 0.0677209726 -0.2785082533
-0.1870126903 0.1469194423 -0.3458206000
-0.1755304337 0.1248375245 -0.3364561760
-0.1810290901 0.0910720756 -0.2373022351
-0.1722638690 0.0413685579 -0.3093212498
-0.1636631673 0.0438778079 -0.2633450927
-0.1636215770 0.0239444987 -0.2834390373
-0.2004654043 0.0422445066 -0.4160487712
-0.1883359671 0.1383604894 -0.3894116427
-0.1705109258 0.0610246863 -0.2322109034
-0.1693241051 0.0491872728 -0.3250620654
-0.1896666869 0.0546409297 -0.3947520534
-0.1876902516 0.0376206417 -0.3965352142
-0.1698878908 0.0298578027 -0.3315921504
-0.1637691421 0.0790954719 -0.3523400434
-0.1774153253 0.1257398166 -0.3633369304
-0.1826751240 0.0850898668 -0.3795042091
-0.1804040553 0.0649785626 -0.4092930987
-0.1988157590 0.1365677229 -0.4066824413
-0.1992885163 0.0901050959 -0.3973208039
-0.1614734380 0.0608199758 -0.2876000746
-0.1822739292 0.1402148980 -0.3499455416
-0.1701712347 -0.0170232299 -0.2675864349
-0.1720496588 0.0560345751 -0.2258445844
-0.1903160088 0.0681667490 -0.3990989433
-0.1907185284 0.0213911096 -0.4109746042
-0.2198739462 0.0322444131 -0.4240396696
-0.1748135347 0.1392086596 -0.2690031838
-0.2010397064 0.0991457690 -0.3987895304
-0.1705959877 0.0813743996 -0.3138559813
-0.1770984438 0.0156343399 -0.3064732606
-0.1874163278 0.0632197304 -0.3990445722
-0.1746014833 0.0495908964 -0.3905142191
-0.1805113789 0.0876648603 -0.2691089297
-0.1905311202 0.1265743207 -0.3750682864
-0.1654566109 0.1234200042 -0.3561185288
-0.1753521367 0.0703434394 -0.3005640329
-0.1769872267 0.0339707685 -0.3431292549
-0.1880193767 0.0560191093 -0.4123862513
-0.2083057165 0.0096707894 -0.4194134176
-0.1962465379 0.1323962020 -0.3995511290
-0.1600595247 0.1125985274 -0.2873246848
-0.1660781833 0.1120846876 -0.2930078824
-0.1749047228 0.0627040496 -0.3909341124
-0.1760164523 0.0552311172 -0.3446796142
-0.1832294947 0.0918916796 -0.2565369375
-0.1719493745 0.0589456474 -0.3336807907
-0.1906245047 0.0164579894 -0.4056909243
-0.1712111151 0.0692531013 -0.2652323897
-0.1859292724 0.0159289210 -0.4168468577
-0.1785366397 -0.0381144807 -0.3298195646
-0.1694913633 0.0544146514 -0.2921371697
-0.1702225705 -0.0458827418 -0.2755684384
-0.1892028664 0.1305687897 -0.3638335676
-0.1780251415 0.0665928087 -0.3872243696
-0.2056101944 0.0365154141 -0.4361290382
-0.1788110525 0.0970145626 -0.2210753243
-0.2028780208 0.0713639160 -0.4006117124
-0.2031531386 0.0207566140 -0.4190359774
-0.1811249605 0.0605457342 -0.3261033612
-0.1761244776 0.1159228771 -0.3205314189
-0.1626617081 0.0745016046 -0.3520668456
-0.1709363665 0.0714392390 -0.3825514455
-0.1724806561 0.1046001653 -0.2454195719
-0.1786313354 0.1192937981 -0.3979931455
-0.1709462181 0.1103589982 -0.3254730742
-0.1326930020 0.1033589727 -0.2884699526
-0.1691355730 0.1033647084 -0.3737306504
-0.1661565378 0.1228412710 -0.3342026839
-0.1596451418 0.0344724576 -0.3102615804
-0.2079689056 0.1080742429 -0.4213258823
-0.1650184219 0.0931814159 -0.3465361255
-0.1885626311 0.0865229081 -0.2255378777
-0.1921154112 0.1298180819 -0.4165488482
-0.1708894816 0.0866634353 -0.3790952795
-0.1674287827 -0.0122062560 -0.2715834302
-0.1668878466 0.1098898916 -0.2591846144
-0.1735601297 0.0622418532 -0.2979809389
-0.1963042798 0.0368733214 -0.4181711794
-0.1832906267 0.1505745993 -0.3743944157
-0.1872406402 0.1310195924 -0.4055306318
-0.1884048256 0.1698051725 -0.3080407524
-0.1885675293 0.1012445219 -0.2157866037
-0.1838528398 0.0689370408 -0.4082306291
-0.1302878664 0.1148181982 -0.3036821440
-0.1835072414 0.0755776205 -0.3031503733
-0.1946125953 0.0650441992 -0.4040196186
-0.2103020139 0.0555399262 -0.4381676088
-0.1573801196 0.0575377489 -0.3402853353
-0.1689732077 0.0614572317 -0.2477370779
-0.1797050621 -0.0275335196 -0.3235052049
-0.1877435223 0.1076722764 -0.3911852586
-0.1880772484 0.0859135564 -0.4136251872
-0.1740402097 0.0754468266 -0.2438241028
-0.1875775783 0.0929583535 -0.3885965789
-0.1808589978 0.0214025108 -0.3984829641
-0.1796584185 0.1525917650 -0.3389602188
-0.1955604305 0.1154716462 -0.4086903632
-0.2119206032 0.0114079894 -0.4118183146
-0.1676047061 0.0815624616 -0.3780527075
-0.1658779867 0.0562697357 -0.2318881063
-0.1674019374 -0.0373882298 -0.2849344375
-0.2051699022 0.1213343145 -0.4013727235
-0.1880129529 0.0706323538 -0.3506230053
-0.2152847236 0.0127446544 -0.4084257518
-0.1741983734 0.1136118948 -0.2710008897
-0.1826876023 0.0588277616 -0.4079880312
-0.1716125025 0.0440415766 -0.3067544953
-0.1993016422 0.1125078203 -0.3972582128
-0.1987562850 0.0355010796 -0.4041810483
-0.1902293861 0.0575284585 -0.3997695148
-0.2263720052 0.0105698015 -0.4191323125
-0.2174102110 0.0231263466 -0.4087071042
-0.1670872160 -0.0321104742 -0.2748008933
-0.2177956847 0.0154504043 -0.4239508938
-0.1594593284 0.0669689850 -0.2961326305
-0.1807145334 0.0809355272 -0.3883368935
-0.1808475574 0.0591265323 -0.3071997501
-0.2039301382 0.0693037502 -0.4271365874
-0.2064232503 0.0155287759 -0.4121917389
-0.1705147946 -0.0484368023 -0.3312571933
-0.2081554234 0.1059718914 -0.4180631340
-0.1714092281 -0.0386123923 -0.3262371971
-0.1725945496 0.0893257504 -0.2254964003
-0.2062487780 0.0828611529 -0.4087206721
-0.1576084612 0.0864009941 -0.3419841120
-0.2093275744 -0.0026884314 -0.4209433493
-0.2050223983 0.0384814445 -0.4208952710
-0.2094860532 0.0062229762 -0.4063068867
-0.1977347288 0.0547628591 -0.4027029044
-0.2132488146 0.0336698701 -0.4079816830
-0.2032212440 0.0235605141 -0.4098592988
-0.1655485711 0.0460089691 -0.2386052962
-0.1654576384 0.1022215948 -0.2865174683
-0.1929432005 0.0862294510 -0.4051254392
-0.1693261900 0.0306426800 -0.3269494328
-0.1974188428 0.0275532992 -0.4045248343
-0.1928394205 0.1148443009 -0.3788644741
-0.1872388021 0.0479468428 -0.3981138596
-0.1899189497 0.1190032071 -0.3821422607
-0.2029103975 0.0212151914 -0.4040347754
-0.1646018492 0.1188730432 -0.3350178465
-0.1675172833 0.1080422363 -0.2452413363
-0.1802728825 0.1236995885 -0.3305072694
-0.1645231651 0.0357396087 -0.3320328911
-0.1629376325 0.0367755374 -0.2544273838
-0.1650878775 0.0860664938 -0.3478186219
-0.1833465582 0.0311321443 -0.4196401803
-0.1940109063 0.0236636046 -0.4282299159
-0.1816795758 0.0835823264 -0.2751622294
-0.1697403561 0.1137241337 -0.2515379911
-0.1931001975 0.0879460655 -0.3810700949
-0.1698530492 0.1143053433 -0.3714899149
-0.1803744596 0.1092589410 -0.3929882776
-0.1845435754 0.0452252276 -0.3971126443
-0.1756012607 0.0779596667 -0.3335635370
-0.1745468947 0.1273165441 -0.3534709952
-0.1901481072 0.1317964072 -0.3797430432
-0.2067262911 0.0312213457 -0.4288946325
-0.1773189541 0.0381705157 -0.3895303902
-0.1744932082 0.0693343018 -0.3055936203
-0.1858615365 0.0635846764 -0.3448705618
-0.1836817641 0.0647265802 -0.3426662338
-0.1751894970 0.0604208910 -0.2437188733
-0.1690207204 0.0853943363 -0.3182954729
-0.1849797517 0.0903533325 -0.4015649855
-0.1839395574 0.0178155797 -0.4174957641
-0.1970958119 0.0812656016 -0.4137937850
-0.1671702764 -0.0251415480 -0.2869401307
-0.1668178151 0.1191877307 -0.3106558999
-0.1913061936 0.0914172067 -0.2199921919
-0.1782702643 0.0567472731 -0.3365699380
-0.2039419844 0.0905204254 -0.3928363476
-0.1938896309 0.0459204741 -0.4106124187
-0.1661429228 0.0963997086 -0.2977131017
-0.1750080374 -0.0227153996 -0.2678478886
-0.2276396304 -0.0017239541 -0.4357316494
-0.1873653105 0.1179096149 -0.3867901198
-0.1955791515 -0.0021516865 -0.4153583792
-0.1668453578 0.1299085164 -0.2865546952
-0.2047805786 0.0042294874 -0.4246981442
-0.1719018916 0.0478361871 -0.3293564562
-0.2024571118 0.0542237633 -0.4030606407
-0.1818797356 0.1034825587 -0.3398857279
-0.1896549458 0.1087261889 -0.3730843834
-0.1957467645 0.1110372022 -0.4068537951
-0.1795770944 0.1479188786 -0.3123108434
-0.1835921854 0.1237369701 -0.4098293483
-0.1876796265 0.0461987438 -0.3982323163
-0.1782429479 0.0948505197 -0.3633738721
-0.1632350267 0.0835192420 -0.3444245466
-0.1749773946 0.0949054048 -0.2822505622
-0.1604918263 0.0847616018 -0.3430293048
-0.1613934205 0.0357669251 -0.3049269076
-0.2076995000 -0.0080524376 -0.4234008044
-0.1612630060 0.0887662213 -0.2903657661
-0.1672349011 -0.0496240957 -0.2884642489
-0.1844205558 0.0701551368 -0.3468326371
-0.1843127422 0.1364397227 -0.3880223781
-0.1673456197 0.0578148763 -0.3049181963
-0.2026799200 0.0375368317 -0.4066985577
