-0.1596582472 0.1169569024 -0.3435832769
-0.1633934030 0.0826145378 -0.3267001996
-0.1670568265 0.0628741471 -0.3422171233
-0.1208137849 -0.0356407491 -0.3855116438
0.0278384358 0.0143108466 -0.3537978340
-0.2107708641 0.1177677546 -0.4062885915
-0.1806235155 0.0749896023 -0.3592858397
-0.0101684104 0.0062305228 -0.3159198016
-0.2052148801 0.1182670599 -0.3969021083
-0.0064659573 -0.0587408747 -0.3497402824
-0.1748638424 -0.0413922362 -0.2321831671
0.0074184376 0.0270454995 -0.3668992445
0.0128456607 -0.1108805684 -0.2653240120
-0.0413499737 -0.0699985691 -0.3739728129
-0.0911359297 -0.0163918918 -0.3233376089
0.0337207402 -0.0041614919 -0.3284478326
-0.1813847102 0.0120302162 -0.2651460570
-0.1900272390 0.1467323850 -0.3864011452
-0.0744099147 -0.0538023498 -0.4065770505
-0.1653260048 0.0973925884 -0.3380804278
-0.1868909134 0.1442472486 -0.3316475775
0.1201342335 0.0463893729 -0.3815478786
0.1199838077 0.0505728434 -0.3916286703
-0.1750715933 -0.0372897150 -0.2516214467
-0.0479623174 0.0143858739 -0.3219156350
-0.1818898153 0.1186037208 -0.3850015136
-0.0645941104 -0.0513567733 -0.3969804020
-0.1528747611 0.1004301171 -0.3048386590
0.0274892794 -0.0170793982 -0.3948916092
-0.1823547240 -0.0184918635 -0.1916362867
-0.1933735045 0.0852570303 -0.3890441514
-0.2110186847 0.1054546188 -0.4107603376
0.0196951189 -0.0601057690 -0.3424806681
-0.0678350524 0.0102594587 -0.3060751517
-0.1021597489 -0.0254085435 -0.3614839049
-0.1017960496 -0.0363918261 -0.4093948550
-0.0000449363 -0.0359368995 -0.3318198168
-0.1850737914 0.0720216874 -0.3789785242
0.0324566495 0.0027986263 -0.3753141165
-0.0229644382 -0.1982760849 -0.3320965661
-0.0069970016 0.0241895702 -0.3385139243
-0.0457566475 -0.1198249322 -0.3741098515
-0.1166966114 0.0145806000 -0.3688931968
-0.0397124379 0.0178989124 -0.3145259460
-0.1939754580 0.1304199803 -0.3920610296
-0.1675376725 0.0837971168 -0.3284812832
0.0244482552 -0.0046375469 -0.3126013810
-0.0010737094 -0.0478840880 -0.3696445011
-0.0482892051 -0.0779549391 -0.3705423595
-0.1768518442 0.0689229918 -0.3832069877
-0.2070583552 -0.0116427178 -0.4313251674
-0.0301451829 -0.0302378575 -0.2702136609
-0.1684463308 0.0605036344 -0.2896680089
-0.1886321140 0.1009533112 -0.3925821139
-0.1889774139 0.0219580999 -0.4078067713
-0.1889383326 0.1003596885 -0.3950354681
-0.1931760162 0.0957977027 -0.4054848999
-0.1825140786 0.1269971708 -0.3799731232
0.0096817495 -0.1505631902 -0.3545899166
0.0674324128 0.0009807137 -0.4061150425
-0.0179230198 -0.0126464570 -0.3106516600
-0.1750895272 0.1267377408 -0.3135300989
-0.1731438247 0.0234467392 -0.3124856968
-0.0035294045 -0.0110157829 -0.3337182033
-0.1765390583 0.0691780331 -0.3444814424
-0.0668248841 -0.0732953596 -0.4014572858
-0.1415321208 0.1169364033 -0.3157558772
-0.1814872507 0.0840284862 -0.3394480337
0.0003240363 -0.0312407313 -0.3263252550
-0.1055358448 -0.0300138432 -0.3394765163
-0.1780682578 0.1151156815 -0.2352812166
-0.1731538295 -0.0077388368 -0.3121404340
-0.1929179843 0.0931649858 -0.3861271436
-0.0949972569 -0.0432665275 -0.3405016346
-0.1791995089 0.0279673117 -0.3110220499
-0.1972063775 0.0418604975 -0.3975951765
-0.2031562775 0.0498832837 -0.4088015556
-0.0876893815 0.0226988279 -0.3470536872
-0.1839568476 0.0889457119 -0.3508688118
-0.1977198712 0.0443466439 -0.3975687110
-0.1878071042 0.1118163991 -0.3928216992
0.0140177719 -0.0541008924 -0.3419388104
-0.1632824683 0.1235837096 -0.3270821029
-0.1502149196 0.1229779395 -0.3150220886
-0.1281421601 -0.0020337629 -0.3456759538
-0.1755618392 0.0792027996 -0.2777007461
-0.0374068215 0.0218892621 -0.3251481939
0.0185667491 -0.0306640395 -0.2009673451
-0.1144476148 -0.0204205414 -0.3676106965
0.0302268569 -0.0276121588 -0.2374781744
-0.1758435232 0.0918152055 -0.3364815252
-0.1925221050 0.0259005824 -0.4019005206
-0.1886523171 0.0147334501 -0.4203647865
-0.1074291882 -0.0141347268 -0.3136221296
-0.1284571455 -0.0175242916 -0.3552423011
-0.1011737990 -0.0444242793 -0.3242127436
-0.0093480729 -0.0098674660 -0.3799825020
-0.0071276887 -0.1785244077 -0.3358600396
0.0025881094 0.0216174101 -0.3321723879
-0.0727639531 0.0263617521 -0.3412003010
0.0332050737 -0.0828745202 -0.5711446806
-0.0528264005 -0.0519663899 -0.3475355813
-0.0681314718 0.0000271379 -0.3052829364
0.0119276318 -0.0409946234 -0.4211146096
-0.0566244339 -0.0710544331 -0.3802962242
-0.1230411041 0.1063336051 -0.2892046348
-0.2050221172 0.0672395717 -0.4016864204
-0.1122224310 -0.0703390233 -0.3934674655
-0.0653854474 -0.0399345571 -0.3440428838
-0.0930021304 -0.0364412803 -0.3225883787
0.0156402448 -0.0480633510 -0.3236836084
-0.1822200006 0.0588362470 -0.3494488370
-0.1963042509 0.0120227482 -0.4186584759
-0.1849693059 0.1281030279 -0.4010480825
0.0037773572 -0.1086415052 -0.5981225760
-0.0745621669 -0.0153602638 -0.3076098948
0.0146574566 0.0033846399 -0.3186807811
-0.1667618242 0.1279920604 -0.3498744762
-0.1950515505 -0.0021628218 -0.4206463817
-0.1761445392 0.0455090267 -0.3966817136
-0.1713398625 0.1255009443 -0.3597728336
-0.1839809176 0.1381487514 -0.3959432624
-0.1853911294 0.0152572857 -0.2506009135
-0.1647890799 0.0696123746 -0.2641588193
-0.0795363593 -0.0607070632 -0.3780074120
-0.1915581868 0.1387362817 -0.3965280972
-0.1054537013 -0.0293072266 -0.3332476825
0.0270894083 0.0076897333 -0.3679848849
-0.1513639612 0.1155410393 -0.3143738712
0.0220817832 0.0156135932 -0.3609851448
-0.1899492712 0.1124382440 -0.3815230425
-0.0750303618 -0.0051367933 -0.2935826903
0.0168803339 -0.0578048457 -0.3378552659
-0.1931593786 0.1505190314 -0.3356866544
-0.1831157515 0.0754709305 -0.2752793002
0.0226320675 0.0027261120 -0.3183481755
-0.1940816498 0.1566895956 -0.3812301840
-0.0683326813 -0.0413600904 -0.3270299791
-0.1212043633 0.0054457041 -0.3491247383
-0.1092847658 -0.0804348701 -0.3791805559
-0.1858330544 -0.0578788067 -0.2844920538
-0.0089706240 -0.0348166606 -0.3240920794
0.0035413647 0.0223787521 -0.3688903009
-0.0484205453 -0.0382790554 -0.3351959569
-0.1697431122 0.1069490666 -0.3546826973
-0.1784724411 0.0869071413 -0.2391319347
0.0361741582 -0.0011833203 -0.3402618558
-0.0252422288 -0.0577683486 -0.3483463698
-0.0980280905 -0.0935105859 -0.3885372536
0.0106024737 -0.1496262277 -0.3220128857
-0.0137322699 -0.1728113652 -0.3401246113
-0.0672220922 -0.0345990746 -0.3628159910
-0.1715112764 -0.0584423975 -0.2561977392
-0.1828213976 0.0089379048 -0.4069596959
-0.2048885184 0.0188485711 -0.4263947903
-0.0775486881 -0.0842614489 -0.3255342628
-0.1878241813 0.0452161168 -0.3954736180
-0.1975814862 -0.0043486963 -0.4206833004
0.0295913935 -0.0190813055 -0.2260345705
-0.1796723889 0.1160779701 -0.2781912863
0.0047834696 -0.0367221426 -0.3255530851
-0.0802353011 -0.1596823405 -0.3244827217
-0.0494167529 0.0253661601 -0.3750092891
-0.0365374653 -0.0333771176 -0.3271810205
-0.0146472928 -0.0431522703 -0.3526552514
-0.2111949479 0.0207981677 -0.4171981649
-0.1752807328 0.0635880669 -0.2231784331
0.0170491136 -0.1153751052 -0.2589391288
-0.1657833060 0.0433039733 -0.2743611954
0.0031979303 -0.1544214086 -0.2969066438
-0.2029557367 0.0245201478 -0.4066702265
-0.0133612499 -0.0433284581 -0.3469851899
-0.1722413819 0.0930373172 -0.3572351502
-0.0079070602 -0.0365674551 -0.3298140177
-0.0024718599 -0.1763651651 -0.3966144135
-0.1621739231 0.1100062220 -0.2882907950
-0.0416752745 0.0175347970 -0.3005697674
-0.1203513764 0.0003218728 -0.3430092267
-0.1752685260 -0.0149041439 -0.3181647964
-0.1815787488 0.1580867188 -0.3803474252
0.0719735626 0.0170854120 -0.4033079646
-0.0152878715 -0.0017441833 -0.4004375233
-0.0254853540 0.0051178730 -0.3087429584
-0.0837116163 0.0359498573 -0.3575134781
-0.0253462861 -0.0473111549 -0.2920870674
-0.2083446161 0.0403906430 -0.4434165582
-0.1790754957 0.1425665836 -0.3450250800
-0.0707650701 0.0260007800 -0.3653423796
-0.1651810818 0.1385456443 -0.3566340280
-0.1711508513 0.0815172790 -0.2960153457
-0.1977645573 -0.0050975069 -0.4159461607
-0.1954222155 0.0386403378 -0.4375897298
-0.1632063289 0.1091051666 -0.2561829497
-0.0579735985 -0.0230332774 -0.3062688556
-0.1836473087 0.0254185991 -0.4222852254
-0.0724551981 -0.0747697646 -0.4004796738
-0.0248927099 -0.0342174622 -0.3551557292
0.0258504790 -0.0215141756 -0.2118073079
-0.0266693821 -0.0249050474 -0.4124035859
-0.0903348928 -0.0094741320 -0.3058536772
0.0311700173 -0.0363401134 -0.3938468926
-0.1945692775 0.0240183566 -0.4021500912
0.0239246040 -0.0799635011 -0.3908141079
-0.1796903461 0.1027395763 -0.4006730914
-0.0132392916 -0.0252108389 -0.3139530254
-0.1804859564 0.0838054465 -0.3269681189
-0.1083728935 0.0000444241 -0.3287611313
0.0238958532 -0.0530796620 -0.3291902567
-0.0027575377 -0.0147034026 -0.3135702887
-0.0608505886 -0.0871921809 -0.3250664482
0.0320780977 -0.0333101457 -0.3224313563
-0.0396251208 -0.0333784080 -0.2776333822
-0.0545531163 -0.0722605290 -0.3890109706
0.0028723615 -0.1562258486 -0.3377519591
-0.0748162694 -0.0929143867 -0.3926190129
-0.1663087793 0.1281957425 -0.2892618551
-0.0258709498 -0.0468850817 -0.4226761646
-0.0180422333 -0.0182246369 -0.4113184703
-0.0820776750 -0.0265333024 -0.3135437850
-0.0406971093 0.0116936694 -0.3167610217
-0.2001757685 0.0593238048 -0.4270657158
-0.0033341730 0.0235276516 -0.3561728114
-0.1908967821 0.0827556776 -0.3961407701
-0.2194216623 0.0042118877 -0.4212045458
-0.0174669123 0.0173047806 -0.3160413066
-0.1766047447 0.1178670901 -0.3831016154
-0.0609891937 -0.0919116146 -0.3306617124
-0.0629385300 -0.0038954521 -0.3045356870
-0.0085369846 -0.1894779323 -0.3565829859
-0.2002256342 0.0439172467 -0.4429638149
-0.2031701384 0.0816367253 -0.4037825255
-0.1129452369 -0.0422407653 -0.3603369463
-0.0487450007 -0.0174425580 -0.3073010892
-0.2110537483 0.0396115240 -0.4057999355
-0.1753495711 -0.0388700713 -0.3033856569
-0.0366623319 -0.0368379098 -0.3315555021
-0.0118450835 -0.0853142027 -0.3278326371
-0.1763719139 0.0654073602 -0.2981380387
-0.0575406599 -0.1343830007 -0.3525308040
-0.0841084856 -0.0924438497 -0.3919165489
0.1128936801 0.0476676834 -0.3724448604
-0.0887903795 -0.0152852014 -0.3076579273
-0.1828594398 0.0481712800 -0.3982981631
-0.2010247493 0.0244720101 -0.3999191307
-0.0026122678 -0.0800560967 -0.3418564859
0.0275712018 -0.0020877937 -0.3911793419
-0.0402307751 -0.0621597323 -0.3677066884
-0.1844565625 -0.0535080584 -0.2952959930
-0.0251385607 0.0316535048 -0.3641265035
-0.1778455880 0.0384192981 -0.3061360075
0.0155208092 -0.0663806619 -0.6172029516
-0.1717703980 0.1142525177 -0.3499728898
-0.1697687649 0.0715142791 -0.2969687614
0.0243556360 -0.0142481537 -0.2243357524
-0.0537497833 -0.1391190860 -0.3600906063
-0.1648335152 0.0387990788 -0.2878698441
0.0023742089 -0.1039843573 -0.5440967726
-0.1632510049 -0.0457665142 -0.2893922508
-0.2100310184 0.0269525637 -0.4040750292
-0.1875394706 0.1403790424 -0.3786990715
0.0094737340 0.0033249120 -0.3156892444
-0.1725644091 0.0454473617 -0.3933299989
-0.0568387098 -0.0421327529 -0.3274026784
0.0034172957 -0.0808757047 -0.3891676665
-0.0848277919 0.0302192774 -0.3493581563
-0.0413525351 -0.0822398165 -0.3209136036
-0.0364558868 0.0093176803 -0.3101773392
0.0078070943 -0.1479695675 -0.3219757994
-0.0380342032 -0.0295228797 -0.3118123313
-0.0041064662 -0.1146584147 -0.5483290097
-0.1856035325 0.1025800900 -0.3786521454
-0.1809003206 0.1158105504 -0.2404489874
-0.0702353132 -0.0589011429 -0.3485786979
-0.0095109177 0.0157728824 -0.2985350032
-0.0517883619 -0.0074396455 -0.3183207344
-0.0993794858 0.0244488707 -0.3396424563
-0.1806237372 0.0621839312 -0.3600524398
-0.0967755690 0.0102217877 -0.3295047581
-0.1642377138 0.0626440468 -0.2431464098
-0.1856066590 0.1251249865 -0.2417428356
-0.0350097455 -0.0627846867 -0.3479506075
-0.1690723458 0.0929416550 -0.2896048985
-0.1746843493 0.0966453378 -0.3760019198
-0.1783971875 0.0937843574 -0.3603648743
-0.0643277043 0.0111861202 -0.3106430279
0.0096702244 0.0153315021 -0.3438456804
-0.0053109601 -0.1821568096 -0.4213885403
-0.0433225571 0.0208604890 -0.3412824464
0.0279046216 -0.0584737481 -0.2328550324
0.0450481712 -0.0260566117 -0.6050728864
-0.1811417096 0.1031802195 -0.3577227011
-0.0075913295 -0.1690220078 -0.4777443087
-0.1043216493 -0.0369327942 -0.3368053135
-0.0578626473 -0.0481593804 -0.3539161561
-0.1703265080 0.0757075842 -0.3269688732
-0.0183287002 -0.0586182065 -0.3521636724
-0.0032793692 -0.1577486861 -0.3037214680
0.0088260280 -0.1494642289 -0.3308443045
-0.0885204903 -0.0987664704 -0.3306900453
0.0070099938 -0.0609296663 -0.3523410829
-0.1640052914 0.0840405674 -0.3138584340
-0.0086476887 0.0163900051 -0.3401564956
-0.1837981961 0.1413967012 -0.2961164782
-0.1603039371 0.1304675810 -0.3291730212
-0.1835081085 -0.0308355395 -0.3320741825
0.0052023383 -0.0763808680 -0.3088015620
0.0306621192 -0.0495019280 -0.3498298722
-0.1877478005 0.1390599648 -0.3747350163
-0.1612336235 0.0240388119 -0.2717655659
0.0148078134 -0.0499147185 -0.3079704764
0.0086504748 -0.0155807728 -0.4027238447
-0.1157383091 -0.0043518282 -0.3251604164
-0.1740632950 0.0537981899 -0.3831093134
-0.0325544248 -0.0741210985 -0.3663295786
-0.1673078968 -0.0073597237 -0.2799908738
-0.0014819486 -0.0811933169 -0.3702425306
-0.1713923395 0.0407333735 -0.2481624182
-0.0697665281 -0.0287718560 -0.3235389497
-0.1949371433 0.1174591119 -0.3770495860
-0.1807702291 0.0810812093 -0.2570040996
0.0513022516 -0.0098488647 -0.3492831432
-0.1014291038 -0.0577717157 -0.3624340885
-0.0318527848 0.0254002129 -0.3754231158
0.1040488470 -0.0092158080 -0.3307030447
-0.0322117895 -0.0182908385 -0.4121105280
-0.1702017057 0.0036661910 -0.2522091315
-0.0722730864 -0.1219182996 -0.3710111653
-0.1837875595 0.0335161003 -0.3133277609
-0.1694509107 -0.0421651505 -0.2730743444
-0.1737962780 -0.0630379324 -0.2388600515
0.0276276035 -0.0594045613 -0.2448911267
-0.1959813744 -0.0450587740 -0.3497572378
-0.0251805047 0.0210145917 -0.3426261690
-0.2004852065 0.1446805093 -0.3779362398
-0.1795288376 0.0968943154 -0.3429570420
-0.1765975597 0.0206436077 -0.3264417686
-0.0756048551 0.0300274147 -0.3439833857
-0.1813710726 0.0656027676 -0.4031184907
0.0394507590 -0.0075518084 -0.3451876346
0.0144901688 -0.0768025898 -0.3815676099
-0.0143366764 -0.0484808392 -0.3565432367
-0.0477503300 0.0230249656 -0.3435278253
-0.1783322072 0.0800432466 -0.3713343350
-0.0623592331 -0.0082285625 -0.4099011932
-0.0716222674 -0.0376611643 -0.3667452841
0.0154677544 -0.1538032165 -0.3464559547
-0.1187651545 -0.0344061822 -0.3549972783
-0.0809657139 -0.1731741174 -0.3324716245
-0.0084851479 -0.0476717243 -0.3755678275
-0.1828246894 0.0949648514 -0.2494305472
-0.1870484799 0.0599914864 -0.3971604407
-0.0883818310 -0.1046321388 -0.3810325263
-0.1250752481 0.1054988800 -0.2890103853
-0.1783769303 0.0513630872 -0.3823943368
-0.1968013190 0.0838199386 -0.3899314294
-0.1760611164 0.1610418073 -0.3039508074
-0.0205975438 -0.0911718520 -0.3207925067
-0.0281435695 0.0149682244 -0.3288819849
-0.1803390164 0.0638346365 -0.4175293074
-0.0752158275 -0.0692078376 -0.3687104403
-0.0940497171 0.0269126125 -0.3564992444
-0.1606272663 0.1239004138 -0.3285432040
0.0171084464 -0.0836910437 -0.6060369623
0.0455385247 -0.0525584787 -0.4074942607
-0.1713826061 0.0047890073 -0.3194047605
-0.1705343898 0.0049389244 -0.3034281431
-0.1213822479 0.0025059502 -0.3460489231
0.1031272141 -0.0052896432 -0.3368655634
-0.1808839513 0.0276984003 -0.4130096001
-0.0627398724 -0.0703333311 -0.4022681081
-0.1670157175 0.0433207859 -0.3183694697
-0.1914827099 0.1317230774 -0.3928462598
-0.0579030136 -0.0235325552 -0.3733282618
-0.1676978009 0.0686052250 -0.3782122325
-0.1677052459 0.1365683776 -0.2799097697
-0.0012951675 -0.1078858307 -0.5498037919
-0.1724822571 0.0989440467 -0.3519290216
-0.1529928526 0.1163641511 -0.3248867530
-0.0341839675 -0.0474393933 -0.3165785059
-0.1959391435 0.0666214314 -0.4334685766
-0.1651344113 0.0910253381 -0.3096569017
-0.1835966472 0.1050574361 -0.2346673484
-0.1801893534 0.0461378576 -0.3085960139
-0.0217123656 -0.0447649515 -0.3618948953
-0.2011447252 0.0265102196 -0.4097241725
-0.0573196074 -0.2021040176 -0.3023337544
-0.0027309427 -0.1583472161 -0.3372924619
-0.1751717959 0.1257791600 -0.3315563847
-0.1912040494 -0.0388036850 -0.2707799171
-0.0770281291 -0.1055925624 -0.3268662146
-0.1147275030 -0.0320577089 -0.3674975804
-0.1899571751 0.0967411766 -0.4008393471
-0.0254130656 -0.0198413962 -0.4090642662
-0.1603986399 0.0474478725 -0.2779086589
-0.0872321021 -0.0702362902 -0.3670704602
-0.1853289879 -0.0582504736 -0.3648905210
-0.1613599314 0.0377545043 -0.2720990722
-0.0389453076 -0.0433273260 -0.2845940967
-0.1991072017 0.0481902912 -0.4214102308
-0.0538566542 -0.0766256389 -0.3942735814
-0.0304238432 0.0120431220 -0.3244777290
-0.0929559913 -0.0687808924 -0.4033392789
0.0190677379 -0.1020438777 -0.2573644958
-0.1156580806 -0.0254130034 -0.3324719718
-0.0254106762 -0.0649625736 -0.3538472602
-0.2009601797 0.0128242185 -0.4229771924
0.0173113456 0.0151771762 -0.3167137635
-0.1901228830 0.1042021692 -0.2470749660
-0.1234578660 0.0028773015 -0.3433878997
-0.1792142483 0.0048345142 -0.2011218643
-0.0597022517 -0.0650209343 -0.3757905154
-0.1854680628 0.0374388658 -0.3997648060
0.0436097947 -0.0416289577 -0.2586810528
-0.1723307432 0.0236149253 -0.3027994419
-0.1823101306 0.0174364837 -0.2632169663
-0.0480403895 -0.0504282035 -0.3536626253
-0.0414106235 -0.0325380965 -0.2888684112
-0.1175665361 0.0122681706 -0.3690516694
-0.0582393881 -0.1401874038 -0.3579508535
-0.0525084398 -0.0717793924 -0.3757412739
-0.1788844543 -0.0172067236 -0.2084045704
-0.0427307971 0.0296737766 -0.3565681875
-0.0951206679 0.0318938330 -0.3572680650
0.0364328183 -0.0362082341 -0.2521534707
-0.0976654195 -0.0598502319 -0.3548538751
-0.1754771527 0.0998909908 -0.2824572364
0.0261189499 -0.0773905597 -0.3651511622
-0.1694803655 -0.0462357321 -0.2662400449
-0.1813489229 0.0720880169 -0.2679021923
-0.0035393632 0.0213393985 -0.3646798777
-0.1764735526 0.0829334101 -0.2461378040
-0.2019785124 0.0798273807 -0.3974704728
0.0241761561 0.0124944830 -0.3579775095
-0.0182540077 -0.1789479012 -0.3205353743
0.0156508870 0.0066830410 -0.3188604512
-0.2026222576 0.0494820502 -0.4268375223
-0.1777358054 0.0602225351 -0.3891109261
-0.1963900030 0.0505976640 -0.4042980373
0.0016464844 -0.1653661301 -0.3168709787
0.0088881815 -0.0493807200 -0.3105118917
-0.1948069060 0.1484702028 -0.3536937005
-0.1854641228 0.0032128955 -0.2454281974
0.0176221873 -0.0554024401 -0.3330491030
-0.0137989429 -0.1738896991 -0.4868322706
-0.0708119266 -0.0522285947 -0.3537488302
-0.1936096443 -0.0744383251 -0.3084900913
-0.0154439682 -0.0051119034 -0.3100738469
-0.0874075051 -0.0275047856 -0.3057755514
-0.1954385340 0.1361922622 -0.4191151261
0.0278439440 -0.0148230533 -0.2355883601
-0.1061350076 -0.0234907488 -0.3444610248
-0.0479861026 -0.0467826790 -0.3366729600
-0.1612149941 0.0418427882 -0.2623206789
-0.2101940483 -0.0008481143 -0.4136686720
-0.0526545272 -0.0773550454 -0.3337746759
0.0040680626 -0.0613391520 -0.3538457123
-0.0737860232 -0.1091436164 -0.3800273736
-0.1674385979 0.1219122287 -0.3091731210
-0.0451915236 -0.0898302889 -0.3819348611
-0.0592288820 -0.0450461589 -0.3259901150
0.0119713405 -0.0147723590 -0.3177067563
-0.1795509651 0.0693227571 -0.3930781466
0.0028851855 -0.0649213301 -0.3480407162
0.0018888328 -0.0308755111 -0.4171168953
0.0229221847 -0.0152194309 -0.2101326510
-0.1753262963 0.0527159020 -0.3866927866
-0.0818690883 -0.0397536621 -0.3544738079
-0.0007873160 -0.1818520889 -0.3776181141
-0.1628638706 0.0851214812 -0.2735020717
-0.1854004352 0.1297274114 -0.3564112338
-0.0814906081 -0.0621913499 -0.3804652694
-0.0342695453 -0.0907512674 -0.3888781104
-0.1848774482 0.0906985650 -0.2334303403
0.0500264693 -0.0095612957 -0.3445384987
-0.0355258419 -0.0269400098 -0.3107966789
0.0185309837 -0.1176252995 -0.2612387608
0.0258490263 -0.0501466367 -0.2265067115
-0.2089941380 0.0160387162 -0.4205288333
-0.0591084420 -0.0173601856 -0.3677790667
0.0056948645 0.0186467447 -0.3380795561
-0.1680585306 0.0833773114 -0.2730480759
-0.0463107096 -0.0534673983 -0.3467791673
-0.1755072623 0.0606981578 -0.3882389069
-0.0070678453 -0.1648174528 -0.2932267796
-0.0411567159 0.0289420281 -0.3595034872
-0.1828393739 0.1518837041 -0.3220011013
-0.1933155845 -0.0082698350 -0.4140144298
-0.0445455331 0.0216098843 -0.4185208153
-0.0078609950 -0.0200642367 -0.3758526409
-0.1957452771 0.0247592345 -0.4346797743
-0.1803959137 0.1301157131 -0.3991251675
-0.1036335574 -0.0815727431 -0.3964606521
0.1251792425 0.0573532300 -0.3746724680
-0.1767571873 0.0247067027 -0.2963921378
-0.0759251844 -0.0219067464 -0.3070245116
-0.0657269250 -0.0156270489 -0.3721760423
-0.0864358768 0.0168154147 -0.3405069709
0.0186951667 -0.0489510252 -0.2062722924
0.0150159183 0.0144524453 -0.3391528787
-0.1880399883 0.0919735655 -0.4019175172
-0.1811863098 0.0781926933 -0.3905917117
0.0101461555 -0.1616412718 -0.3274611155
-0.1960471201 0.1606430872 -0.3912499681
-0.0114773742 -0.1753230135 -0.3120135659
-0.0195103030 0.0403981758 -0.3736797580
-0.1178919526 -0.0019481049 -0.3413019535
-0.1722294264 -0.0217320605 -0.3195826697
-0.0697041153 -0.0847904909 -0.3307732455
-0.1702155628 0.0858987268 -0.3346869636
-0.1907028106 0.0868626274 -0.3797474536
0.0036670480 -0.1421936728 -0.2683271884
-0.1307274585 0.1129873264 -0.3015595257
-0.0356273540 0.0186882359 -0.3220832605
-0.1929978113 -0.0044894144 -0.4077292522
-0.1654355491 0.1073817727 -0.2543411629
-0.0943899155 -0.0634637036 -0.4038450720
-0.1691659179 0.1403885548 -0.2682676670
-0.0703621621 -0.0049689108 -0.3056389383
-0.1799235278 0.0262015634 -0.3311819706
-0.1710030935 0.0579141073 -0.2630164704
-0.1586844310 0.0989888816 -0.2569628187
-0.0160797638 0.0240001307 -0.3628862109
-0.0490867640 -0.0503505437 -0.3576098589
0.0325429072 -0.0511336952 -0.2263096009
-0.1153230119 -0.0435753417 -0.3752073768
-0.2121511917 0.1306623746 -0.4051107433
-0.1208720621 -0.0216552340 -0.3896001552
-0.0127743030 0.0249786820 -0.3559519903
-0.1702319618 0.0434559822 -0.3275311576
-0.0304195615 -0.0423437713 -0.3287549521
-0.1725642230 -0.0388718763 -0.3094731286
-0.1964873302 0.0128942614 -0.4113021929
-0.1643125202 0.0491508791 -0.3192335550
-0.1846889803 -0.0723004858 -0.2964066919
-0.1186465079 -0.0207455982 -0.3321855791
-0.0277532534 -0.0286416611 -0.2660857592
-0.2087917298 0.0241322241 -0.4197271249
-0.1701251542 0.0262868052 -0.3319894668
-0.0650590715 -0.0410865901 -0.3279262698
-0.0529978275 -0.0297561474 -0.3091445565
-0.1777055646 0.1482196767 -0.3364578310
-0.2096713419 0.0208503467 -0.4186660850
-0.0033245969 -0.0207213037 -0.3670057473
-0.1719209026 0.0754684738 -0.2956264867
-0.1091998681 -0.0203884223 -0.3611853576
0.0138746065 -0.1172373070 -0.2793245960
-0.0576231537 -0.0322760530 -0.3476603737
-0.1859840040 0.1519401798 -0.3520200028
-0.1935701315 0.1202748261 -0.3832894411
-0.1680378455 -0.0255294777 -0.2780891539
0.0095760412 -0.1220952992 -0.2591096309
-0.1145834389 -0.0078621358 -0.3434416273
0.0126357896 -0.0613229172 -0.3297552849
-0.1693872403 0.0932748210 -0.3079532400
-0.0791031138 -0.0307131542 -0.3256771926
-0.0719378262 -0.0388230606 -0.3529798375
-0.0509130098 -0.0381142659 -0.3374767436
-0.1568325964 0.0973149541 -0.3145372840
-0.1990558803 0.0229142606 -0.4128694534
-0.0717886520 -0.0493823148 -0.3942603771
-0.1895855927 0.1086331319 -0.3599239016
-0.0107728448 0.0061017185 -0.3132474795
-0.1680509900 0.1074659566 -0.3017420728
-0.1916147103 0.0104029758 -0.4256121259
-0.0063007568 -0.0716658167 -0.3645712885
-0.0383615056 -0.0743383055 -0.3874531333
-0.1007775423 -0.0043407011 -0.3139763307
-0.2182721645 0.0152873872 -0.4267212749
-0.1724508355 0.1003357184 -0.3465361007
-0.0624546284 0.0284920151 -0.3485618408
0.0219550998 -0.0299577477 -0.3181621322
-0.0150684066 -0.1799675564 -0.4800064053
-0.1244531424 -0.0352455413 -0.3815901605
-0.0527678167 -0.0679894549 -0.4044696289
0.0147641745 -0.0220647501 -0.3192349750
-0.1655868585 0.0707219918 -0.3678356879
-0.2062918097 0.0631043017 -0.4086344838
-0.1777783082 -0.0572773163 -0.3445113138
-0.1774765336 0.0603842683 -0.3975231466
-0.1666687506 0.0567911392 -0.3586996418
0.0089534757 0.0006609087 -0.3944691749
0.0127138861 -0.0722565862 -0.3509547395
-0.2074988332 0.0401523215 -0.4146303757
-0.0402205815 0.0127911114 -0.3233141713
-0.1785967702 0.1263600125 -0.3275837999
0.0227266402 -0.0098804923 -0.2237387049
-0.1340325599 0.1125244452 -0.3051787133
-0.2049971670 0.0734303668 -0.4072166979
-0.1805125966 0.0542297564 -0.3317734686
-0.0000473736 0.0036217224 -0.3131072447
-0.2025533766 0.0600705631 -0.4098045230
-0.0381912132 -0.0732323981 -0.3652769251
0.0443736382 -0.0263712983 -0.5988679488
0.0040845855 -0.0380829359 -0.3657119305
-0.0618359671 0.0208229120 -0.3194817960
-0.1913518804 0.0657317346 -0.3846938498
-0.0166847305 -0.1687493729 -0.2748027483
-0.1896421294 0.1572951696 -0.3742413553
-0.1680626928 0.0705027673 -0.3487128235
-0.0304430208 0.0203587085 -0.3412378884
-0.1853106921 0.0418267076 -0.3266866330
0.0134067972 -0.0493882007 -0.3208362577
-0.0110262138 0.0214548035 -0.3278736144
-0.1547104638 0.0620536824 -0.3238610314
0.0374314093 -0.0071372050 -0.3358093123
-0.1630384237 0.1203794269 -0.3230037062
-0.1768864619 0.1315229459 -0.2671722142
-0.1910660541 -0.0262256262 -0.1867334458
-0.1987090177 0.0852282911 -0.4078382980
0.0114375764 -0.1392304779 -0.3317833191
-0.0338944177 -0.0448617245 -0.3309200114
-0.1808398971 0.0520639114 -0.3379271639
0.0371486808 -0.0120773557 -0.3329292970
-0.0333327367 0.0498177145 -0.3691242684
-0.1758555096 0.0492071302 -0.2944461943
0.0059813851 -0.1651759904 -0.3499984886
-0.1822513652 0.1176608243 -0.2459893646
0.0293785655 -0.0598034080 -0.3656213807
-0.0579106624 -0.0696488963 -0.3757848812
-0.0774067415 0.0137657016 -0.3150431941
-0.1788615610 0.0982850924 -0.3460084891
-0.0456159458 -0.0366736592 -0.3202181319
-0.1875267029 0.0173919620 -0.4094684273
-0.0855060378 -0.0223395281 -0.3035123185
-0.1809089728 0.1277458608 -0.3769609160
-0.0192432423 0.0124965083 -0.3880279975
-0.1836918204 -0.0587018005 -0.2979507952
0.0000258468 -0.0623630546 -0.3531264099
-0.0071118109 -0.1702213036 -0.4926094079
-0.0467772003 -0.0477549029 -0.3084946844
-0.0196968275 -0.0049721454 -0.3979636327
-0.0184760421 0.0542229278 -0.3657614198
0.0056636496 -0.1482227071 -0.3345058661
-0.1747891888 -0.0475587913 -0.3292681746
-0.1842347471 0.1408455629 -0.3346793867
-0.1808262000 -0.0458278252 -0.2286813947
-0.2001349174 0.0470431520 -0.4079694487
-0.1574330219 0.0752413719 -0.3508414095
-0.0752210694 -0.0423877845 -0.3666007586
-0.0754170247 0.0275109203 -0.3384762875
-0.1816381162 0.1111380422 -0.3752218952
-0.1733481362 -0.0148406898 -0.2368073913
-0.1684210888 0.1086163555 -0.3138025633
0.0244735558 -0.1002541662 -0.5695700831
-0.0220229575 -0.0450899102 -0.3045386771
-0.0084277128 -0.0171732332 -0.3119305780
0.0023528203 -0.0527115652 -0.3481652247
-0.0077398874 -0.0203596177 -0.3123006080
-0.0771498101 -0.0303319408 -0.3521811327
-0.1836191616 0.1441397253 -0.3734018559
-0.0204823030 0.0134649949 -0.3259759177
-0.0733917487 0.0253812165 -0.3612898166
-0.1711718532 0.0593352223 -0.3762711364
0.0445584779 -0.0124085634 -0.3557866232
-0.0280983190 -0.0457378310 -0.3625597266
0.0153057730 -0.0031860068 -0.3123025883
-0.2142205034 0.0114642192 -0.4282482476
-0.0668300243 -0.0386127120 -0.3731747228
-0.0128802713 -0.0636763611 -0.3617991828
-0.0320683169 0.0222036723 -0.3644818409
-0.1776605359 0.0930270783 -0.3841935260
-0.0663372868 -0.0659944673 -0.3813366223
-0.1713241130 -0.0303262230 -0.2792044703
-0.1764080007 0.0494426191 -0.1944719711
0.0471350416 -0.0075982436 -0.3685756885
-0.0135628429 0.0145054706 -0.3162721577
-0.1670763025 0.1238705280 -0.3279008435
-0.0705205922 0.0171953342 -0.3209774627
-0.1794902146 0.0605839613 -0.3696576990
-0.1774304956 0.0834755227 -0.3936550617
-0.1836201383 0.0598653785 -0.3828664264
-0.1747009669 -0.0765217794 -0.3327352273
0.0011905204 -0.0328500307 -0.3232197165
-0.1741076940 0.0340404266 -0.2658278315
-0.1060542390 -0.0016122105 -0.3250099421
-0.0289649210 0.0428650424 -0.3727237991
-0.1642790050 0.0793897912 -0.2756590572
0.0225802746 -0.0222964074 -0.2128306231
-0.0618980965 -0.0579493511 -0.4092569387
-0.1190537651 -0.0324109236 -0.3506071033
-0.0161750920 -0.0709356351 -0.3910421260
0.0008787253 -0.1735597767 -0.4237771080
-0.1980680849 0.0210513705 -0.4115164817
-0.1820189430 0.0347379677 -0.3249520046
0.0146995695 -0.1156113725 -0.2728472846
-0.1940683022 0.0986437618 -0.4002394092
-0.1247187637 -0.0156700483 -0.3354249188
0.0262777078 -0.0154985925 -0.2375154616
-0.2038720691 0.1268700584 -0.4058619320
-0.1743767082 0.0467354078 -0.2900155255
0.0243565504 -0.0741747252 -0.2359094662
-0.1829152174 0.0848606560 -0.2702965090
-0.1709958945 0.1184574978 -0.3329608620
0.0374659654 -0.0021501927 -0.3441023529
-0.0223144859 -0.0133319742 -0.4045201265
-0.1987692356 0.0415122423 -0.4258111004
0.0082920309 -0.0575011868 -0.4155380603
-0.2008274857 0.1235651998 -0.3859462520
-0.1717862735 0.0539427970 -0.2739280564
-0.0068408472 -0.1700880411 -0.3558048235
-0.1929082370 0.0951814063 -0.3886663887
-0.2050003951 0.0941741477 -0.4043332022
-0.1947468966 0.1207552701 -0.4166524410
-0.0056774046 -0.0471547036 -0.3000701383
-0.1802650207 0.0860922930 -0.2415122749
-0.0681669674 -0.0220996882 -0.3077305759
-0.1195758604 -0.0126424716 -0.3538671432
-0.1825267981 0.0366936499 -0.3199227277
-0.1773301321 0.0830053198 -0.3841399352
-0.1828058833 0.0852443584 -0.2237942993
-0.1789576358 0.1010867359 -0.3535211941
-0.1713497447 0.1367379361 -0.3143397209
-0.1960354522 0.0325804111 -0.4055439234
-0.0086299323 0.0210978092 -0.3622767821
-0.1648297309 0.0911002526 -0.3680581900
-0.1117659784 -0.0151235301 -0.3390398742
-0.1680110086 0.0192734031 -0.2978300317
-0.0388194785 0.0286260090 -0.3592638967
0.0000683943 -0.0245129748 -0.3716839751
-0.1823687642 -0.0624060900 -0.2965303658
-0.1158336790 -0.0215595083 -0.3293583430
-0.1787837512 0.1012860719 -0.3390617821
-0.1636320034 0.1162510368 -0.3505018176
-0.0516830701 -0.1315500287 -0.3594044155
0.0118295987 -0.0310361400 -0.3169417766
0.0156682719 -0.1366345650 -0.3300352236
-0.1799725796 0.1422735414 -0.3422017902
-0.1722823991 0.0984846891 -0.2553529715
-0.0746005675 -0.0478022745 -0.4027588199
-0.1685797747 0.0645602061 -0.3834539622
0.0323829645 0.0042933887 -0.3414702542
-0.1887560307 0.0307493215 -0.4334706409
-0.1958483871 0.0734529710 -0.4121217346
-0.0459564419 -0.0349062812 -0.3571783810
-0.1771967173 0.0798491796 -0.3796907948
-0.0710741137 -0.1056832974 -0.3145515181
-0.0255552077 -0.0180522967 -0.3126669757
-0.1854785841 0.1241519995 -0.3572833635
-0.1721167602 0.0371097267 -0.2872378577
0.0399744285 -0.0958612478 -0.5302325074
-0.0560272227 -0.0594636020 -0.3696526273
-0.0829992428 -0.0356370380 -0.3541404268
-0.1553274187 0.1240194219 -0.3388794411
0.0791978127 0.0101257802 -0.3914849995
0.0245647895 0.0154402308 -0.3659006862
-0.1116549391 -0.0259368147 -0.3954672826
0.1143845984 0.0359049718 -0.3797956219
-0.0614229728 -0.0154857235 -0.3826719314
0.0124755085 0.0032580188 -0.2082852291
-0.0109425513 0.0301546335 -0.3688302731
-0.0434733641 0.0166164951 -0.3287026633
-0.0158555181 0.0195994239 -0.3405402368
-0.0335828776 0.0170683875 -0.3061616445
-0.0744440102 -0.0778032556 -0.3934622755
0.0992279482 -0.0343015037 -0.3257936900
0.0088833079 0.0153475388 -0.3259330714
-0.0038259548 0.0211088783 -0.3272885111
-0.1737942498 0.0415563580 -0.2037876116
0.0047504836 -0.0548280677 -0.3132682591
-0.1991156216 -0.0370602152 -0.3407187844
-0.1741947585 0.1423252330 -0.2906055838
-0.1724706167 0.1421421402 -0.2866671511
-0.1782287793 0.0915841905 -0.3173033162
-0.1630399096 0.0604696038 -0.3696343138
-0.1642507487 0.0981378732 -0.2882268925
-0.1703210829 0.1191706837 -0.3109874743
-0.1852319861 0.0975291557 -0.2183247448
0.0328335516 -0.0357133768 -0.3625120999
-0.0022438131 -0.0115913129 -0.3206735705
-0.1871830203 0.0341619497 -0.4213797909
-0.1800619144 0.1039404162 -0.3030803373
0.1097439057 0.0391489144 -0.3492425211
-0.0670051644 -0.0589475823 -0.3981542291
-0.1707435542 0.0544189685 -0.2139726437
0.0239249779 -0.0497283963 -0.3104353881
-0.0628729506 -0.1563310611 -0.3283226390
-0.1825699944 0.0019037769 -0.2936201676
-0.0388285199 -0.0898798790 -0.3122487431
-0.0652686129 0.0234924241 -0.3335621331
-0.0797778147 -0.0307046501 -0.3498337139
-0.1664941947 0.0253715320 -0.2658785120
-0.1571137109 0.0576286879 -0.2778079257
-0.1638373377 0.0706730961 -0.2719163147
-0.1836409057 0.0164527868 -0.4053052233
-0.0447589114 -0.0857449607 -0.3701570581
-0.0037996637 -0.1919677289 -0.3726656013
0.0309758451 -0.0237140613 -0.3902848940
-0.0443790491 0.0243877878 -0.3623702359
-0.0003859564 -0.0697499296 -0.3605443739
-0.0305256226 -0.0795829995 -0.3946058468
-0.2154506892 0.0155601194 -0.4250051677
-0.1850844586 0.1494130732 -0.2809653393
-0.1778270849 0.1162384421 -0.2820279610
-0.0702790628 -0.0386441578 -0.3505814749
-0.0981513669 0.0321295114 -0.3600862719
-0.1797232993 0.1307984864 -0.2640659651
0.0018634209 -0.0121470539 -0.3138665110
-0.1677742783 0.0716779813 -0.2621176951
-0.1773320842 0.1316232102 -0.3180442340
-0.0050476467 -0.0289656245 -0.3134036706
-0.0428030555 -0.0297200408 -0.3113876930
-0.0218337582 -0.0464064974 -0.3294474872
0.0772453450 -0.0119012498 -0.4538091047
-0.0712078491 0.0238624626 -0.3157270152
-0.1311614311 0.1105090379 -0.3023599934
-0.2096617669 0.0286431666 -0.4128897786
-0.0527195880 0.0259158995 -0.3513389473
-0.0070921000 -0.1920421899 -0.3549277466
0.0149368109 -0.0834988574 -0.3848113788
-0.1861257857 0.1332666168 -0.4056006266
-0.0041881334 -0.0447320780 -0.4239660239
-0.1745343527 0.1195295318 -0.3809060271
0.0354973264 -0.0114919515 -0.3300512135
-0.1983547658 0.0919717923 -0.4078409821
-0.1067406532 0.0074688218 -0.3278585203
0.0049549001 0.0109904315 -0.3306645006
-0.0531270985 0.0285706324 -0.3532626164
0.0081448937 -0.0197610488 -0.4054494021
-0.1965623200 0.0041223955 -0.4189816415
-0.0200672732 -0.0375404442 -0.3310190663
-0.1051667235 -0.0006780477 -0.3883458066
-0.0509940442 0.0268715080 -0.3488527983
-0.1696884678 -0.0136866838 -0.3227647340
-0.1743734103 0.1272620599 -0.3715183715
-0.1568485440 0.0953972000 -0.2713847800
-0.0893081631 0.0174302796 -0.3151562865
-0.1756263761 0.1291483896 -0.2544029053
0.0137475796 -0.0100589586 -0.3987254379
-0.1642528407 0.1190348170 -0.2748099826
-0.0955390713 -0.0046169640 -0.3081741150
-0.2230614162 0.0238406939 -0.4188294282
-0.1650804829 0.0460569007 -0.3292103731
0.0992150840 -0.1158181449 -0.3385144088
-0.0806065179 0.0265016797 -0.3633833453
0.0060686479 -0.1334215416 -0.2744351630
-0.0747274718 -0.0328368438 -0.3202998714
-0.1844073037 0.1224257019 -0.3792701127
-0.0358551865 0.0219779555 -0.3418981234
-0.0532916011 0.0197625510 -0.3307080919
-0.1692031128 0.1123587092 -0.3338071781
-0.0379410951 -0.0094826280 -0.3103003651
0.0128369562 -0.0900400765 -0.6017087206
-0.0479872835 0.0146074112 -0.2784128717
-0.0426378470 0.0079223305 -0.3108589243
0.0076656638 -0.1543891202 -0.3675217990
0.0134211364 -0.1432640952 -0.3189083544
0.0747648113 0.0185462200 -0.3989380082
-0.1735901247 -0.0289683630 -0.3051165989
0.0218381193 0.0109800068 -0.3384910524
-0.2015863691 0.1320499244 -0.4005675547
-0.0525409303 0.0036186454 -0.3058398192
-0.1985862427 0.1175441669 -0.4036777562
-0.1867826282 0.1413081106 -0.3924670419
-0.0094368179 -0.0482610755 -0.3529219039
-0.2087398232 0.0540972120 -0.4278940261
-0.0932140491 0.0079999648 -0.3111665062
0.0094200022 0.0105605787 -0.3307273783
-0.1817968637 0.0362645723 -0.3983187079
-0.1785811192 0.1385300670 -0.3507986183
-0.1736131865 0.1322463376 -0.2866211107
-0.1805315085 0.1178698615 -0.2663113413
-0.1945967860 0.1517359703 -0.4037244345
-0.0774869525 -0.0628642752 -0.3819673865
-0.2054460645 0.0155797983 -0.4170381129
0.0267011058 -0.0533477473 -0.2159838473
0.0270527613 -0.0489482180 -0.2167267208
-0.0477677818 -0.0368859439 -0.3480085957
-0.1844942459 0.1411057380 -0.3848136126
-0.0889525971 -0.0062458483 -0.2998007796
-0.1713434410 0.0327116518 -0.3124899568
-0.1550491920 0.0729154352 -0.3555338611
0.0133292026 -0.0990752411 -0.2441825873
-0.1961524052 0.0591108760 -0.4133435714
0.0313629341 -0.0578623107 -0.3620799664
-0.0658451902 0.0314081292 -0.3550047552
-0.0285509370 -0.0345925426 -0.3707317743
-0.1545917543 0.0992400287 -0.3124120977
0.0293259960 -0.0020546275 -0.3231498633
-0.0804921272 0.0196905809 -0.3087736893
-0.0067370053 -0.1914602444 -0.3762558816
0.0289095685 -0.0141991709 -0.4007962191
-0.1762241026 -0.0352432282 -0.3160898116
-0.1973285758 0.0967181953 -0.3904033243
-0.0879719313 0.0124208295 -0.3133113371
-0.1967339929 0.0158552284 -0.4037199780
-0.0352587141 0.0025998132 -0.3116980843
-0.1901158813 0.0747866395 -0.3567873592
-0.0139842204 -0.0192636362 -0.3156558218
-0.0352541388 -0.1374817179 -0.3638552181
-0.0211209522 0.0146759430 -0.3151372098
-0.1632471313 0.1023971073 -0.3402100738
-0.1868616045 0.0190318792 -0.2494968834
-0.1930694556 0.1575117157 -0.3899249115
-0.1502749477 0.1245837212 -0.3251103573
0.0202971082 0.0240809023 -0.3686217070
-0.0039844059 -0.0249280972 -0.3597451878
-0.0066657731 -0.0289181954 -0.3493173039
-0.0310529525 -0.0345689691 -0.3181373616
-0.0062152617 -0.1495514950 -0.2686939526
-0.1868553199 0.0714876366 -0.3852521582
-0.0705059328 -0.0182450736 -0.3157446669
-0.1873366199 0.1066321582 -0.3801154014
-0.1919897725 -0.0274250153 -0.3411748076
-0.1733106514 0.0417365771 -0.3337675233
-0.1291743538 0.0017237111 -0.3537805136
-0.1981761605 0.1267963797 -0.4170007408
0.0146135215 -0.1234477064 -0.2953396008
-0.1670451600 0.1162120302 -0.3592011726
-0.2117166858 0.0094719658 -0.4072356472
-0.0487911090 -0.0490455966 -0.4121589882
-0.0149233013 -0.0287768335 -0.3134508860
-0.1640636787 0.0185155426 -0.2628656045
-0.0449161045 0.0164900543 -0.3274627030
-0.1108890319 0.0005228444 -0.3358216123
-0.1805155096 0.1469011090 -0.3585977367
-0.1595696496 0.1182684380 -0.3039032305
-0.1820120192 0.0733453759 -0.4042879892
-0.0701134387 -0.0134847681 -0.4114809051
-0.0447927818 -0.0711546131 -0.3274901933
-0.0601152507 0.0205844197 -0.3282379429
-0.1855424279 0.1005900490 -0.3993060612
0.0092422362 0.0223806661 -0.3560685186
0.0244549150 -0.0159258214 -0.4003553955
-0.1775270337 0.0234903074 -0.3281833069
0.0164205963 -0.0032268800 -0.2185931653
0.0005716039 -0.1878352521 -0.3702560997
-0.0684391190 -0.0323106263 -0.3134657154
-0.0475457813 -0.0702790242 -0.4014760987
-0.1748098799 -0.0081047989 -0.2956062222
-0.0493132364 -0.1670792020 -0.3188834729
-0.1841412343 0.1550343610 -0.3247172986
-0.1854358232 0.0447692893 -0.4105578080
-0.2047260369 0.0368217943 -0.4028636900
-0.1752368684 -0.0394541305 -0.2601690671
-0.1903508306 0.0229666326 -0.4111512005
-0.0009653067 -0.1095703165 -0.5459764669
-0.0780661509 -0.0455165132 -0.3349244772
-0.1700253442 0.0690905251 -0.2878706243
-0.0527797575 -0.0553117574 -0.3548665681
-0.0782785858 -0.0327386301 -0.3136889627
-0.0669911045 -0.0156849430 -0.3580510101
-0.1651097625 -0.0337849521 -0.2853489403
-0.1126328836 -0.0353816780 -0.3343209218
-0.1546511741 0.0196547927 -0.2826618595
-0.1856282783 0.0695878762 -0.3268875695
-0.1704491905 0.0737842917 -0.2273039626
-0.0148073669 -0.1791774830 -0.3535859254
-0.0108344283 -0.0012928892 -0.3320620207
-0.1619629797 0.0959577382 -0.2848484557
0.0187321660 -0.0338902670 -0.2054543559
-0.0670378180 0.0261747090 -0.3430710218
-0.0363533777 -0.1007677561 -0.3341653062
-0.1870520229 0.1513476992 -0.3734141763
-0.2005503430 0.1153686040 -0.4080157319
-0.0823255059 -0.0307047283 -0.3129363327
-0.0540177184 -0.0815499584 -0.3956785026
-0.0008719217 -0.1859158214 -0.3658690842
-0.1956904348 0.0824265931 -0.3938222762
-0.1810187990 0.0205513995 -0.3171340011
-0.0986707454 -0.0637019685 -0.3830742500
0.0087824167 -0.1305590609 -0.2946097831
-0.1603871241 0.0811231395 -0.3627992170
0.0123511904 -0.0301750438 -0.3164938865
-0.1946981989 0.0884594423 -0.3898742533
-0.0014659403 -0.1805355601 -0.3957612982
-0.1721401909 0.0927853376 -0.2820306460
-0.2177429078 0.0142104557 -0.4196316514
-0.1917296177 0.0768390269 -0.3898325104
-0.1740799403 0.0903606164 -0.2966046514
-0.0376256251 -0.0226745016 -0.3126839648
-0.1731709458 -0.0360782063 -0.3187778076
-0.2167572903 0.1341685178 -0.4251369361
-0.0925664467 0.0254141677 -0.3587980762
0.0098899390 -0.0468655431 -0.3357005723
0.0306486706 -0.0678278931 -0.2392180384
0.0290773412 -0.0198439559 -0.2382040448
-0.0674984857 -0.0186698107 -0.3550698162
0.0148607497 -0.0603712192 -0.3591762801
-0.1886365654 0.1451662257 -0.3734077254
0.0254419340 0.0156326881 -0.3689855138
-0.0914852336 -0.0426315471 -0.3326844096
-0.1745894564 -0.0215492623 -0.3350688093
-0.0565299327 -0.0306817242 -0.3297841757
0.0063683749 0.0213665841 -0.3560964763
-0.1803280435 0.1324492496 -0.3141344997
-0.1784219416 0.1109417702 -0.3826450411
-0.0100649934 0.0120785189 -0.3259534752
-0.0101075089 -0.0137869036 -0.3839699814
-0.1624718662 0.0265174998 -0.2363389052
0.0057796063 -0.0572995167 -0.3747661111
0.0016811337 -0.0511665362 -0.4219824336
-0.0692213314 -0.0505055319 -0.4126930665
-0.0511332724 -0.0841580441 -0.3412956350
-0.1874951808 0.0251636227 -0.3975790347
-0.0018891628 -0.0231334136 -0.3661806532
-0.1634829888 0.0673813144 -0.2937563947
-0.0764052348 -0.0701787419 -0.3439165357
-0.1804430188 0.1123391378 -0.2360004589
-0.1125811537 -0.0375361459 -0.3990212676
-0.2043294627 0.0875727494 -0.3966576706
-0.0821776033 0.0065147352 -0.3174303193
-0.1669053487 -0.0470923994 -0.2778422444
-0.1754558088 0.0827786209 -0.3929863924
-0.1006420925 -0.0163632315 -0.3107780442
-0.0025325278 -0.0072463949 -0.3127204180
0.0032305183 -0.0491208955 -0.3309433661
0.0112490577 0.0246777413 -0.3619063046
-0.1876654696 0.0756028029 -0.3702229506
-0.0337154837 -0.0692919722 -0.3989586296
-0.1667164913 0.0013365482 -0.3094744757
-0.0264333013 -0.0608455946 -0.3527772220
-0.0257540953 -0.0594000064 -0.3515761034
-0.0589432929 -0.1859192495 -0.2895439147
-0.0775576756 0.0160881203 -0.3178412882
-0.1833397899 0.1302795880 -0.3493251524
-0.0505983882 0.0003560802 -0.3039873898
-0.1727927807 0.0922374059 -0.3735280577
-0.0230583796 0.0134875557 -0.3283642518
0.0326276429 -0.0550062565 -0.3566449099
-0.1749853122 0.0662553485 -0.3051116867
0.1171928045 0.0430266663 -0.3398308097
-0.1194356849 0.1113073942 -0.2865787740
0.0012658373 -0.1553040022 -0.3634944509
-0.0761082836 -0.0530580845 -0.4105828928
-0.0994935380 -0.0066649662 -0.3927543723
-0.1745655795 -0.0349718694 -0.3131495690
-0.1614614238 0.0769739678 -0.2981140114
-0.1001982119 0.0175258287 -0.3545723562
-0.1730477945 0.0829389593 -0.3811350606
-0.1845537177 0.1561560029 -0.3130470546
-0.2110516000 0.0400587367 -0.4228235403
-0.1758992055 0.0454248699 -0.3117839836
-0.1824800790 0.0654585644 -0.3602088250
-0.1622151869 0.0482824982 -0.3242221122
-0.1709253757 0.0909443047 -0.3344437852
-0.0581527327 -0.0295044004 -0.4212942730
0.0231997724 -0.0761806790 -0.3803013925
-0.1767383245 0.1026641260 -0.2596024256
-0.1771765786 -0.0527649287 -0.2306703496
-0.0323770279 -0.0503558969 -0.3015969141
0.0061817474 -0.0764130724 -0.3127378600
-0.1802453407 0.0970124006 -0.3581929393
-0.1217057884 -0.0191474914 -0.3502702333
-0.0553509276 -0.0152870084 -0.3676327382
0.0297905695 0.0078994761 -0.3716722334
-0.2071103736 0.1503162298 -0.3934968953
-0.2029573756 0.1436279400 -0.3886381667
-0.0079128943 -0.0411177946 -0.3674395530
-0.1775372196 0.1017823684 -0.2904768457
-0.1923646148 0.0680256910 -0.3981774636
-0.1705807056 0.0724721618 -0.2200394671
-0.1799122265 0.0910878954 -0.3655142655
-0.0416857656 -0.0967239500 -0.3483212569
-0.2004551198 0.0054106585 -0.4167715146
-0.1748459977 -0.0145937166 -0.3298505007
-0.0113224676 0.0037482506 -0.3941152434
-0.1709482745 0.0747328127 -0.2619944609
-0.1830875702 0.0163283172 -0.3996002670
-0.1843390348 0.1480032415 -0.3888960366
-0.1246266311 -0.0223863580 -0.3528182802
-0.1810558550 0.0968197006 -0.2456096212
-0.1788163621 0.1151442636 -0.2618994710
0.0100454314 -0.0634162433 -0.3509622625
-0.1531808803 0.0669901197 -0.3087999140
-0.2119214730 0.0471929813 -0.4348293234
-0.1820225078 0.1099109842 -0.3872778418
-0.1816181220 0.0607830996 -0.3227857012
-0.0354167758 -0.0172893250 -0.3118759912
-0.2013623508 0.0369332952 -0.4073801272
0.0258454841 -0.0052806590 -0.3195302598
-0.0501703460 0.0282754666 -0.3534767392
0.0001345189 -0.0534429123 -0.3687571162
0.0141384139 -0.0985531030 -0.2486855317
-0.0105394819 0.0224398562 -0.3529226858
-0.1764744947 0.1455637900 -0.3438253755
-0.0533041345 0.0304515301 -0.3607944227
0.1193849660 0.0614515348 -0.3908747609
-0.0166202215 -0.0209639046 -0.3692674496
0.0370254354 -0.0376434297 -0.5899445750
0.0387555687 -0.0187757278 -0.6261419637
-0.1650481279 0.1160190375 -0.3356508187
-0.0732111853 -0.0256598621 -0.3170271698
-0.1622793277 0.0135945582 -0.3355054479
-0.1750510562 0.0035329600 -0.2876899262
0.0056563984 -0.0581162561 -0.4130876507
-0.1033863202 -0.0044611304 -0.3181100090
-0.0300016852 -0.0481854959 -0.3070512332
-0.0728127532 0.0356373733 -0.3582231428
-0.1831618350 0.0757725936 -0.3782961832
0.0081702579 -0.0600694008 -0.3277979991
-0.1858084895 0.0887771241 -0.2230177759
-0.0676457706 -0.0528124203 -0.4050394303
-0.1803543334 0.0729025782 -0.2718566701
-0.0748031865 0.0051167116 -0.3037308748
0.0581436902 -0.0359795188 -0.5587250383
-0.1736068644 0.0237792759 -0.3252674484
-0.1647061106 0.1007491932 -0.3533700554
-0.0074249202 -0.1977442666 -0.4086701614
-0.1042559004 -0.0293886039 -0.3172322686
-0.0098609291 0.0136905927 -0.3306439966
0.0000482426 -0.0617953285 -0.3487173262
-0.1678098590 0.0344847334 -0.2499000825
-0.1796487136 0.0396471646 -0.3253567556
-0.1896950958 -0.0351864328 -0.2819081250
-0.1733519428 0.0832950042 -0.2561564151
-0.1724877075 0.0803537224 -0.2807178048
-0.1876579927 0.0431910946 -0.3985920638
-0.0904023049 -0.0120569696 -0.3062775636
-0.0422004954 -0.1121841427 -0.3803490075
-0.1794536614 0.0371993902 -0.2952827693
-0.1815892756 0.0302481204 -0.4046354592
-0.0471331280 -0.0470580254 -0.3344496363
-0.1667409288 0.1035224786 -0.3692825933
-0.1691665375 0.1175932025 -0.3711139876
-0.0317328416 0.0146945080 -0.2909629076
-0.1766795792 -0.0309749092 -0.3125244016
-0.1739528344 -0.0072745791 -0.2528146042
-0.1830753957 -0.0860528210 -0.3312369047
-0.1952599571 0.0101447654 -0.4205592389
-0.2223996694 0.0026114663 -0.4310739618
-0.1744574150 0.0661773203 -0.3273522977
-0.1905540041 0.0470820486 -0.3952343553
-0.1974713069 0.1354220028 -0.3795950224
-0.1893344652 0.0482445253 -0.3945145870
0.0118786238 0.0201087837 -0.3468472254
-0.0303095387 -0.0416561949 -0.3262665768
-0.1638222335 0.0867610346 -0.3191452323
-0.0472948663 0.0088884411 -0.3110108674
-0.1963884386 0.1469304852 -0.4022847666
0.0028963197 -0.0536054650 -0.3302914181
-0.2059647252 0.1364749209 -0.4014464634
-0.0529917688 -0.0855681585 -0.3491118451
-0.0125583312 -0.1714975104 -0.5020422525
-0.1841559219 0.1411855122 -0.3956281329
-0.0840348842 -0.0375936316 -0.4129246374
-0.2193980374 0.0339221229 -0.4383045992
-0.1692681033 0.0515384417 -0.2906169865
-0.1254186430 0.1110196668 -0.2943306625
0.0019929175 0.0296403245 -0.3709513067
-0.0108326943 -0.0275373689 -0.3226108197
-0.1685631822 -0.0103250417 -0.3052237877
-0.1958760172 0.1087370515 -0.4142239392
-0.1609266844 0.0700902234 -0.3145246480
-0.1664635775 0.0783663180 -0.3380514918
-0.1709864403 0.0873629985 -0.3845432454
-0.0373130828 0.0297545390 -0.3667708599
-0.0427118981 -0.0501053611 -0.3264272984
-0.1646330752 0.1165979604 -0.3223888601
-0.0630521525 0.0261809529 -0.3539241691
-0.0682951781 0.0227825164 -0.3160637613
-0.1621597118 0.1031747510 -0.3592471773
-0.1140527216 -0.0189958789 -0.3215265347
-0.1908533545 0.1006464425 -0.3917878343
-0.1878372875 0.1183420235 -0.3980499932
-0.0513866734 -0.0343465522 -0.3403163491
0.0323838835 -0.0167010661 -0.3258243226
-0.1341433314 0.0020832660 -0.3463350677
-0.0381107486 0.0027419539 -0.3065107492
-0.0781737403 -0.1144319508 -0.3136374400
-0.1802134545 0.0782468643 -0.2639133988
-0.0150504273 -0.0259372026 -0.3755067560
-0.0015600793 -0.1612853232 -0.3712948401
