-0.2170096194 -0.0366729746 -0.4066678435
-0.2243299588 0.0172316487 -0.4401299802
-0.2149684918 0.0159554102 -0.4280552861
-0.2151651268 -0.0144522845 -0.4163578787
-0.2479799358 0.0171087321 -0.4141534179
-0.1909403367 0.0051605927 -0.4315260623
-0.2005376458 -0.0315468647 -0.4177619175
-0.2029825754 0.0176773389 -0.4411468117
-0.1824604917 0.0079849445 -0.4362277783
-0.2241262532 0.0152108485 -0.4186622463
-0.1755727197 -0.0047555209 -0.4361003802
-0.2146056484 -0.0098377302 -0.4180439427
-0.2402422663 -0.0041355825 -0.4010469160
-0.2180356925 0.0122750047 -0.4192361620
-0.2102436871 0.0001121967 -0.4229845812
-0.1721269150 -0.0083635971 -0.4410367370
-0.2350570526 -0.0186717162 -0.3966061403
-0.1776148764 -0.0649679271 -0.4192615192
-0.2327748935 0.0002286510 -0.4084514373
-0.1921094265 -0.0171309721 -0.4248224771
-0.2472461619 0.0052154286 -0.3984280723
-0.1860533741 0.0231113172 -0.4380810047
-0.2223002676 0.0169449116 -0.4407332759
-0.2002427777 0.0225029954 -0.4310661241
-0.2275301809 -0.0147075882 -0.4108492996
-0.1576690207 0.0074584696 -0.4504380905
-0.2397591440 -0.0005893545 -0.4015320190
-0.1533022047 0.0125775948 -0.4559382553
-0.2045922413 -0.0048610757 -0.4238535804
-0.1951530599 0.0059070501 -0.4283059015
-0.1680785485 0.0153481874 -0.4686667637
-0.2297513036 -0.0020474363 -0.4090677570
-0.1995367476 -0.0427637459 -0.4188685665
-0.1986478685 -0.0508878635 -0.4117546079
-0.1674753370 -0.0269697142 -0.4338059286
-0.2054259690 -0.0412013250 -0.4134674374
-0.1849921929 0.0164038631 -0.4487104128
-0.2116987569 0.0206312788 -0.4251536709
-0.1676974081 -0.0244437243 -0.4360062636
-0.2319428731 0.0126214868 -0.4104664078
-0.2218212953 -0.0044806735 -0.4162399531
-0.2320561565 -0.0000990819 -0.4066305786
-0.2003351567 -0.0592371074 -0.4086842523
-0.1976923856 -0.0223582871 -0.4215841871
-0.1649197864 0.0052018984 -0.4455633886
-0.2127412698 0.0124983726 -0.4238230674
-0.2155744792 -0.0192382351 -0.4131662489
-0.2129358388 -0.0296192419 -0.4118587186
-0.2064083666 -0.0181333628 -0.4195655584
-0.2263462024 -0.0339438717 -0.4028783130
-0.2420620825 0.0050995637 -0.4054694534
-0.2225458891 -0.0168168423 -0.4106794356
-0.2055680099 -0.0339720133 -0.4154072385
-0.1847608202 -0.0121032649 -0.4309107443
-0.1928666879 -0.0563094520 -0.4164285555
-0.1700492777 0.0164624870 -0.4501239509
-0.1951028759 -0.0171196776 -0.4238411298
-0.1925777791 -0.0559899630 -0.4139340016
-0.1857846226 -0.0411958653 -0.4201859593
-0.1731325731 -0.0218255852 -0.4277414969
-0.1833750904 0.0016166774 -0.4344111085
-0.1696446376 0.0223167873 -0.4462380238
-0.2207947561 0.0102916095 -0.4165161771
-0.1576114997 0.0115144693 -0.4583851661
-0.1928193541 -0.0223437709 -0.4237933724
-0.1858275059 0.0158305735 -0.4457589140
-0.1679179799 -0.0195311714 -0.4340462501
-0.2002038793 -0.0223056774 -0.4215220634
-0.1973597236 0.0150539631 -0.4339061704
-0.1831019028 -0.0552354119 -0.4211279095
-0.1705914532 -0.0079892569 -0.4359990238
-0.1929133713 0.0226370576 -0.4336885775
-0.1848468199 0.0172066037 -0.4409311927
-0.2048263496 0.0147972853 -0.4606295929
-0.2174110871 0.0124149530 -0.4232411820
-0.1934084860 -0.0411834747 -0.4204058762
-0.1950284751 -0.0273412892 -0.4229423381
-0.1640335172 -0.0211959966 -0.4376870096
-0.1901782286 0.0254150334 -0.4334765079
-0.1952102166 -0.0297339439 -0.4182485319
-0.2104705142 -0.0395707396 -0.4118066239
-0.2176839128 -0.0148490498 -0.4117405915
-0.2263091952 -0.0002807647 -0.4130229652
-0.1617337894 0.0053941580 -0.4477287603
-0.2120086588 -0.0292296536 -0.4130425243
-0.1650652062 -0.0225672284 -0.4362625412
-0.1936993450 -0.0001069545 -0.4297450185
-0.2268899132 -0.0022672792 -0.4130055536
-0.1685787308 -0.0169877237 -0.4333328319
-0.1741146012 0.0120159913 -0.4444626765
-0.1620090166 0.0075602475 -0.4478642061
-0.2105901516 -0.0363892988 -0.4115778514
-0.2144461599 0.0180908662 -0.4234776614
-0.2345105158 0.0153936797 -0.4163548905
-0.2347580252 -0.0179865533 -0.4027201342
-0.1705998270 0.0162918829 -0.4578826585
-0.2148533007 -0.0171904239 -0.4164868701
-0.1951762853 -0.0169960617 -0.4248607367
-0.1947005778 0.0022938776 -0.4303840199
-0.1821374235 0.0072041956 -0.4380334266
-0.1954955016 0.0172916167 -0.4455294683
-0.2445113002 0.0165647969 -0.4164806248
-0.2081283081 0.0003950417 -0.4241260468
-0.1901462883 0.0170012152 -0.4461811875
-0.1833556700 -0.0506262743 -0.4218737870
-0.2423064343 0.0165482423 -0.4206548611
-0.1781362615 -0.0117711410 -0.4350124642
-0.1752999883 -0.0025649385 -0.4375579120
-0.2174843887 0.0159867410 -0.4281141503
-0.1731888302 -0.0375002669 -0.4292629576
-0.1999263674 0.0153162021 -0.4307311159
-0.1924269433 -0.0341614097 -0.4208023928
-0.1979090386 0.0038769194 -0.4263171977
-0.1901489657 -0.0071935995 -0.4284153320
-0.2301556139 0.0098067969 -0.4135448503
-0.2301806361 0.0120994358 -0.4130990305
-0.1726986156 0.0152542617 -0.4426388715
-0.2306443527 0.0003410373 -0.4082198441
-0.1651575631 0.0133112130 -0.4469216494
-0.1944876570 0.0160911666 -0.4562108130
-0.2096443598 -0.0041262145 -0.4237497649
-0.1875316892 -0.0589215640 -0.4189275182
-0.1647778841 0.0163415553 -0.4533728472
-0.1905213964 -0.0574531494 -0.4151929620
-0.2054946849 -0.0164731205 -0.4234689663
-0.1682615727 -0.0210704468 -0.4369237125
-0.2057988898 0.0174548222 -0.4327209534
-0.1878110246 0.0153287934 -0.4596257191
-0.1823076172 -0.0127818479 -0.4310216490
-0.2081660018 -0.0421608292 -0.4112758082
-0.1732143491 -0.0348761480 -0.4290152455
-0.1578585297 -0.0024318611 -0.4485995750
-0.2178308219 0.0102022924 -0.4205818772
-0.1723087748 0.0126698812 -0.4408377260
-0.2191322703 -0.0079948591 -0.4110937083
-0.2052257946 0.0212637310 -0.4289355239
-0.2449676955 0.0041376437 -0.4020381779
-0.2151155321 -0.0224027150 -0.4132407485
-0.1788271862 0.0155616831 -0.4533517916
-0.1698783711 -0.0423340067 -0.4311000272
-0.1599949907 0.0140938394 -0.4668246800
-0.1576259833 0.0050099603 -0.4508590336
-0.1792148292 0.0062524235 -0.4328352427
-0.1880307262 0.0221789150 -0.4334930839
-0.1975715904 0.0171434743 -0.4431156799
-0.2100695819 0.0198626677 -0.4275657924
-0.1701355797 0.0165534586 -0.4491440272
-0.2052708769 -0.0219343310 -0.4190910082
-0.1881423672 -0.0555924207 -0.4165132512
-0.2148233299 -0.0063058117 -0.4186518333
-0.1673623834 0.0166508621 -0.4482392925
-0.1954271867 -0.0415941321 -0.4177607097
-0.2067569114 -0.0337149246 -0.4113980069
-0.1698443339 -0.0022746367 -0.4383177122
-0.1702060095 0.0120973366 -0.4433787678
-0.2048184137 -0.0146870142 -0.4210363662
-0.1890291754 0.0033011421 -0.4330772069
-0.2081940808 -0.0192854698 -0.4168889505
-0.1726129026 0.0174562641 -0.4439740748
-0.1698400580 -0.0072411278 -0.4381958252
-0.1622118495 0.0125913162 -0.4487477655
-0.2103239792 0.0010489280 -0.4213666659
-0.2049728844 0.0029448587 -0.4264610068
-0.1944025814 -0.0344722119 -0.4189947413
-0.1891671995 0.0096201138 -0.4352858661
-0.1673684055 -0.0220025699 -0.4361220691
-0.2199180422 -0.0216464721 -0.4115622679
-0.2104923364 -0.0373882133 -0.4129507131
-0.2342562106 -0.0066792237 -0.4030878496
-0.2126840834 -0.0043518984 -0.4207133352
-0.1750237857 0.0030008631 -0.4385769722
-0.2078033113 -0.0241801796 -0.4162853916
-0.1710168634 -0.0183772866 -0.4311798780
-0.1621853089 -0.0152561007 -0.4434090856
-0.1722967083 -0.0046176939 -0.4382668859
-0.1874312622 -0.0048072659 -0.4315615464
-0.2473543062 0.0154786892 -0.4063244623
-0.2078896271 -0.0369279588 -0.4153997805
-0.1852595780 -0.0568657437 -0.4191121333
-0.2264695851 -0.0383185343 -0.4017086927
-0.1915825878 0.0062999723 -0.4341962052
-0.1821029925 -0.0499329917 -0.4233137463
-0.2298545732 -0.0135064936 -0.4042060323
-0.2369361856 -0.0182616991 -0.3993278192
-0.1587279252 -0.0032678846 -0.4445682738
-0.2152206175 0.0204126899 -0.4235337261
-0.2081621486 -0.0446445165 -0.4113407121
-0.1849474888 -0.0140714564 -0.4298985522
-0.2099856085 -0.0245982277 -0.4142157792
-0.1987239549 -0.0613156685 -0.4098481449
-0.2298838754 -0.0071382711 -0.4079338246
-0.1897508503 0.0161059977 -0.4503577902
-0.1672365265 0.0146950186 -0.4705586548
-0.1750970889 -0.0217531858 -0.4303357058
-0.2170643932 0.0169734324 -0.4386616073
-0.1856375763 -0.0628814867 -0.4168281262
-0.1795688028 0.0052902871 -0.4382825304
-0.1604175916 -0.0160338760 -0.4428811029
-0.1153919749 0.0278014418 -0.2549619232
-0.1801222420 0.0003353155 -0.4367980188
-0.2052606760 -0.0145450146 -0.4171602940
-0.2023935777 -0.0073561653 -0.4251947292
-0.1566963520 0.0173423374 -0.4587175015
-0.2216743197 0.0231704650 -0.4203104737
-0.2344351835 0.0024890249 -0.4063614719
-0.2347138624 -0.0019489941 -0.4060350973
-0.2333923972 -0.0312575806 -0.3989842186
-0.2001298202 -0.0121797947 -0.4231121010
-0.2201864370 -0.0074674312 -0.4135889767
-0.2302211375 0.0218199873 -0.4159249188
-0.2300834731 0.0127619891 -0.4121380151
-0.1681788981 -0.0414494300 -0.4316012392
-0.1747317456 -0.0504081370 -0.4256478334
-0.1931912825 0.0021709974 -0.4292855263
-0.1953086157 0.0130992221 -0.4311189716
-0.1730376848 0.0160009678 -0.4507017093
-0.1672400439 0.0226333378 -0.4465692920
-0.2467234790 0.0127924424 -0.4034193299
-0.2028365573 -0.0045219679 -0.4252902162
-0.2279319830 -0.0023568611 -0.4110277467
-0.1776895981 -0.0143718992 -0.4303698561
-0.2478054315 0.0165052898 -0.4152080715
-0.2480301262 0.0139593309 -0.4036794283
-0.2050093582 0.0105041600 -0.4267399778
-0.2107374884 -0.0074761056 -0.4192282704
-0.1885646279 -0.0144031777 -0.4261478523
-0.2307585739 0.0036125879 -0.4069513380
-0.1737546225 -0.0578868038 -0.4239838544
-0.2404132394 0.0072776035 -0.4041066305
-0.1729231781 -0.0263066491 -0.4277315550
-0.2413826138 0.0162772164 -0.4212002754
-0.2123464599 -0.0316203508 -0.4125222970
-0.1925263277 -0.0020794713 -0.4286136932
-0.2178313285 -0.0041882372 -0.4185523987
-0.2054025102 0.0247256527 -0.4306051757
-0.2293611124 -0.0061200172 -0.4044750284
-0.1896169493 -0.0344558932 -0.4225466488
-0.1802071734 -0.0298729704 -0.4274363976
-0.2117902189 0.0134431506 -0.4249083698
-0.2150286454 -0.0340767497 -0.4110707765
-0.1876618183 -0.0761630369 -0.3943210204
-0.1672110365 0.0152549052 -0.4483031099
-0.2420756461 0.0161967356 -0.4094149203
-0.2196578789 -0.0140093722 -0.4133155587
-0.2204884563 0.0040391615 -0.4165416974
-0.1844832579 0.0129985005 -0.4360142757
-0.2319117735 0.0184678385 -0.4149554724
-0.2132460737 -0.0025763565 -0.4187788112
-0.2228680492 0.0078327106 -0.4158953990
-0.2249131152 -0.0016574642 -0.4120226739
-0.1925287713 0.0176385508 -0.4401480075
-0.2075848809 0.0075801101 -0.4221549873
-0.1670031311 0.0024366809 -0.4456992371
-0.1822743478 0.0047272553 -0.4365153146
-0.1670858043 0.0028278531 -0.4433612136
-0.1595741780 0.0140775635 -0.4558959332
-0.1804789956 -0.0445018653 -0.4251492111
-0.2229702583 -0.0189879409 -0.4082312717
-0.2243116272 -0.0172627208 -0.4104030302
-0.1570364443 0.0026836122 -0.4502747297
-0.1648082751 -0.0420608542 -0.4329380969
-0.1848258227 -0.0148306713 -0.4291184247
-0.1628501149 -0.0257261287 -0.4364175172
-0.1756671440 0.0201672592 -0.4421381014
-0.2352560829 -0.0094792236 -0.4028552684
-0.1752756008 0.0126345272 -0.4409906424
-0.2253703725 -0.0193688268 -0.4083073915
-0.2124402887 -0.0389543174 -0.4109319752
-0.2199084858 0.0024918169 -0.4165957403
-0.2372271683 -0.0074246295 -0.4032843553
-0.1694884317 -0.0546866903 -0.4275449573
-0.2452826453 0.0167056651 -0.4217238038
-0.1679208340 0.0146011951 -0.4439553216
-0.2378616065 -0.0097244614 -0.4027461118
-0.1723854252 0.0163829121 -0.4557790271
-0.1850553466 -0.0391893130 -0.4231170435
-0.2076111251 -0.0263131909 -0.4162215033
-0.2313702650 -0.0293366228 -0.4009930852
-0.1778404365 -0.0373424751 -0.4285544554
-0.1652763968 -0.0203265370 -0.4363328137
-0.1975303364 0.0163418467 -0.4493794437
-0.2176082447 0.0054292144 -0.4193068368
-0.1758293920 -0.0071581213 -0.4343872519
-0.2335939840 0.0014077962 -0.4052149286
-0.1780205273 -0.0372064593 -0.4262276164
-0.1984542483 -0.0000838096 -0.4268072987
-0.2337981804 -0.0289329609 -0.4014753902
-0.2237814678 -0.0260810973 -0.4043245596
-0.2158720669 -0.0333767369 -0.4087482185
-0.1801356537 -0.0092134517 -0.4350495414
-0.2254676780 -0.0218384956 -0.4064213554
-0.1918591484 0.0155120653 -0.4584613236
-0.2219224821 -0.0246385849 -0.4111871217
-0.1876812232 -0.0480054335 -0.4208951346
-0.1702712955 -0.0223112329 -0.4327054577
-0.1598172884 -0.0081012500 -0.4458078774
-0.2103601904 -0.0123075529 -0.4183596312
-0.1949109464 -0.0347920023 -0.4221943588
-0.1895396950 -0.0461831101 -0.4210350929
-0.2277374247 0.0157724255 -0.4335149848
-0.1898801970 -0.0195365254 -0.4255224594
-0.2371905398 -0.0109991027 -0.4011345395
-0.2175925902 0.0003677290 -0.4192473512
-0.2374032930 -0.0073060344 -0.4013800089
-0.1874396000 0.0053392217 -0.4339954894
-0.1946800894 0.0157415075 -0.4639183677
-0.2356405542 -0.0231447797 -0.4011877690
-0.1655878159 -0.0395309358 -0.4345361096
-0.1823396893 -0.0199606000 -0.4283484997
-0.2048609520 0.0161100229 -0.4311945420
-0.1999870512 -0.0151651931 -0.4229090655
-0.1694884505 -0.0123967216 -0.4376820372
-0.1697024261 0.0124076144 -0.4456241477
-0.1659028081 -0.0024597767 -0.4430439403
-0.1768154630 -0.0291067225 -0.4311310622
-0.2077445930 -0.0218814707 -0.4165756696
-0.1878226042 0.0153218467 -0.4360651252
-0.2009549380 -0.0414692557 -0.4154245881
-0.2486782132 -0.0000363826 -0.4007146912
-0.2366257051 0.0131016920 -0.4113772436
-0.2359689603 0.0150999263 -0.4305806540
-0.1878390299 -0.0072686460 -0.4281132771
-0.2076505988 -0.0346674243 -0.4127735528
-0.2130992524 -0.0411872690 -0.4127301845
-0.1779586079 0.0169023589 -0.4431092331
-0.1674086512 0.0004679680 -0.4434206837
-0.2425680799 0.0151319478 -0.4063876109
-0.2179851112 -0.0041802095 -0.4140199523
-0.1850443070 -0.0293559029 -0.4278331529
-0.1691581119 0.0139143109 -0.4809234283
-0.1668315571 0.0127098928 -0.4459398158
-0.2470591604 0.0019152589 -0.3990306663
-0.1907950125 -0.0537398759 -0.4187228497
-0.2003742370 0.0158738103 -0.4447651285
-0.1870563050 0.0152505704 -0.4380509440
-0.1900714508 -0.0147026265 -0.4262621374
-0.2133913487 0.0164443925 -0.4337964356
-0.1699848109 0.0154719169 -0.4509404548
-0.1812629229 0.0153225585 -0.4605021579
-0.2379774300 -0.0000607423 -0.4028350958
-0.1903437145 0.0099516361 -0.4338270989
-0.1873274026 0.0100026236 -0.4382362245
-0.2062234493 -0.0060413247 -0.4194922364
-0.1722313127 0.0054801277 -0.4459849044
-0.2197633907 0.0002825247 -0.4178306707
-0.1552382270 0.0094474782 -0.4549138197
-0.1895316441 -0.0276892416 -0.4247725674
-0.2375222930 -0.0155370148 -0.3968264814
-0.1954784178 0.0199539400 -0.4296850638
-0.1697275170 -0.0050431853 -0.4407953860
-0.2389281817 -0.0132394666 -0.3969923904
-0.1756262318 -0.0686418112 -0.3761206595
-0.1774608346 -0.0225060506 -0.4277549722
-0.2076126984 -0.0074122300 -0.4236838916
-0.1728193909 0.0097873575 -0.4451514733
-0.2098947346 -0.0071235576 -0.4210946256
-0.1826127122 -0.0445331773 -0.4246865156
-0.1778055724 -0.0070847680 -0.4357674703
-0.1673063423 0.0146279355 -0.4415593852
-0.1552765743 0.0119033691 -0.4582550870
-0.2091432191 0.0049592118 -0.4249878638
-0.1696295135 -0.0022389562 -0.4426363292
-0.1621950127 0.0163891185 -0.4532865521
-0.2077081715 0.0032131476 -0.4239106267
-0.2083664415 -0.0018972498 -0.4238997963
-0.1849522740 -0.0101605405 -0.4309550306
-0.1900597035 -0.0400286078 -0.4236445477
-0.1556107173 0.0128958698 -0.4532362606
-0.2349755060 0.0158900905 -0.4136759929
-0.1876809477 -0.0124718008 -0.4281516194
-0.1852705790 -0.0074725378 -0.4315723117
-0.2275500122 0.0203995679 -0.4169695422
-0.2055265556 0.0152168286 -0.4266128341
-0.1644632508 0.0140748248 -0.4733231134
-0.2127201989 -0.0126208284 -0.4182642018
-0.1849937434 -0.0168837974 -0.4285256549
-0.1848753241 -0.0473469438 -0.4230093400
-0.1644372961 -0.0046804292 -0.4435905133
-0.2001523326 -0.0452353111 -0.4151829865
-0.2464466613 0.0022751115 -0.4009411778
-0.2001481300 -0.0484717608 -0.4158064251
-0.1654077042 -0.0022903797 -0.4454467480
-0.2025685045 -0.0273580431 -0.4186056180
-0.1980552217 -0.0395430751 -0.4176711326
-0.2100673457 0.0121346818 -0.4245406430
-0.2154837714 -0.0121403297 -0.4163032834
-0.2201224207 -0.0185112257 -0.4091597918
-0.2428664814 0.0027832931 -0.4037874746
-0.2029767754 0.0210633010 -0.4286444321
-0.1735824707 -0.0543957205 -0.4244951449
-0.1847412061 0.0050664471 -0.4361767430
-0.2132405080 -0.0236986350 -0.4139902966
-0.1725884671 -0.0068656911 -0.4373441427
-0.2197031954 -0.0230368010 -0.4083423150
-0.1675991232 0.0151213953 -0.4452949354
-0.1958658037 -0.0414965097 -0.4160731112
-0.1622323668 0.0227863485 -0.4533798559
-0.2027172779 0.0174461246 -0.4377180177
-0.1848493245 -0.0293876089 -0.4254091291
-0.2251759119 -0.0148643252 -0.4090765131
-0.1627516185 0.0127331693 -0.4527605876
-0.2035303767 -0.0436847242 -0.4129250088
-0.2249468371 -0.0100026232 -0.4105331084
-0.2227469647 -0.0098136936 -0.4113990583
-0.1739022872 0.0062400023 -0.4405826389
-0.1598408064 -0.0186170931 -0.4709711359
-0.1697387644 -0.0098284931 -0.4377668975
-0.2250952419 0.0054978114 -0.4139543279
-0.1771346778 -0.0124471569 -0.4313090444
-0.2350540216 0.0057769254 -0.4068122197
-0.2025030113 0.0058274875 -0.4264224767
-0.2099704998 0.0164772547 -0.4340878103
-0.2193837019 -0.0171727661 -0.4129926370
-0.2200965517 0.0161011650 -0.4262747170
-0.1159702192 0.0198794508 -0.2425868111
-0.2025811680 -0.0293102265 -0.4180286498
-0.2400067621 0.0160483240 -0.4296859726
-0.2076181401 0.0201027445 -0.4289596018
-0.2088346832 0.0078059121 -0.4256725724
-0.2282402698 -0.0158414010 -0.4038869288
-0.1980529500 -0.0241438473 -0.4237165987
-0.2044725649 0.0024220209 -0.4283811280
-0.1792803727 0.0075120580 -0.4398581398
-0.1744938952 0.0104463389 -0.4404166389
-0.1928844800 0.0178034540 -0.4333990623
-0.2152039326 -0.0130753351 -0.4121413635
-0.1919116789 0.0026188583 -0.4311044954
-0.1927592595 -0.0272736371 -0.4234510210
-0.2378557543 0.0185659695 -0.4095978431
-0.1854927510 0.0004167399 -0.4331031978
-0.1798670074 -0.0096589707 -0.4327033819
-0.1798197453 0.0076405778 -0.4383044070
-0.2000697659 0.0100458300 -0.4303316681
-0.1650848381 0.0073079406 -0.4474710751
-0.2001533365 -0.0252003785 -0.4209577750
-0.2032867223 -0.0090892380 -0.4247714281
-0.2097312938 0.0157075436 -0.4311126191
-0.1877814987 -0.0274611570 -0.4241267776
-0.2027998692 0.0177171847 -0.4288626035
-0.2013572397 -0.0021025775 -0.4277521397
-0.1826199743 0.0106763629 -0.4360104001
-0.1946888199 0.0083609364 -0.4294655604
-0.1699771900 0.0057524300 -0.4406771914
-0.1585928020 -0.0047111821 -0.4467755794
-0.2049313486 -0.0203151507 -0.4193085879
-0.2278156969 -0.0238880932 -0.4063582389
-0.1679321357 -0.0029025368 -0.4440911562
-0.1776935443 -0.0169204763 -0.4307262683
-0.2178912990 -0.0145421998 -0.4135510438
-0.1626078681 -0.0001505502 -0.4456349565
-0.1744610162 -0.0171400285 -0.4329581554
-0.1749911855 0.0155352176 -0.4432605582
-0.1948393470 -0.0469296675 -0.4176492656
-0.2200033259 -0.0340778015 -0.4080027826
-0.1750438669 0.0099012028 -0.4388715660
-0.2307703029 0.0139833636 -0.4139330059
-0.1920897032 0.0003519467 -0.4309976417
-0.2450765448 0.0164243177 -0.4066311940
-0.1752706066 0.0147653990 -0.4386613472
-0.1827275735 -0.0143600685 -0.4307555834
-0.1800424876 -0.0075424524 -0.4334655501
-0.2079556531 -0.0291637719 -0.4159610719
-0.1900558726 0.0032919586 -0.4314493654
-0.1625023540 -0.0046885684 -0.4439371999
-0.1898766247 0.0180558883 -0.4405749765
-0.2074114417 0.0125022064 -0.4263908534
-0.1785365461 0.0217102294 -0.4373393816
-0.1796972054 0.0215890454 -0.4407532456
-0.2438920547 0.0049295393 -0.4024152597
-0.2348837645 0.0129117086 -0.4082156223
-0.2273837441 -0.0173109604 -0.4078559099
-0.1901298295 0.0069753391 -0.4329379420
-0.1725948334 -0.0246719149 -0.4306048717
-0.2347007123 -0.0085807834 -0.4056528616
-0.2049350411 0.0174267537 -0.4387791494
-0.2277681829 -0.0049355730 -0.4112527720
-0.1925802494 0.0153429755 -0.4339179456
-0.1979837286 -0.0071940070 -0.4259598023
-0.1992634812 0.0028935454 -0.4298477637
-0.2021976889 0.0167728181 -0.4353981036
-0.2174373689 0.0089332481 -0.4239519450
-0.1721012777 -0.0269617004 -0.4330657903
-0.1879196142 -0.0512454462 -0.4205692681
-0.2144792391 0.0138337715 -0.4240402644
-0.1781607121 -0.0275135413 -0.4270151854
-0.1677393851 -0.0017964877 -0.4405718291
-0.1841610223 0.0084276721 -0.4374195635
-0.2076843846 0.0151032203 -0.4281102117
-0.1828447035 -0.0270169946 -0.4257716019
-0.1903558969 -0.0830324665 -0.4065758586
-0.1728671703 0.0168630804 -0.4463917172
-0.2275552329 0.0119425067 -0.4140249854
-0.2008108795 -0.0339242108 -0.4173416197
-0.2099935724 -0.0099085079 -0.4205599968
-0.2273523323 0.0100898407 -0.4132445455
-0.2123607315 -0.0049317256 -0.4184027107
-0.1907086690 -0.0117298882 -0.4273520261
-0.2320581065 -0.0094309564 -0.4066876704
-0.2011270225 0.0150117343 -0.4291692078
-0.1656544872 0.0140350691 -0.4458186999
-0.2118999408 0.0172125777 -0.4251317570
-0.1804446115 0.0173011229 -0.4436405321
-0.1699485378 -0.0292194781 -0.4328691574
-0.1908362649 -0.0487305881 -0.4200470802
-0.2479368541 0.0169822822 -0.4216958483
-0.2127950975 0.0026093362 -0.4209916932
-0.1954916276 0.0002360378 -0.4290192941
-0.1760721639 0.0150675334 -0.4683769965
-0.1579277699 0.0144651508 -0.4609149043
-0.1696257618 -0.0170883117 -0.4355946411
-0.1990111531 -0.0076794878 -0.4273112670
-0.2073164284 0.0005218351 -0.4254937172
-0.1698253467 0.0167603323 -0.4533253734
-0.2142098695 -0.0265284845 -0.4120369928
-0.2151346315 -0.0195038215 -0.4161576081
-0.1715402704 0.0192844414 -0.4447399479
-0.2348436237 0.0157916885 -0.4235962922
-0.2180249692 -0.0209439449 -0.4086620984
-0.1947774263 0.0195497200 -0.4343837794
-0.2246382982 -0.0072734584 -0.4139454067
-0.1739211340 0.0208935417 -0.4478651290
-0.1929857432 -0.0292325986 -0.4207241666
-0.1929625517 0.0208358891 -0.4355719125
-0.2383385617 -0.0109781725 -0.3980896690
-0.2346987567 -0.0154258517 -0.4034843413
-0.2101098421 0.0035581599 -0.4218555915
-0.1703495007 -0.0025662150 -0.4403111740
-0.1979826502 -0.0277027259 -0.4185317110
-0.2325246423 -0.0054550986 -0.4065611647
-0.1599073927 0.0143930045 -0.4637585699
-0.1840331983 -0.0086263450 -0.4350567315
-0.2268334687 -0.0097868068 -0.4067640262
-0.2350419885 -0.0244199457 -0.3986681335
-0.2280384402 -0.0115668771 -0.4047213058
-0.2230576063 -0.0020434420 -0.4130167607
-0.2126194533 -0.0142134204 -0.4163129217
-0.1998569369 -0.0174849778 -0.4224650264
-0.1775257665 -0.0094312075 -0.4336821371
-0.2249079715 -0.0025977681 -0.4136565800
-0.1705181157 0.0023087014 -0.4411741793
-0.2059655052 0.0157844535 -0.4452250095
-0.1958585784 -0.0296726083 -0.4211364349
-0.1923727875 -0.0536147887 -0.4136102382
-0.2373103883 0.0022931557 -0.4089034391
-0.2295552855 -0.0044594394 -0.4110957310
-0.2247136613 0.0167002331 -0.4353882970
-0.2370864427 0.0053085321 -0.4087759129
-0.1825098902 -0.0041903734 -0.4329421872
-0.1727986328 0.0028561884 -0.4392178106
-0.2157991471 -0.0150483887 -0.4137735675
-0.1877239256 -0.0322250892 -0.4237169829
-0.1896748788 0.0177003585 -0.4427764577
-0.1948704822 -0.0019871413 -0.4285962105
-0.1589209022 0.0079016686 -0.4511510622
-0.2080442612 -0.0136476157 -0.4163600354
-0.1801718439 -0.0342548239 -0.4274197205
-0.2053235464 0.0120635841 -0.4263003083
-0.2325564293 0.0191491063 -0.4114955318
-0.2321670472 -0.0022966196 -0.4066123037
-0.1623132462 -0.0299430138 -0.4360641415
-0.1796769486 0.0033849981 -0.4376677322
-0.2054412522 -0.0190316274 -0.4202181088
-0.1714212467 0.0001574134 -0.4408855990
-0.1899873138 -0.0217930105 -0.4251631395
-0.1626056959 0.0020046234 -0.4433662144
-0.1699456879 -0.0147042972 -0.4365047229
-0.2316266745 -0.0066274833 -0.4066609740
-0.2276485284 -0.0063123597 -0.4065762389
-0.2054071975 -0.0051454861 -0.4253065836
-0.2124596065 -0.0199174159 -0.4143431385
-0.1946295014 0.0130256701 -0.4333626918
-0.1925624382 -0.0532371464 -0.4178630302
-0.2086526961 -0.0479545216 -0.4112911232
-0.1878374505 -0.0443613431 -0.4202412078
-0.2238206841 -0.0359384895 -0.4047208837
-0.2023861917 -0.0222264388 -0.4211086107
-0.2077057843 -0.0145372225 -0.4206249225
-0.2008059545 -0.0564194390 -0.4108001484
-0.1980515953 -0.0343890112 -0.4187746883
-0.2093418390 -0.0137375416 -0.4200316072
-0.1799251330 -0.0250979730 -0.4261137226
-0.2271506442 -0.0122404834 -0.4107151958
-0.1676838199 -0.0076473326 -0.4405929744
-0.1768931218 0.0076208511 -0.4402462488
-0.2100707135 -0.0323623751 -0.4132213133
-0.2033908725 -0.0241396509 -0.4191236115
-0.1974801024 0.0151552641 -0.4307667545
-0.2251136782 -0.0310780999 -0.4018796183
-0.1818578980 0.0121367207 -0.4398601949
-0.1951684952 -0.0231457520 -0.4213548303
-0.1824534166 -0.0443279946 -0.4232460380
-0.2463815807 0.0166144208 -0.4033872760
-0.2001307454 0.0055975253 -0.4285917617
-0.1954876154 -0.0367845178 -0.4202712413
-0.2249366324 -0.0236506233 -0.4060250185
-0.2274029488 0.0004881431 -0.4110838125
-0.1771853991 0.0086212897 -0.4355551887
-0.2282212434 -0.0175311922 -0.4064879743
-0.2279522590 0.0087351568 -0.4160143689
-0.2192050063 -0.0012896453 -0.4146486968
-0.2332371386 -0.0185004472 -0.4013693755
-0.2375574006 0.0063294654 -0.4045383905
-0.1976102021 -0.0273118867 -0.4203903620
-0.2374114394 0.0128010502 -0.4073582292
-0.1692243459 0.0078451737 -0.4448079440
-0.2221339663 -0.0157906582 -0.4091374777
-0.1846420011 -0.0170428648 -0.4298163660
-0.1795541537 0.0112859785 -0.4397948928
-0.1589850006 -0.0050153038 -0.4507481221
-0.2099184134 0.0101675517 -0.4238929269
-0.1876189194 -0.0294854324 -0.4240610153
-0.2447602590 0.0159502409 -0.4105650769
-0.2399384454 0.0153590860 -0.4102591425
-0.1934346379 -0.0265113988 -0.4207596826
-0.2101965787 0.0168017043 -0.4368985519
-0.1722381251 -0.0226507417 -0.4336993568
-0.1749105267 -0.0250798923 -0.4297572340
-0.2300991608 0.0027079130 -0.4112436978
-0.1577379012 -0.0107420554 -0.4457712070
-0.2164388698 -0.0395219388 -0.4101651894
-0.2433962102 -0.0006250112 -0.3995281345
-0.1802473562 0.0121060254 -0.4365275431
-0.2104736305 -0.0221211022 -0.4157332471
-0.2078537720 0.0178236123 -0.4268122165
-0.2377308435 0.0087889511 -0.4028748955
-0.1565007625 0.0103415412 -0.4605256986
-0.2342225233 0.0239327727 -0.4114871003
-0.1746955861 -0.0271482601 -0.4339969110
-0.1732858948 -0.0180112352 -0.4315825652
-0.2271463635 -0.0222480328 -0.4037495225
-0.2059624861 -0.0362250080 -0.4136805574
-0.2149435487 0.0053367209 -0.4208899491
-0.2073633749 -0.0125929378 -0.4234275841
-0.1601619416 0.0053777120 -0.4466859643
-0.1774012555 -0.0627044885 -0.4220878760
-0.2348487324 0.0209483200 -0.4146336661
-0.2051494237 -0.0368162601 -0.4155310564
-0.2229096852 -0.0421609557 -0.4058900309
-0.2100300440 0.0182256081 -0.4452532477
-0.1747673922 0.0172377613 -0.4456143580
-0.1855998314 0.0021623900 -0.4332515848
-0.2028185767 0.0168118601 -0.4308042066
-0.1826010520 -0.0623600052 -0.4170980239
-0.2497099910 0.0171721978 -0.4216658867
-0.1177193908 0.0188289645 -0.2458433958
-0.2020288306 0.0097405175 -0.4311450608
-0.1859704099 -0.0444825314 -0.4237808804
-0.1958304528 -0.0268445306 -0.4212689130
-0.1927487402 -0.0196479896 -0.4238316413
-0.1728236593 -0.0319987425 -0.4297331902
-0.2254867663 0.0216691126 -0.4192749900
-0.1981291413 -0.0238882388 -0.4185405646
-0.2471600303 0.0106515690 -0.4010725441
-0.1900940791 -0.0293448736 -0.4232293858
-0.2300564058 -0.0273370365 -0.4033642569
-0.1895804077 -0.0035715847 -0.4269237251
-0.1653046004 0.0117169429 -0.4436783031
-0.1907834769 -0.0221603085 -0.4241891832
-0.1909912772 -0.0490448781 -0.4172112340
-0.2047903995 0.0053180831 -0.4275360330
-0.1907531721 0.0201730563 -0.4335373545
-0.1806822453 0.0198019679 -0.4384708506
-0.1837963014 -0.0653007921 -0.4182604831
-0.2196985892 -0.0166113298 -0.4107231634
-0.1921047409 0.0104995094 -0.4330635488
-0.2228646650 0.0163195492 -0.4317145284
-0.1854625766 -0.0220007828 -0.4257505378
-0.2198125222 -0.0019239562 -0.4176896499
-0.1977670119 -0.0094418634 -0.4234363715
-0.1824938837 -0.0474528780 -0.4241766782
-0.1574706707 0.0114979221 -0.4535407063
-0.1822431556 -0.0077580452 -0.4353820805
-0.1904084565 -0.0615733859 -0.4135965110
-0.1651154310 -0.0121038547 -0.4408103724
-0.2232504782 -0.0338624141 -0.4056646633
-0.1854359649 -0.0441962556 -0.4206649538
-0.1654580449 -0.0100130194 -0.4408042173
-0.1844483698 0.0149790306 -0.4612913375
-0.2180303107 -0.0097480241 -0.4142741864
-0.1951124154 -0.0323354208 -0.4206414611
-0.1553235819 0.0080586766 -0.4536006105
-0.1957360159 -0.0512296556 -0.4157339301
-0.2126558100 -0.0073710751 -0.4208264154
-0.1957261921 -0.0246547652 -0.4216803439
-0.2247649204 -0.0216008209 -0.4083549152
-0.1828563911 0.0249666089 -0.4382716199
-0.1826607733 -0.0318867522 -0.4257191261
-0.1647266861 0.0069533255 -0.4461675391
-0.1962914328 -0.0561289043 -0.4129148474
-0.1115457890 0.0317562985 -0.2504165914
-0.1918121410 0.0010213123 -0.4287287885
-0.1952988809 0.0149631150 -0.4341895702
-0.2146647301 -0.0406208610 -0.4092309135
-0.1973128468 0.0126280067 -0.4333150685
-0.2200695948 -0.0312366227 -0.4080573330
-0.2458688855 0.0169420978 -0.4143940584
-0.1923665445 0.0171535049 -0.4355512126
-0.2197912084 -0.0116123359 -0.4134176365
-0.2003744492 -0.0388631490 -0.4164234741
-0.1619795686 -0.0368317008 -0.4358303272
-0.1709318067 -0.0124914041 -0.4340314529
-0.1574248483 0.0126883647 -0.4512539368
-0.2167090625 -0.0191912409 -0.4157873690
-0.1875822535 -0.0522570522 -0.4180133022
-0.2116165396 0.0160476172 -0.4393373347
-0.2083565414 -0.0122517795 -0.4194296573
-0.1971806684 -0.0122181076 -0.4254962540
-0.1845964026 -0.0420337098 -0.4225498720
-0.1601370290 0.0149667173 -0.4507941724
-0.2099674694 -0.0412365681 -0.4114067726
-0.2025393769 0.0101347072 -0.4287249007
-0.2007208188 -0.0119959843 -0.4258510489
-0.2361953154 0.0216592353 -0.4086584642
-0.1682768376 0.0157481192 -0.4645453796
-0.1750262465 -0.0044644989 -0.4375046919
-0.1950276423 -0.0073436309 -0.4264830214
-0.1981713176 -0.0321093239 -0.4188567698
-0.2125082969 0.0072363651 -0.4219755811
-0.1980428618 -0.0298321792 -0.4178952052
-0.1669756864 -0.0782590059 -0.4045111416
-0.1905636286 -0.0516030151 -0.4153991153
-0.2351702041 -0.0045806080 -0.4080868295
-0.1729375844 -0.0249236652 -0.4281275040
-0.1713049263 -0.0146998549 -0.4347636700
-0.1677226655 -0.0055390629 -0.4412003885
-0.2173742831 0.0077240907 -0.4190250003
-0.2248985366 -0.0188989750 -0.4107810970
-0.2396305114 0.0143939341 -0.4039844965
-0.1796212744 0.0176380715 -0.4387709774
-0.1992237246 0.0006268906 -0.4242530740
-0.1604238875 -0.0080213787 -0.4435892489
-0.2403641451 0.0168461046 -0.4049680785
-0.2002944879 0.0229906061 -0.4333242647
-0.1927432461 0.0107341556 -0.4314171259
-0.2028806651 -0.0271129861 -0.4151719599
-0.1791041141 -0.0762826564 -0.3991585126
-0.2150227574 -0.0296812473 -0.4114558975
-0.2280529992 -0.0214668379 -0.4056283220
-0.2050061703 -0.0072506586 -0.4240940342
-0.1609964429 -0.0331608357 -0.4362224418
-0.1653978782 -0.0276272951 -0.4349279126
-0.1606037537 0.0122068253 -0.4468231738
-0.1924153744 -0.0299902468 -0.4233434454
-0.1629971674 0.0054302988 -0.4465011580
-0.1604660750 0.0117484877 -0.4580595905
-0.1595928183 0.0099862593 -0.4592671762
-0.1825284811 0.0125794288 -0.4382773956
-0.1976014699 -0.0416534495 -0.4156055176
-0.2103913445 0.0171720603 -0.4425893566
-0.2222778143 0.0005209288 -0.4160236099
-0.1777371604 -0.0293212550 -0.4276769690
-0.1854799755 -0.0195251208 -0.4264994901
-0.1955507655 0.0164652760 -0.4489883802
-0.1600565455 0.0100360528 -0.4503537246
-0.2197995119 0.0056723316 -0.4185390476
-0.2223329849 -0.0289654868 -0.4072249063
-0.1774200869 0.0161436955 -0.4426075769
-0.1882220108 0.0159614225 -0.4451783219
-0.1977226312 -0.0044770497 -0.4263696575
-0.2096770747 -0.0466724502 -0.4119212044
-0.2049527452 0.0170147686 -0.4351556308
-0.2004796667 0.0170650503 -0.4359434537
-0.1568929546 -0.0133445611 -0.4457879752
-0.2452827003 0.0118830794 -0.4038934288
-0.1658549767 0.0123930572 -0.4808665295
-0.2125410629 -0.0438346924 -0.4102663412
-0.2451191628 -0.0026921018 -0.3999145313
-0.1984180683 -0.0169725821 -0.4213407021
-0.1804205279 -0.0350238850 -0.4256517995
-0.1968838178 -0.0364093766 -0.4165555742
-0.2074449441 -0.0067597724 -0.4248872042
-0.1918237793 0.0220589194 -0.4312563188
-0.1700877049 0.0027126178 -0.4427877580
-0.2296004950 -0.0024171271 -0.4127288231
-0.1749392661 -0.0379700547 -0.4286079181
-0.2367654540 -0.0001834560 -0.4065855344
-0.1674758856 -0.0102813467 -0.4383305941
-0.1729040359 0.0160996679 -0.4581879372
-0.2269570380 -0.0053904196 -0.4127525985
-0.1968111816 0.0097398025 -0.4281221814
-0.2206254295 -0.0111046584 -0.4112422049
-0.1976494450 0.0180885646 -0.4405869238
-0.1977560088 -0.0559911078 -0.4162483705
-0.2550563248 0.0172269823 -0.4239628047
-0.1803566401 -0.0272781338 -0.4260176559
-0.1725407254 0.0166303856 -0.4531955957
-0.1846106686 0.0153006116 -0.4366256550
-0.1904871258 -0.0393926195 -0.4199894326
-0.2177525165 0.0203390813 -0.4219078215
-0.1645797812 0.0156278327 -0.4659902089
-0.1619975564 0.0030839801 -0.4473563958
-0.1842435884 -0.0016171776 -0.4350509506
-0.2124271862 -0.0095579564 -0.4189604279
-0.2235424350 -0.0131872121 -0.4094618177
-0.2182016674 -0.0288520974 -0.4087771407
-0.1981099901 0.0246489917 -0.4344285181
-0.1903566356 -0.0023242121 -0.4328521625
-0.1683985797 -0.0654721702 -0.4261394488
-0.1984500820 0.0057918303 -0.4267257891
-0.2125524126 -0.0021923714 -0.4207270118
-0.2146612257 -0.0159097724 -0.4173422754
-0.2130300688 -0.0088783231 -0.4167985805
-0.1719318999 -0.0643071763 -0.4221397039
-0.2224984461 -0.0123162042 -0.4133132180
-0.2225700356 0.0137789654 -0.4209195717
-0.1802425325 -0.0198135997 -0.4284480954
-0.2169893038 0.0179047693 -0.4227162593
-0.1856666893 0.0194348188 -0.4378510693
-0.2574468276 0.0173200996 -0.4246927043
-0.1806242178 0.0078444416 -0.4365249263
-0.2117924107 0.0149299433 -0.4217836856
-0.1693379983 0.0044442860 -0.4426985701
-0.1723280568 -0.0586370420 -0.4255440625
-0.2097751424 0.0165427877 -0.4318779260
-0.1779700285 0.0159973783 -0.4501234401
-0.1845285101 0.0103432747 -0.4380767931
-0.2043239054 0.0105697357 -0.4280769604
-0.2326168833 -0.0136592209 -0.4057179800
-0.1880152738 -0.0015151901 -0.4282051131
-0.2152764932 0.0101769254 -0.4209531582
-0.2100240278 0.0156476597 -0.4282449431
-0.1720529316 -0.0299662557 -0.4318958406
-0.1974158779 -0.0365597236 -0.4184921238
-0.1828112620 -0.0097641018 -0.4331528948
-0.1729288582 -0.0203267326 -0.4321986781
-0.2375905775 -0.0150329822 -0.4001618940
-0.2153642394 -0.0041452875 -0.4184980553
-0.2128998102 -0.0215239290 -0.4155688991
-0.1678438569 0.0072276001 -0.4431852516
-0.2044584302 -0.0122650997 -0.4194742098
-0.2496962129 0.0056925671 -0.3999484679
-0.1973062954 -0.0122438301 -0.4235573230
-0.1754768764 -0.0322922796 -0.4289046886
-0.1798659453 0.0125800626 -0.4380134263
-0.2331078215 0.0142118158 -0.4117804405
-0.2166839905 0.0172895970 -0.4447660876
-0.1752272270 0.0164497140 -0.4528314264
-0.1802388585 -0.0166673056 -0.4286249283
-0.1721173376 -0.0129370861 -0.4354478064
-0.2079169596 -0.0052116600 -0.4237371236
-0.1704532619 0.0149803603 -0.4461909132
-0.2182732797 -0.0189039032 -0.4107275207
-0.1138135918 0.0312894340 -0.2544138515
-0.2274464990 0.0150414704 -0.4187701021
-0.1588812039 -0.0012940530 -0.4456287494
-0.1670643596 -0.0043426441 -0.4389266111
-0.2448357359 0.0147790663 -0.4057136189
-0.1577175743 0.0122212102 -0.4551616805
-0.1805771986 0.0147851207 -0.4689602375
-0.2080790396 0.0228516184 -0.4284592114
-0.2103838897 -0.0238083666 -0.4156787039
-0.1669197954 -0.0062711252 -0.4425385995
-0.2176543124 -0.0374068226 -0.4082723284
-0.1849991166 0.0025003160 -0.4355884622
-0.2288874038 -0.0317349255 -0.4033097450
-0.1754857087 0.0150705692 -0.4412006550
-0.1964293028 -0.0015157101 -0.4304259214
-0.1850794890 -0.0524726824 -0.4199584015
-0.1872154252 0.0077575041 -0.4361229612
-0.2295864666 0.0153756789 -0.4211505711
-0.2219662021 -0.0097604111 -0.4135650794
-0.1819384831 -0.0019515039 -0.4359445331
-0.2223850662 -0.0075365655 -0.4137857479
-0.2000978346 0.0125378438 -0.4309951185
-0.1895262827 -0.0380867574 -0.4219489059
-0.1921633818 -0.0368815711 -0.4201867114
-0.1833561788 -0.0142797682 -0.4287197859
-0.1784151694 -0.0439416879 -0.4246753979
-0.1826416359 -0.0597245937 -0.4194558255
-0.1997123133 -0.0240925993 -0.4227790615
-0.1667811807 0.0161492039 -0.4506122169
-0.1807896278 -0.0395826063 -0.4259526212
-0.2070556510 0.0112213820 -0.4280545329
-0.2100055398 -0.0120014698 -0.4204581928
-0.2050791410 -0.0120005301 -0.4232025196
-0.2029463011 -0.0192843763 -0.4191759545
-0.2046526206 -0.0022012086 -0.4241456012
-0.2104864361 -0.0096668664 -0.4191974483
-0.2429670217 -0.0023577820 -0.3991438344
-0.1694697623 0.0003898622 -0.4429019066
-0.1760375146 -0.0622178657 -0.4199744867
-0.1678279158 0.0021891119 -0.4411669284
-0.1780642283 -0.0553213482 -0.4204004607
-0.1973194091 0.0001270637 -0.4276230771
-0.2209632990 -0.0417445831 -0.4052129660
-0.1793147618 -0.0023798199 -0.4382799949
-0.2156860984 -0.0236520644 -0.4153078842
-0.1975886560 0.0171172183 -0.4364684697
-0.1975723140 -0.0020188253 -0.4276418556
-0.1826851680 0.0118209133 -0.4365709538
-0.1779156438 0.0153560514 -0.4669853692
-0.2173632647 -0.0069217881 -0.4158473232
-0.1979501156 -0.0198046865 -0.4211580224
-0.1981335897 -0.0021934850 -0.4262467387
-0.1924799086 -0.0025799624 -0.4312977706
-0.1656107680 -0.0185188156 -0.4366912023
-0.2145799560 0.0169548865 -0.4383845234
-0.1672201661 -0.0393472399 -0.4338543084
-0.2074053232 -0.0169287522 -0.4204438969
-0.1705111581 0.0202388766 -0.4461320473
-0.2397203060 0.0164995102 -0.4201131816
-0.2022792130 0.0129017755 -0.4290047712
-0.2072108362 0.0102246204 -0.4259187918
-0.1650225290 -0.0145363992 -0.4405790842
-0.2003392887 -0.0614556980 -0.4080934208
-0.1803176331 0.0248870948 -0.4390560150
-0.1919383397 0.0149643282 -0.4306054704
-0.2084030699 -0.0468984563 -0.4126429869
-0.1750573082 0.0069970452 -0.4383861377
-0.1780195974 -0.0440666120 -0.4274580098
-0.2059597822 -0.0390286406 -0.4134480157
-0.1694478124 0.0101218808 -0.4458622237
-0.2281420578 -0.0118486634 -0.4082058757
-0.1576055651 0.0149501891 -0.4538209049
-0.1950292922 -0.0224451513 -0.4232852618
-0.2046470325 -0.0273452613 -0.4180534724
-0.1674542239 0.0137643318 -0.4507385053
-0.1858264288 -0.0506955775 -0.4184235619
-0.2218731866 -0.0289674991 -0.4104085860
-0.1597579932 0.0128462843 -0.4677942454
-0.2194564704 -0.0091417438 -0.4160229670
-0.1806277872 -0.0474872183 -0.4245115952
-0.1587236960 0.0009722574 -0.4479703542
-0.1792970772 -0.0780012672 -0.4036220305
-0.1675505685 -0.0446744600 -0.4314078848
-0.2131744374 -0.0342899808 -0.4129220489
-0.1674927435 0.0169992459 -0.4534529810
-0.1655411720 0.0164211746 -0.4484695792
-0.1596500713 0.0122899058 -0.4705128983
-0.1633690083 0.0159020343 -0.4603660582
-0.1722888783 0.0168318164 -0.4484006783
-0.2052073774 0.0004825505 -0.4260439320
-0.2002799895 -0.0287494335 -0.4181445207
-0.1759526442 -0.0445309083 -0.4269349512
-0.1948301631 0.0172552091 -0.4360572495
-0.2021384473 -0.0103186364 -0.4218090739
-0.2172352118 0.0154027481 -0.4233695531
-0.2194164400 0.0045103339 -0.4214635947
-0.1875304116 0.0027644178 -0.4337849580
-0.2269646562 0.0045256849 -0.4131105856
-0.2396918343 0.0070068244 -0.4061825227
-0.1726369333 0.0075970277 -0.4411588993
-0.1577631955 -0.0074232258 -0.4475154669
-0.1776261454 -0.0578111528 -0.4212534298
-0.1698753856 -0.0196171657 -0.4335032472
-0.1967769563 -0.0844133720 -0.4121817052
-0.1819779568 0.0167232429 -0.4409755108
-0.1584779948 0.0199277569 -0.4523516145
-0.1693705849 0.0155023268 -0.4413075141
-0.1692062320 0.0214696532 -0.4490316286
-0.1855609861 -0.0073491499 -0.4331965234
-0.1801217905 -0.0267857654 -0.4271965280
-0.2303632869 0.0100800054 -0.4118311400
-0.1648627240 0.0025410491 -0.4475378965
-0.2170188555 -0.0315018303 -0.4088427212
-0.1591351885 0.0195145932 -0.4580964116
-0.1780148742 -0.0345130527 -0.4281015835
-0.2035193307 -0.0068256342 -0.4242987438
-0.1776498243 0.0171392101 -0.4459266033
-0.2170464436 0.0061882197 -0.4235721052
-0.1707414046 0.0145132341 -0.4721581892
-0.1901441034 0.0153094439 -0.4659408260
-0.2207540100 -0.0363907620 -0.4072244296
-0.1622602729 0.0140596418 -0.4537415626
-0.2119477782 0.0077786955 -0.4230187888
-0.1934604442 -0.0493842704 -0.4162834746
-0.2392044291 0.0191844292 -0.4076534421
-0.1958433948 0.0096442608 -0.4288390727
-0.2153304197 -0.0074506257 -0.4166649390
-0.1922132478 -0.0092180207 -0.4278931022
-0.1678677255 0.0114624415 -0.4482216546
-0.2127656676 0.0230148701 -0.4249582752
-0.1857780253 0.0155429250 -0.4524669767
-0.1876527076 0.0079275254 -0.4336054993
-0.2316895724 0.0075642738 -0.4105491734
-0.2327527156 0.0230286307 -0.4117039226
-0.1779442145 -0.0097562834 -0.4348893321
-0.2209443534 -0.0039934014 -0.4134508467
-0.1980605972 -0.0424169021 -0.4176350372
-0.1848941376 0.0124835757 -0.4376783414
-0.1848599937 -0.0349843684 -0.4242939784
-0.1741262309 -0.0451608109 -0.4278731522
-0.1778867611 -0.0217363241 -0.4301349986
-0.1828274527 -0.0297718161 -0.4263186422
-0.1954162288 -0.0142210090 -0.4251212363
-0.2037214716 0.0199703594 -0.4315163944
-0.1772019695 -0.0001220198 -0.4378322818
-0.2003577315 0.0134652076 -0.4288679825
-0.1788583834 -0.0739121979 -0.3832475811
-0.2495163853 0.0022017833 -0.3986788724
-0.1993631432 -0.0340536760 -0.4166036364
-0.1604206920 0.0172007100 -0.4558958366
-0.2226823825 -0.0062852823 -0.4162838046
-0.1995328238 -0.0212106321 -0.4232670835
-0.2445722740 0.0002102297 -0.4016736213
-0.2148931188 0.0072975258 -0.4235524636
-0.2075507420 0.0133732226 -0.4291279801
-0.1684401698 -0.0795317526 -0.4105320454
-0.2102188617 0.0145150591 -0.4266215265
-0.2021606310 0.0159332642 -0.4312492810
-0.1921383845 -0.0391091553 -0.4210032587
-0.2255791072 -0.0089950058 -0.4086592975
-0.2165304429 -0.0175399741 -0.4117976753
-0.1973150905 0.0172730780 -0.4303148469
-0.2174733156 0.0141948504 -0.4215466129
-0.1629372463 -0.0182660869 -0.4374426567
-0.1752459731 0.0202440564 -0.4455865762
-0.2402217590 0.0020299690 -0.4015476977
-0.2223536846 -0.0241687833 -0.4061481261
-0.1673074812 -0.0256020036 -0.4373363853
-0.2370100762 -0.0138067312 -0.3982239397
-0.1971410214 0.0129869913 -0.4303856198
-0.1951280730 0.0155447290 -0.4312471599
-0.1853251489 -0.0588730998 -0.4174059074
-0.1645519733 0.0039401543 -0.4437700212
-0.2465966344 0.0157700907 -0.4109602571
-0.1830658219 -0.0518433339 -0.4201651580
-0.1997243057 0.0156457504 -0.4359116234
-0.2252571750 0.0163381036 -0.4323764497
-0.2057171980 -0.0270061278 -0.4160023084
-0.1781017370 -0.0021071651 -0.4363249465
-0.1823006898 -0.0169145331 -0.4303497470
-0.2296974260 0.0158104195 -0.4253110356
-0.2222360583 0.0156922180 -0.4221222379
-0.2198318109 -0.0019226815 -0.4162075090
-0.1954462655 -0.0200915179 -0.4234311463
-0.1881501316 0.0165316806 -0.4430400184
-0.2027806189 -0.0170323166 -0.4212127563
-0.1852540818 -0.0322108578 -0.4258018685
-0.2268265113 0.0177389631 -0.4386338463
-0.1954309467 0.0224570011 -0.4342565018
-0.2332834121 -0.0207425103 -0.4006010426
-0.2352202631 -0.0027887783 -0.4037554846
-0.1797410058 0.0165661485 -0.4413524152
-0.2301079234 -0.0047765342 -0.4086131261
-0.2106947179 0.0179126184 -0.4251372620
-0.1752911338 -0.0070430916 -0.4358776590
-0.2175348362 -0.0045730576 -0.4165626085
-0.2284579304 0.0006203462 -0.4090765421
-0.1863919588 0.0159901578 -0.4509107538
-0.1601284688 -0.0019061118 -0.4489012796
-0.1836044964 0.0157948592 -0.4517349356
-0.1625922701 -0.0022284326 -0.4462754282
-0.2267099023 -0.0064151734 -0.4108422995
-0.1925931845 -0.0246751984 -0.4235792512
-0.2337809056 0.0008858792 -0.4066729844
-0.1798180118 -0.0243627631 -0.4279310333
-0.2257709750 -0.0318460246 -0.4038530944
-0.2269867198 0.0156323510 -0.4241810717
-0.1715321242 0.0149748732 -0.4693745885
-0.2299998850 0.0052284581 -0.4126165676
-0.1774801064 -0.0321941194 -0.4284858927
-0.2321412246 -0.0240856354 -0.4007512839
-0.2207738036 0.0160604786 -0.4300013633
-0.1724616621 0.0003732569 -0.4385215149
-0.1773069556 0.0129468499 -0.4388916380
-0.1935141206 -0.0616803982 -0.4128329467
-0.1874907333 -0.0094227049 -0.4285070763
-0.1810652062 -0.0598269416 -0.4198214982
-0.1971940503 0.0078730798 -0.4304956841
-0.1890925665 0.0155169516 -0.4586124473
-0.1683454470 0.0105250396 -0.4439168095
-0.2026114341 0.0147991317 -0.4278603464
-0.1824279207 -0.0218345817 -0.4278035092
-0.1796461434 0.0098891459 -0.4380112421
-0.2198702411 0.0165336699 -0.4418820285
-0.1881721330 0.0105245157 -0.4309155206
-0.2075570673 -0.0094460382 -0.4236078262
-0.1631993462 -0.0177760130 -0.4397497369
-0.1724308025 -0.0072761688 -0.4362837896
-0.1954305771 0.0178897611 -0.4284002464
-0.1878881026 -0.0372905491 -0.4234926697
-0.2286715156 -0.0329830517 -0.4017694836
-0.2272171451 -0.0308157293 -0.4010071407
-0.2030285015 -0.0281708002 -0.4196849922
-0.2023331571 0.0127652024 -0.4312846275
-0.2321988311 0.0219098861 -0.4146395822
-0.1752912440 -0.0095040667 -0.4333829459
-0.1754585654 -0.0123860510 -0.4310145676
-0.2400014322 0.0022345543 -0.4037432092
-0.1895179451 0.0051543680 -0.4330409466
-0.1607500741 0.0121674658 -0.4727945187
-0.2147466527 0.0030043910 -0.4213633301
-0.1948480193 0.0051269922 -0.4304507346
-0.1634639716 0.0159941050 -0.4580733506
-0.1601974590 0.0049624197 -0.4498685552
-0.1571278718 0.0142971433 -0.4560263950
-0.2098007649 0.0049690329 -0.4224078655
-0.2309864158 -0.0311708595 -0.4016642737
-0.2104056745 -0.0361942730 -0.4155342623
-0.1633856145 -0.0086439741 -0.4435244626
-0.1823963298 -0.0116994244 -0.4325968318
-0.1651247445 -0.0066895026 -0.4435770453
-0.2150356368 -0.0362396477 -0.4102350853
-0.2075616801 -0.0212772585 -0.4181026347
-0.1927438405 -0.0070771963 -0.4277688750
-0.1873154147 0.0110791425 -0.4340604337
-0.1749937625 -0.0173716936 -0.4304232040
-0.2046705390 -0.0293798975 -0.4179632585
-0.1750402062 -0.0424984540 -0.4287669646
-0.1878811947 -0.0578899425 -0.4159842073
-0.1676740795 0.0167597327 -0.4464698732
-0.1932425499 -0.0513203009 -0.4148189020
-0.2048646211 0.0076450915 -0.4277296657
-0.1749591787 0.0194226684 -0.4392709560
-0.2106515318 -0.0059402725 -0.4185675383
-0.2049831450 0.0164630841 -0.4306164682
-0.2013780045 -0.0860135816 -0.4179419712
-0.1757148276 0.0025959819 -0.4368519661
-0.1802967542 -0.0519768245 -0.4212157885
-0.2355123870 0.0205731089 -0.4118191561
-0.1796907900 -0.0164084016 -0.4322277167
-0.2171642298 0.0127440499 -0.4200679021
-0.1749121509 0.0001772866 -0.4380080489
-0.1602653824 0.0140616365 -0.4533384449
-0.1722574901 -0.0496300316 -0.4291941082
-0.2340334342 -0.0291316037 -0.3983650258
-0.2057095497 -0.0487069788 -0.4134684892
-0.2254160941 0.0118986899 -0.4145685732
-0.1820921748 0.0004928753 -0.4361139216
-0.1955364676 -0.0491781024 -0.4163221313
-0.1936273291 -0.0416083862 -0.4163234935
-0.2099767933 0.0138275333 -0.4277531193
-0.2101216488 0.0151887055 -0.4528240957
-0.2424185098 -0.0035549982 -0.4009451907
-0.1649891696 0.0082614921 -0.4436897295
-0.2078891853 0.0150130890 -0.4535217075
-0.1782365030 0.0206637994 -0.4413474519
-0.2254738982 -0.0069244265 -0.4089463153
-0.2094011475 -0.0343678434 -0.4116317826
-0.1901617149 0.0168974704 -0.4343119961
-0.2256051439 -0.0062040346 -0.4115645522
-0.2197973754 -0.0341036249 -0.4043809485
-0.1845426602 -0.0374630849 -0.4236454570
-0.1669537818 -0.0359039303 -0.4350355624
-0.1979960528 0.0208855734 -0.4337475920
-0.2267924772 0.0184208174 -0.4171619224
-0.1998197729 0.0161237989 -0.4499325787
-0.1579757466 0.0218620291 -0.4554806891
-0.2323871020 0.0157377039 -0.4194518641
-0.1579588089 0.0036266342 -0.4483186433
-0.2332052372 -0.0111991267 -0.4041119944
-0.1728597286 0.0154793126 -0.4478350188
-0.1926425086 -0.0121741972 -0.4274427796
-0.2180720493 0.0028003232 -0.4182182618
-0.2281389709 0.0225094440 -0.4188342937
-0.2290151559 -0.0287958730 -0.4056778409
-0.2184979212 -0.0295516724 -0.4036116933
-0.2045185801 -0.0242987754 -0.4187523224
-0.2176589998 0.0008110740 -0.4162183336
-0.2261732648 0.0056555980 -0.4108467137
-0.1729099980 -0.0276348320 -0.4306510040
-0.2016772787 -0.0000741570 -0.4295068005
-0.1649839349 -0.0368185709 -0.4356427728
-0.2173184939 -0.0200394264 -0.4134872266
