0.1555381660 0.0371708717 -0.3276632190
0.1381439686 0.0418373152 -0.3453465459
0.1276701010 0.0059194692 -0.2972165456
0.1478616975 0.0191350841 -0.2768340743
0.1239877443 -0.0111462786 -0.3250387805
0.1572430091 -0.0319422095 -0.2944265295
0.2030027642 0.0138163873 -0.3131288743
0.1891347584 -0.0042859967 -0.3208012622
0.2015018784 0.0092383707 -0.3190786043
0.1777516883 0.0457483601 -0.3107599130
0.1841852967 -0.0193977208 -0.3267104254
0.1396101483 0.0041016048 -0.2960865743
0.1883575253 0.0266316936 -0.3637877245
0.1613840058 -0.0244777448 -0.3275811869
0.1244938947 0.0147560636 -0.3741811570
0.2072958267 0.0336199362 -0.3333719364
0.1744859403 0.0089308502 -0.2939945802
0.1297454097 0.0241223776 -0.2863338604
0.2021268469 0.0073028340 -0.3435576624
0.1793847343 0.0061001964 -0.2965609609
0.1924727609 -0.0015467978 -0.3180777180
0.1714375111 -0.0347985728 -0.3305268125
0.1916210462 0.0106824045 -0.3164524308
0.2039017011 -0.0017054506 -0.3294395284
0.1444074780 0.0115968445 -0.3890770513
0.1812885616 0.0270413788 -0.2855429702
0.1601660943 -0.0389531422 -0.3049598640
0.1356763864 0.0084591181 -0.2831191515
0.1997324220 0.0259214986 -0.3181891086
0.1486295114 0.0103923504 -0.2841723305
0.1779121939 0.0208471658 -0.2935463842
0.1540505761 -0.0019606522 -0.2836555965
0.1470036768 0.0041380238 -0.2939045480
0.1318137072 0.0280542421 -0.3368436867
0.1549370296 0.0328072769 -0.3627042186
0.1995093166 0.0238096490 -0.3182916630
0.1967378828 0.0189210440 -0.3159069588
0.1299111854 0.0397991075 -0.3201903827
0.1471388582 0.0092850303 -0.2893365718
0.1492539503 0.0102542089 -0.3805909191
0.2013824764 0.0174845277 -0.3494461551
0.1624835713 0.0357628222 -0.2811700093
0.1468928519 0.0500493000 -0.3279657791
0.1890806690 -0.0011233195 -0.3119293941
0.1544977251 -0.0290890428 -0.3049312607
0.1068292340 0.0194132130 -0.3303480095
0.1724516837 0.0039628895 -0.2957416415
0.1320789416 0.0010938271 -0.2986157942
0.1572361772 0.0433139020 -0.2935801759
0.1233551703 -0.0306590540 -0.3130619935
0.1875204046 0.0314276666 -0.3030706945
0.1784412339 0.0351979188 -0.3193587721
0.1600303703 -0.0266967098 -0.3225190164
0.1917489265 0.0217303882 -0.3080567319
0.1369552852 -0.0134601498 -0.2923368704
0.1145367702 0.0113368995 -0.3080800604
0.1253591596 0.0312568106 -0.3052185952
0.1186459964 0.0185458400 -0.3286955269
0.1710908326 0.0486053078 -0.3021643880
0.1728718590 0.0351981002 -0.3492347102
0.1282622296 0.0049132313 -0.3060609615
0.1948450954 0.0286691825 -0.3135645511
0.1749019389 -0.0128071363 -0.3434933285
0.1491316308 0.0127223383 -0.3835896843
0.1591549400 -0.0039084415 -0.2939234060
0.1935621905 0.0423842600 -0.3384267646
0.1277736753 0.0334318890 -0.3598477674
0.1401379062 0.0167360880 -0.3041470686
0.1640632887 0.0189181038 -0.2818823416
0.1425282568 0.0143908810 -0.2867859672
0.1427644208 -0.0268622711 -0.3352480274
0.1588649612 0.0373961149 -0.3350769041
0.1762994542 -0.0045663329 -0.3617072373
0.1484382938 0.0384578246 -0.3202275635
0.1486398254 -0.0073645715 -0.2967896315
0.1933999501 0.0256496249 -0.3755323840
0.1594031787 0.0324321029 -0.3098279415
0.1061278756 -0.0216501258 -0.3386693094
0.1340700830 -0.0144925546 -0.3556684186
0.1637649464 -0.0166243346 -0.2982804997
0.1402131915 0.0242258757 -0.2860769480
0.1616427545 0.0030327186 -0.3748435294
0.1817952641 0.0013548592 -0.3057780189
0.1226809318 0.0004780006 -0.3093078963
0.1537214832 0.0365776081 -0.3457024400
0.1420196726 0.0092536284 -0.2914751342
0.1571153742 0.0229469490 -0.3020232159
0.1756029235 0.0366777481 -0.3376643586
0.1918493468 -0.0074138364 -0.3303183420
0.1151430356 0.0114311577 -0.3111088585
0.1319369966 0.0034036671 -0.3083555112
0.1810647963 -0.0013938168 -0.3603456952
0.1799945930 0.0077132694 -0.2943468913
0.1921343692 0.0313736005 -0.3069275469
0.2065498989 0.0260125032 -0.3262463584
0.1901502682 0.0311793641 -0.3058917023
0.2197916057 0.0264513116 -0.3467639460
0.1464968824 0.0318824445 -0.3559000648
0.2014182295 0.0036393130 -0.3255407881
0.1268619114 0.0406280040 -0.3228425748
0.1996837409 0.0280457255 -0.3183613665
0.1922235833 -0.0033020246 -0.3203042858
0.1627655307 0.0453485053 -0.3145421421
0.1302986503 0.0286481063 -0.2859753040
0.1196739397 0.0179915335 -0.3655914347
0.1322230311 0.0082667804 -0.2967018990
0.1302196383 0.0083684013 -0.2968556732
0.1692193577 0.0419839561 -0.3184290156
0.1414357539 -0.0261042920 -0.2895402731
0.1407882718 -0.0064607419 -0.3710575071
0.1406776247 0.0406649236 -0.3406882938
0.1476218914 0.0148458508 -0.2796115025
0.1250105087 0.0188958307 -0.2959522016
0.1211392466 0.0072695993 -0.3112533012
0.1416667208 0.0430425176 -0.3068171788
0.1546629187 0.0419201375 -0.2959891534
0.1944004964 0.0083485595 -0.3165058674
0.1425533778 -0.0172920930 -0.3496683579
0.1983464259 0.0398605325 -0.3328986984
0.2031740576 0.0322579854 -0.3354987901
0.1765221293 -0.0130304764 -0.3335364516
0.1377172837 0.0284502215 -0.2915795954
0.1773804724 0.0332204960 -0.2955268919
0.1839528732 0.0159472342 -0.2964277096
0.1191094544 0.0204612326 -0.2959914471
0.1727857292 -0.0163107282 -0.3260015845
0.1693238975 0.0349168210 -0.3686120679
0.1247833033 0.0092692127 -0.2962424114
0.1896546301 -0.0192389816 -0.3391120439
0.1324938751 0.0031999309 -0.2980605452
0.1284485406 0.0383731200 -0.3235557890
0.1735052176 -0.0146167839 -0.3381038989
0.1975933340 0.0014554215 -0.3183824293
0.1647393615 -0.0101931584 -0.3072270011
0.1645244663 0.0289046013 -0.3156570432
0.1359484227 -0.0419205546 -0.3210522460
0.1332227748 0.0008667655 -0.2845675869
0.2121424180 0.0315222047 -0.3360500275
0.1072286996 0.0291320859 -0.3329031445
0.1820613564 0.0090857630 -0.2959643127
0.1596862347 -0.0198814065 -0.3054061462
0.1587181647 -0.0477951881 -0.3493923670
0.1524049759 0.0405393601 -0.3346591862
0.1251490632 0.0217767088 -0.2939088664
0.1090336835 0.0203965013 -0.3217905286
0.1305580717 0.0274834763 -0.3818481294
0.1748953555 -0.0285042116 -0.3189234906
0.1542679411 0.0011549801 -0.2956419774
0.1973169913 0.0155354084 -0.3095018169
0.1581073726 0.0472884162 -0.3112206491
0.1757436240 0.0152061017 -0.2840886841
0.2052928981 0.0128286508 -0.3287412702
0.1340529174 0.0331395753 -0.2936424315
0.1266659390 0.0169715090 -0.2958720592
0.1621035853 -0.0174352320 -0.3427358101
0.1199851069 0.0136429059 -0.2984262735
0.1551370558 -0.0162673783 -0.2839559179
0.1518682168 0.0112140215 -0.2845593127
0.1725117366 0.0156962794 -0.2915459275
0.1221806666 -0.0164489825 -0.3499876197
0.1229911849 0.0055437663 -0.2967473962
0.1721650299 0.0216850379 -0.2909283293
0.1776298306 0.0413637126 -0.3146618843
0.1795961595 0.0158927208 -0.2955689993
0.1088030109 -0.0010681598 -0.3165813293
0.1427306006 0.0342690579 -0.3633402326
0.1415056600 0.0387016601 -0.3234208507
0.1566708418 0.0446605123 -0.3331007237
0.1856302986 0.0356528345 -0.3003120882
0.1795131727 -0.0039307396 -0.3086907505
0.1221845004 0.0249311074 -0.3154430655
0.1792473837 0.0449840794 -0.3407800811
0.1326947087 0.0427829243 -0.3205960502
0.1948717799 0.0361321007 -0.3176136310
0.1795518122 -0.0119188834 -0.3212597163
0.1510275320 -0.0279577642 -0.2946028204
0.1695820412 0.0416426669 -0.3690914363
0.2020264640 -0.0037334730 -0.3292561918
0.2126493397 0.0306819466 -0.3155595471
0.1799896095 0.0005625834 -0.2954347289
0.1818933285 -0.0115876819 -0.3234211825
0.1500920969 0.0414548846 -0.3252746731
0.1301425786 0.0210378576 -0.2891274744
0.1936924011 -0.0277848020 -0.3556331098
0.1598064452 0.0476792976 -0.3011680841
0.1743669186 0.0140740828 -0.2931346457
0.2191226196 0.0138258053 -0.3412938479
0.1183610533 0.0298432078 -0.3078036976
0.1820451546 0.0306604921 -0.3161348391
0.1584380955 0.0252813222 -0.3877449182
0.1314328952 0.0303091673 -0.3024668763
0.1325173109 0.0251487464 -0.3801435843
0.1774611141 0.0137814133 -0.3760590107
0.1582440855 -0.0404727800 -0.3463640645
0.1349659422 0.0270343670 -0.3215489106
0.1551664759 0.0130133546 -0.2845285608
0.1694664097 0.0267944197 -0.2948242333
0.1333823212 -0.0384452305 -0.3045293950
0.2057683519 0.0262321905 -0.3215511398
0.1770756891 -0.0082481170 -0.3112697628
0.1398913028 -0.0011965510 -0.3743626861
0.1448223643 -0.0118344790 -0.3618516233
0.1196769216 -0.0017993602 -0.3286236368
0.1900914854 0.0209848154 -0.3065668325
0.1581858868 0.0412196101 -0.3475401352
0.2051750000 0.0182824132 -0.3233550305
0.1642968375 -0.0008690410 -0.2970433082
0.1641254520 -0.0113004045 -0.2981208717
0.1621351882 0.0403697596 -0.3078263345
0.1338344903 0.0297994745 -0.3508571725
0.2092029835 0.0225727156 -0.3238732072
0.1280158364 0.0336268183 -0.3084736770
0.1745919882 0.0093539884 -0.3643481092
0.1878372378 0.0415966463 -0.3214389734
0.2052664378 0.0163405648 -0.3428360983
0.1215773156 0.0217832846 -0.2904000291
0.1638656464 0.0259903683 -0.2828652167
0.1330473147 -0.0059913316 -0.3156625354
0.1566033461 -0.0322104220 -0.3037452320
0.1401788090 0.0296768120 -0.3034686987
0.1775296058 0.0086816866 -0.2957973490
0.1668883392 0.0329921473 -0.3141005795
0.1712532848 -0.0316394376 -0.3552096956
0.1262116380 0.0331465654 -0.3067365372
0.1501327662 -0.0422618190 -0.3151749024
0.1920502823 -0.0161962378 -0.3411551758
0.2048659844 0.0312794800 -0.3228703870
0.1642458088 0.0460318325 -0.2935181650
0.1132465530 0.0242115959 -0.3292083039
0.1653040918 -0.0371612569 -0.3289199854
0.2018186791 0.0235813018 -0.3210354459
0.1911614298 0.0347161294 -0.3529418117
0.2068601588 0.0289294106 -0.3183738037
0.2005656696 0.0215367771 -0.3610944974
0.1920949769 0.0134897607 -0.3084975484
0.1292118906 -0.0075195700 -0.3289432187
0.1905422003 -0.0087547380 -0.3574038857
0.1632731518 -0.0171010134 -0.3215657372
0.1465498579 0.0312792082 -0.2881678414
0.1876561955 -0.0018457846 -0.3133182145
0.1323873209 -0.0212069058 -0.3388023789
0.1584444527 0.0006870711 -0.2860962597
0.1220557096 -0.0292765416 -0.3218208094
0.1149868493 -0.0056655518 -0.3686372773
0.1775616700 -0.0234690972 -0.3431912216
0.1672823191 0.0234410178 -0.2856326981
0.1406352073 0.0388220064 -0.3010599613
0.1570271170 0.0333483948 -0.3123662178
0.1735006085 0.0006406875 -0.3567988342
0.1332965449 0.0313732331 -0.3150373072
0.1724748920 0.0212051579 -0.2839320534
0.1793258296 0.0134383113 -0.2955796706
0.1155018870 -0.0063307992 -0.3103241943
0.1728537440 -0.0382534401 -0.3201479039
0.1453533347 0.0203423866 -0.3812592624
0.2075950953 0.0273548055 -0.3568255328
0.1392959906 0.0284860636 -0.2839256861
0.1350339912 0.0229161834 -0.2988163253
0.1788486812 0.0346761788 -0.2979724557
0.1778008031 -0.0228812713 -0.3502248909
0.1514698702 0.0352895410 -0.2830227449
0.1497763716 0.0311361007 -0.2888732686
0.1620965765 -0.0479399631 -0.3523251057
0.1571312341 0.0316593852 -0.2832982280
0.1309344464 -0.0246228253 -0.2948623877
0.1876187474 0.0362126355 -0.3010311524
0.2111318618 0.0269496311 -0.3582301629
0.1466775693 -0.0241641208 -0.3394641329
0.1483026558 0.0329515802 -0.3006172111
0.2015820758 0.0339987844 -0.3332919089
0.1549512601 0.0084986037 -0.2725721603
0.1680059816 0.0485459714 -0.3003153617
0.2026936700 0.0269107988 -0.3287122473
0.1601749593 0.0038524736 -0.2796527933
0.1743082593 -0.0105983088 -0.3423276323
0.1725469145 -0.0123778393 -0.3093348821
0.1943392164 -0.0046493414 -0.3254620952
0.1676168296 0.0410482327 -0.3547958254
0.1547507014 -0.0385494420 -0.2972419451
0.1435077264 0.0412274528 -0.3213456969
0.1826623761 0.0573779105 -0.2998721024
0.1786422133 0.0130058760 -0.2896249592
0.1556197632 -0.0319970590 -0.3373553685
0.1568861616 0.0510646125 -0.3142932780
0.1509746903 -0.0307974368 -0.3058669294
0.1763514131 -0.0164607558 -0.3324969113
0.1484024928 0.0083370276 -0.2807014724
0.1917110037 0.0347783987 -0.2943206256
0.1398118703 0.0337542709 -0.3127528007
0.1638261059 0.0133993825 -0.2861193526
0.1369796845 -0.0316687997 -0.2994784126
0.1746768517 -0.0070722376 -0.3113313595
0.1350168763 -0.0070479751 -0.3138986141
0.1769327704 0.0062059961 -0.2935986973
0.1920735498 -0.0113122442 -0.3331863721
0.1318795766 -0.0178266003 -0.3683458420
0.1439812158 0.0007846474 -0.2994088235
0.1802147446 0.0430931584 -0.2884835303
0.1151649625 0.0141019507 -0.3083658543
0.1472663216 0.0188921374 -0.3887456137
0.1100328327 0.0065006785 -0.3137981706
0.1722119395 -0.0325842310 -0.2943199661
0.1465520470 -0.0151448081 -0.2890315829
0.1642987660 0.0426679479 -0.3081868590
0.1615490171 0.0125173804 -0.3751680223
0.1737700778 0.0396058535 -0.3377326528
0.1185095325 0.0345315507 -0.3126726146
0.1325190498 0.0313669620 -0.2941803502
0.1369609008 0.0336942028 -0.2942999707
0.1438628509 0.0341978624 -0.3856905647
0.1183411509 0.0137017970 -0.2970579021
0.1859597201 -0.0118666917 -0.3434510993
0.1452149503 0.0187988066 -0.2842690224
0.1960584982 0.0193848465 -0.3015770911
0.1188148931 0.0012865663 -0.3725547484
0.1319549876 0.0310623797 -0.2961464272
0.1290217420 0.0384964246 -0.3671566158
0.1597028180 0.0082429794 -0.3768216158
0.2043820809 0.0379043948 -0.3377346032
0.1621627196 0.0417978910 -0.2903333470
0.2057060748 -0.0012046529 -0.3343028724
0.1733438679 0.0453301459 -0.3346637908
0.1497569829 0.0032450410 -0.2952638566
0.1917882155 0.0311854390 -0.3463488630
0.1896170253 0.0019115961 -0.3094629256
0.1469030566 0.0030279242 -0.2955651563
0.1985603095 0.0337553203 -0.3417834280
0.1771882203 -0.0059475881 -0.3087956746
0.1627812084 0.0071614935 -0.2843264912
0.2047696601 0.0044803786 -0.3220735194
0.1288901597 0.0293605341 -0.3032514290
0.1770820312 -0.0178046876 -0.3242887907
0.1738076462 -0.0087370032 -0.3097419997
0.1765132098 0.0142245977 -0.3686159432
0.1369782257 -0.0164869275 -0.2875536095
0.1164930448 0.0360882345 -0.3590300764
0.1287032499 0.0025985529 -0.2879993262
0.1676879532 -0.0356648587 -0.2970865612
0.1917938904 -0.0163265820 -0.3316432875
0.1428226598 -0.0159662534 -0.2888862771
0.1470906977 0.0295316322 -0.3800842838
0.1739320648 0.0194046362 -0.3711038658
0.1651271246 0.0292017048 -0.2939749555
0.1542867506 -0.0138475685 -0.3627583938
0.1815725394 0.0408591252 -0.3074933418
0.1580609182 0.0517291715 -0.3035752052
0.1538377899 -0.0290638170 -0.3015441688
0.1140581423 0.0041602452 -0.3108659545
0.1771220044 -0.0155966087 -0.3196366514
0.1821745774 0.0085321692 -0.2986303790
0.1565793127 -0.0528981936 -0.3230214269
0.1812069329 0.0539792013 -0.2956396681
0.1161701020 0.0081691426 -0.3059378584
0.1954961228 0.0390794729 -0.3488960995
0.1854417588 0.0211134230 -0.3733763354
0.1774161264 0.0487664803 -0.3038011952
0.2086447547 -0.0013994510 -0.3335264833
0.1795385027 0.0061609678 -0.2944438708
0.2075604191 0.0290184512 -0.3306560967
0.1348944957 0.0317108738 -0.2905030633
0.1981345111 0.0046737475 -0.3225146304
0.1589100233 0.0253994871 -0.2813245438
0.1513342774 0.0238770461 -0.2882328427
0.1441731218 0.0217876668 -0.3697685760
0.1839963617 -0.0084518940 -0.3029612003
0.1873414708 0.0079509971 -0.3041927848
0.1187745854 0.0092690317 -0.3040280938
0.1773202296 0.0130866093 -0.2929983589
0.1512254788 0.0416122344 -0.2960280800
0.1644481897 0.0431174287 -0.3182412505
0.1932536262 -0.0100791370 -0.3192014459
0.1650380261 0.0156181591 -0.2867129868
0.1996191040 0.0081669931 -0.3180095892
0.1292305735 0.0214957741 -0.2863746424
0.1790857138 0.0151891877 -0.3719034322
0.1163549373 0.0028909821 -0.3679251559
0.1643731570 0.0384992267 -0.3505710696
0.1183862896 -0.0029258894 -0.3670009018
0.1425387358 0.0199669946 -0.3866714831
0.1874317965 0.0284709547 -0.3163125365
0.2166762252 0.0233573114 -0.3415175765
0.1543635265 0.0427689457 -0.3126817388
0.1878911158 0.0341531589 -0.3195348640
0.1782274285 -0.0109908616 -0.3088210954
0.1751689123 -0.0026948402 -0.3520384116
0.1519664688 -0.0131325027 -0.2822711211
0.1676906188 0.0230683021 -0.3728563823
0.1173508972 0.0176490207 -0.3390906022
0.1935447118 0.0015812140 -0.3158850819
0.1266903093 0.0398880048 -0.3259144199
0.1285233513 0.0193782622 -0.3014807928
0.1820935032 -0.0088427900 -0.3188136795
0.1541857592 0.0460035722 -0.3330368269
0.1695576807 -0.0032880670 -0.2973156023
0.1445241317 0.0064807853 -0.3838205035
0.1601480241 0.0088486546 -0.2857812338
0.1515515420 -0.0034855345 -0.2992698280
0.1537312671 0.0259674444 -0.3766601653
0.1259772157 -0.0334936355 -0.2958100328
0.1323167639 0.0176224405 -0.3061149128
0.1282732619 -0.0229239344 -0.3258269593
0.1847724401 -0.0039174861 -0.3174406964
0.2038441027 0.0342934364 -0.3259676030
0.1716920566 -0.0068471683 -0.2962135363
0.1799606445 -0.0204776054 -0.3664461760
0.1766546730 0.0017002616 -0.2984441590
0.1604053428 0.0238722311 -0.2877661070
0.1499988074 0.0401728659 -0.3182268016
0.1313390583 -0.0048767249 -0.3075972199
0.1692302085 -0.0310066842 -0.3046339750
0.1743518950 0.0097267851 -0.3578302958
0.1595843941 -0.0021138135 -0.3690663565
0.1793956232 0.0311907779 -0.3730947997
0.1555511557 -0.0445135495 -0.2999478151
0.1201864630 0.0059395231 -0.3137850334
0.1075438673 0.0129101645 -0.3316655435
0.1471257584 0.0404903913 -0.2957753005
0.1624491947 0.0206850224 -0.2881711125
0.2127319127 0.0041433203 -0.3335846364
0.1515928025 0.0335847434 -0.2830475164
0.1223446640 0.0230066832 -0.3399152715
0.1929560512 0.0286992599 -0.3697816837
0.1416269382 -0.0280043584 -0.2917105357
0.1206646587 0.0108045202 -0.2947009777
0.1462198018 0.0262979731 -0.3719280639
0.1732647879 0.0094643196 -0.2957115180
0.1306794083 0.0256424287 -0.3398147884
0.1231327602 0.0143679354 -0.3329163426
0.1905556751 0.0288807933 -0.3067102519
0.1712790304 0.0345988451 -0.3611158478
0.1489335967 0.0287782357 -0.2888552367
0.1396266493 -0.0028205951 -0.2821853315
0.1601088335 0.0343327556 -0.3158725887
0.1644440530 0.0208031733 -0.2839924390
0.1831186078 0.0040794964 -0.3713351973
0.1588408353 -0.0162254847 -0.3485474014
0.1184302423 -0.0072620903 -0.3293359802
0.1479972132 0.0136176044 -0.2847433242
0.1257176116 -0.0090003952 -0.3030249544
0.1845742059 0.0218011943 -0.2982917938
0.2001113426 0.0312829024 -0.3256431689
0.1341351876 0.0370873651 -0.3497997142
0.1511195399 -0.0193975793 -0.2937663227
0.1816374453 0.0036624112 -0.3019081488
0.1986609355 -0.0038859835 -0.3282794790
0.1905819833 0.0291928671 -0.3518484703
0.1502140229 0.0416129249 -0.3278016533
0.1385664906 -0.0210660674 -0.3435799353
0.1421534674 0.0262688139 -0.2946145548
0.1426772181 0.0128792841 -0.2766616536
0.1646114737 0.0176539533 -0.2875252664
0.1189871442 0.0331736156 -0.3725925516
0.1645238347 0.0462101768 -0.3252131558
0.1543148760 0.0352280311 -0.3153379406
0.1288335785 0.0252029578 -0.3579314675
0.1566674659 0.0069147419 -0.2910777612
0.1363075793 0.0090047568 -0.2953605831
0.1579953194 0.0162787220 -0.2771500550
0.1212933357 0.0209710829 -0.3559565877
0.1692706123 0.0335702849 -0.3443513355
0.1374820039 0.0015456336 -0.2949726774
0.1395333490 0.0152031489 -0.3868827833
0.1601516244 0.0411624722 -0.3188489313
0.1846210550 0.0005129314 -0.3015160903
0.1193383095 0.0015350034 -0.3311408933
0.1420551786 -0.0138147835 -0.2758333175
0.1919110997 0.0292699808 -0.3220893068
0.1780029028 0.0453631145 -0.3080569354
0.1178123951 0.0095372395 -0.3735154480
0.1256713230 -0.0102382206 -0.3158818497
0.1745800034 0.0019482424 -0.2871298063
0.1924854517 0.0313284830 -0.3103541974
0.1226710543 -0.0284684133 -0.3477732920
0.1394120833 0.0343548165 -0.3317603983
0.1936429739 0.0315456279 -0.3103141189
0.1664593356 0.0275517876 -0.2853816093
0.1779753281 0.0381238205 -0.3596766250
0.1332315601 0.0326089044 -0.3392526912
0.1196909642 0.0303794068 -0.3278999633
0.1520806405 -0.0482754117 -0.3401609966
0.1923818142 0.0027020352 -0.3177524727
0.1436089695 0.0286455262 -0.3821612971
0.1206159137 0.0062112565 -0.3215228716
0.1180901348 -0.0221403697 -0.3539657850
0.2118147534 0.0081875231 -0.3316645659
0.1884197649 0.0286286548 -0.3251390781
0.1744418060 -0.0090430932 -0.3138167522
0.1321215268 -0.0055058118 -0.3607580909
0.1467471188 -0.0123744802 -0.3141008629
0.1447974000 -0.0088811796 -0.3063832311
0.1494563870 0.0276546837 -0.3693607774
0.1627135609 -0.0208141626 -0.3321246365
0.1523530328 0.0307525085 -0.2882749586
0.1466738741 0.0286216744 -0.2844623799
0.1896550175 0.0409651756 -0.3110950848
0.1376920851 0.0307378954 -0.3550205823
0.1499871549 -0.0155139156 -0.3492267955
0.1343085619 -0.0435377064 -0.3005757012
0.1822576209 0.0034504586 -0.3050098603
0.2167381942 0.0190290725 -0.3361798078
0.1610813721 -0.0191929232 -0.3504032080
0.1753921889 0.0310491801 -0.2908691229
0.2113570654 0.0242829388 -0.3355603185
0.1824459196 0.0360523906 -0.3322041449
0.1908708437 0.0106760082 -0.3240337365
0.1848626042 0.0040005646 -0.3039583180
0.1131141966 0.0200791195 -0.3440061113
0.1798918386 0.0412261365 -0.3282182245
0.1694904596 0.0295519334 -0.3515870976
0.1946404109 -0.0024022405 -0.3238563580
0.1951170783 0.0157806917 -0.3138151474
0.1877177627 0.0384796642 -0.3117100385
0.1581827139 -0.0011552236 -0.2806680780
0.1548773710 0.0210251438 -0.2886939756
0.1267102568 -0.0206755027 -0.3230629848
0.1522909250 0.0251952999 -0.2841675209
0.1539434523 -0.0483964501 -0.3477680263
0.1268056829 0.0085659552 -0.3335359063
0.1359019225 0.0325449554 -0.2826883486
0.1282676820 0.0197783136 -0.3810713896
0.1872210674 0.0028238658 -0.3568507150
0.1448253671 -0.0066531340 -0.3057899361
0.2010278492 0.0026057459 -0.3363241913
0.1269692311 0.0290053516 -0.3761585127
0.1305685246 0.0352341271 -0.3486061183
0.1542731135 0.0193800449 -0.2836661383
0.1563757371 0.0189772190 -0.2838218228
0.1402610319 0.0061439798 -0.3832480936
0.1824655729 -0.0152297390 -0.3599628046
0.1483961021 0.0149243513 -0.3871131205
0.1616014713 0.0477368916 -0.2983695903
0.1592470139 -0.0056745262 -0.2988600411
0.1840702327 0.0236456119 -0.3692291593
0.1641979622 -0.0088457232 -0.3062252937
0.1358367013 0.0371236825 -0.3626264832
0.1722023693 0.0438238946 -0.3422564130
0.1804789373 0.0264640584 -0.3451552192
0.2152785936 0.0262827477 -0.3326882565
0.1163416700 0.0274098734 -0.3135838573
0.1640917733 0.0201888901 -0.3763757149
0.1451263926 -0.0361082325 -0.3096292301
0.1216154996 -0.0100493409 -0.3643040969
0.1398807879 0.0233339646 -0.2906887220
0.1387217891 -0.0321952354 -0.3086291213
0.1621733161 0.0188279193 -0.2840524332
0.1260798041 -0.0415680484 -0.3064422095
0.1327321432 0.0405795720 -0.3246676626
0.1614141713 -0.0441485734 -0.3054848369
0.2069887790 0.0284787933 -0.3285268786
0.1965621238 0.0133797577 -0.3140978517
0.1611845496 -0.0419329669 -0.3184365926
0.1382766760 0.0080170228 -0.3796054115
0.1721803099 0.0311828725 -0.3495188219
0.2116277218 0.0313243475 -0.3333777769
0.1363135150 -0.0249402996 -0.2916526909
0.1392603909 0.0431066960 -0.3667991931
0.1143841971 0.0029906952 -0.3319385272
0.1334265485 -0.0038516175 -0.3852317913
0.1742161263 -0.0337804704 -0.3620001491
0.1718988999 0.0382116046 -0.2862223152
0.1257260550 0.0280950014 -0.3101442681
0.1963169546 0.0344409790 -0.3265270945
0.2144860181 0.0181688852 -0.3333823923
0.1435361550 0.0394841814 -0.3709039060
0.1590644130 0.0029078384 -0.2931765798
0.1701325237 0.0292437335 -0.2965303192
0.1496446621 -0.0062333189 -0.3035279957
0.1250205001 0.0264998248 -0.3009830945
0.1423725072 0.0320227764 -0.3647441327
0.1781228781 0.0382614248 -0.2927050591
0.1245583509 0.0246819335 -0.3207439224
0.1551486853 0.0410640830 -0.3086718001
0.1720340605 -0.0212925027 -0.3286248257
0.2048745353 0.0184286817 -0.3063333038
0.1848548140 0.0464732745 -0.3073417734
0.1492555420 0.0387493543 -0.3418247093
0.1520805939 -0.0360961388 -0.3343429789
0.1640462735 -0.0232751493 -0.3089450699
0.1117449610 0.0211097938 -0.3391067339
0.1587724434 -0.0514995971 -0.3399806867
0.1427377981 -0.0165715916 -0.2834962706
0.1555206925 -0.0452624601 -0.3312885753
0.1441178663 -0.0341605883 -0.3014366453
0.1464476797 0.0290515882 -0.2961423807
0.1714574731 0.0461364385 -0.2911279138
0.1269620505 -0.0042347321 -0.3630935846
0.1779029176 0.0377421737 -0.3270596445
0.1598357074 0.0347926698 -0.2810175724
0.1417894555 0.0095923408 -0.2894550475
0.1230273230 0.0132491675 -0.3537863889
0.1930560157 0.0368174237 -0.3284318249
0.1223857283 -0.0005397063 -0.3197025541
0.1083615381 0.0092868462 -0.3241659377
0.1856633410 -0.0103724029 -0.3371695571
0.1496745381 -0.0557451632 -0.3306450460
0.1865766681 0.0413713620 -0.3464679188
0.1518576556 0.0360378973 -0.3403423909
0.1446389385 0.0258951625 -0.2859847403
0.1677382417 0.0458376715 -0.3319641167
0.2040856779 -0.0012377960 -0.3319553137
0.1119686224 0.0329785434 -0.3175516126
0.1505131705 0.0013711941 -0.3719350587
0.1440030173 -0.0103538573 -0.3566917742
0.1688824241 0.0356570411 -0.3200036238
0.1758394833 -0.0320182458 -0.3403072745
0.1718360364 -0.0111835748 -0.3153129254
0.1312020055 0.0012402420 -0.3019283246
0.1997669786 0.0304079968 -0.3384289035
0.1303970440 0.0341789582 -0.3132863978
0.1398575966 0.0092478443 -0.2889203097
0.1847560600 -0.0071956350 -0.3477360564
0.1771781769 0.0276542597 -0.3710966775
0.1596835541 0.0187707532 -0.2843274632
0.1643957692 -0.0159672336 -0.3528962172
0.1444477754 0.0344233087 -0.3608149303
0.1188466267 0.0365962343 -0.3589348940
0.1548155776 -0.0076899394 -0.3642549004
0.1958557470 -0.0015402219 -0.3392126486
0.1854403637 -0.0285306641 -0.3329497926
0.1073926166 0.0167497924 -0.2956450616
0.1242565792 -0.0193003610 -0.3638850568
0.1740392754 0.0060017379 -0.2918488144
0.2144136564 0.0237419571 -0.3312895065
0.1847857943 -0.0067991129 -0.3181609211
0.1999034450 0.0133799126 -0.3188690916
0.2073862705 0.0207606548 -0.3239053978
0.1722374489 -0.0113611617 -0.3058328088
0.2118936673 0.0215213676 -0.3315902055
0.1662659399 0.0406467468 -0.3397898966
0.2015841370 0.0232058234 -0.3654665045
0.1879320182 0.0314247529 -0.3127213772
0.1330477283 -0.0335842336 -0.2988975975
0.1588981059 0.0464123729 -0.2995994072
0.1529835113 0.0015075723 -0.2846350141
0.1962912584 0.0127957687 -0.3344739774
0.1796458992 0.0307190304 -0.3697057573
0.1776521741 0.0045556004 -0.2945151652
0.1828281969 -0.0198267678 -0.3204612301
0.1659797022 -0.0227033507 -0.3299783428
0.1814397232 0.0528457051 -0.2992961716
0.1896563760 0.0516029309 -0.3122464483
0.1368472497 -0.0152849267 -0.3723266195
0.1748130795 0.0429496577 -0.3136847312
0.1396971406 0.0136585261 -0.2890610446
0.1337151430 0.0036089346 -0.2984587742
0.1233299569 -0.0032813289 -0.3735629342
0.1262555198 0.0193627134 -0.3649628201
0.2045973963 0.0289430418 -0.3302162636
0.1371072720 0.0269499173 -0.2815233120
0.1246194601 -0.0040721765 -0.3086533555
0.1561621577 0.0393852473 -0.3375558929
0.1836653671 0.0286468490 -0.2978563396
0.1354658430 0.0332020088 -0.3074253515
0.1348004741 -0.0335036313 -0.3165329469
0.1339911453 0.0049141782 -0.2878297028
0.1913378807 0.0115916400 -0.3638704603
0.1597694858 -0.0339431041 -0.3328691811
0.1165407486 0.0112799334 -0.2969781594
0.1693252437 0.0331014758 -0.2865275734
0.1318330537 0.0323500410 -0.3693365043
0.1863327147 -0.0075284197 -0.3059990855
0.1158739477 0.0152807990 -0.3022548556
0.1400794891 -0.0067917188 -0.2929192604
0.2054674883 0.0260147130 -0.3083935690
0.1690686031 0.0285363944 -0.2815132565
0.1264253284 -0.0082561197 -0.2996017899
0.1340746422 -0.0093005602 -0.3210669556
0.1821436949 0.0166102384 -0.3643238453
0.1612907549 -0.0232555501 -0.3405085439
0.1767805638 -0.0143562417 -0.3257157029
0.1454712562 0.0383273070 -0.2913340274
0.2138443808 0.0225228666 -0.3555117470
0.1749833685 0.0060864933 -0.2936265392
0.1438134326 0.0404793312 -0.3113035628
0.2163987327 0.0283225174 -0.3458615687
0.1463241138 0.0361132861 -0.2867099429
0.1286141910 -0.0025343539 -0.3295818070
0.1526511201 0.0253832202 -0.3659086502
0.1540222742 -0.0165977949 -0.3478187421
0.2049679218 0.0233055720 -0.3259059893
0.1525763370 0.0087849728 -0.2844034261
0.1573541495 -0.0113725436 -0.3086848066
0.1377030109 0.0352043184 -0.3700998089
0.1353688049 0.0387075744 -0.3307445350
0.2040710470 0.0003097801 -0.3275441280
0.1792884292 0.0413270014 -0.2929437138
0.1585099198 -0.0299210078 -0.2973279800
0.1252802971 0.0323767832 -0.3269456099
0.1746009535 0.0286569567 -0.2857530423
0.1639936025 0.0520062737 -0.3026556063
0.1350769051 0.0387841469 -0.3446429272
0.1719617812 -0.0319179366 -0.2975298966
0.1499838141 -0.0145481008 -0.2988540612
0.2103350617 0.0296590263 -0.3294757613
0.1772462506 0.0327436544 -0.3726078335
0.1591041502 0.0351946084 -0.3730669186
0.1492647015 -0.0337382514 -0.3087872150
0.1874361903 0.0411947654 -0.3432302331
0.1437539517 0.0347152116 -0.3651335236
0.1169105255 -0.0094075100 -0.3643423554
0.1821897431 0.0136649547 -0.3037216045
0.1158773667 -0.0219632079 -0.3342311768
0.1455049889 -0.0332637837 -0.3058284240
0.1711804516 -0.0184478989 -0.3286295469
0.1571425730 -0.0452775935 -0.3098500367
0.1900542616 0.0110848204 -0.3058996308
0.1302352395 -0.0199451620 -0.3620344602
0.1852414840 0.0436077461 -0.3032108217
0.1516752414 -0.0300145892 -0.3226457504
0.1325945460 -0.0048638029 -0.2889389646
0.1620550726 -0.0460862657 -0.3193777057
0.2020230984 0.0032872334 -0.3233519399
0.1216322591 0.0285695884 -0.3032410902
0.1421388634 0.0361376383 -0.2886835042
0.1898619783 0.0388381047 -0.3416067986
0.1588659198 0.0444445282 -0.2953247337
0.1351994135 0.0330839391 -0.3686133956
0.1709357649 0.0052583916 -0.2928617895
0.1727295672 -0.0296790560 -0.3041734255
0.1923251966 0.0401203797 -0.3078108627
0.1938307947 0.0219775151 -0.3411874290
0.1812727150 0.0411042641 -0.3468537226
0.2186740168 0.0266203907 -0.3431350230
0.1728028564 -0.0217813635 -0.3270873074
0.1620837681 0.0356807279 -0.2864385332
0.1851044043 0.0386731890 -0.3015387756
0.2090660877 0.0319106492 -0.3129593987
0.1546049285 -0.0117927157 -0.3087988063
0.2073253959 0.0270103933 -0.3432994159
0.2071543047 0.0362591274 -0.3452121790
0.1267782510 -0.0210446268 -0.3280630361
0.1870691972 0.0211554859 -0.3106996544
0.1959071774 -0.0025832085 -0.3490828244
0.1768981216 0.0112534008 -0.2931840434
0.1737064690 -0.0195818042 -0.2937177921
0.1715404781 -0.0253275896 -0.3211650166
0.1441477625 -0.0425809884 -0.2977673315
0.1627332256 0.0351035670 -0.3546627861
0.1847918499 0.0379156197 -0.3680938154
0.1409000491 0.0011530599 -0.2923467781
0.1081895807 0.0032777640 -0.3119965733
0.1828599647 0.0463775527 -0.3036167771
0.1142712038 0.0106941550 -0.3040442665
0.1886923369 -0.0084887629 -0.3170494171
0.1737329806 -0.0130570549 -0.3574929575
0.1016454962 0.0208835140 -0.2999144420
0.1943880165 0.0039642272 -0.3137781585
0.1425237304 0.0230193558 -0.2881926898
0.1794480599 0.0404252203 -0.3005124063
0.1781191663 0.0418584863 -0.3099454609
0.1538691651 -0.0232098314 -0.2991759182
0.1149379987 0.0121987194 -0.3157278276
0.1412725317 0.0197959246 -0.2836427779
0.1787655266 0.0030160824 -0.3011572689
0.1189237811 0.0220335391 -0.3447706853
0.1217869159 0.0244512341 -0.3483075897
0.1938039362 0.0107464669 -0.3124479949
0.1879279543 -0.0134423139 -0.3468985443
0.2064436283 0.0210082281 -0.3211492540
0.1476585217 0.0003455153 -0.2809080684
0.2043423612 0.0359582506 -0.3309935905
0.1916716867 0.0382217976 -0.3088216204
0.2117307828 0.0214458968 -0.3289960479
0.1423133145 -0.0270248702 -0.3442869533
0.1523516235 0.0223087041 -0.2811728073
0.1678489368 -0.0376350290 -0.3620898497
0.1836840496 0.0401197033 -0.3424746726
0.1696775004 0.0404623667 -0.3016733763
0.1473332066 -0.0476130295 -0.3214627064
0.1570111482 -0.0056524275 -0.2970404176
0.1756667614 0.0348499765 -0.2868328211
0.1561027012 0.0514727739 -0.2970689360
0.2115692137 0.0311074758 -0.3429936027
0.1857590578 0.0093027427 -0.3703855599
0.1434738162 0.0375227772 -0.3280359895
0.1744671577 0.0290035655 -0.3092899329
0.1708718313 -0.0195178846 -0.3036328000
0.1700452872 -0.0187144254 -0.3124833368
0.1970232132 0.0198916808 -0.3295528950
0.1547484652 -0.0402364807 -0.2911526643
0.1196658573 0.0064675307 -0.3379872532
0.1822160371 0.0212807008 -0.2956323996
0.1088872133 -0.0003181023 -0.3679460368
0.1568558462 -0.0499483816 -0.3305548030
0.1378383629 0.0358748386 -0.3074255490
0.1264452022 0.0090830568 -0.2966502546
0.1811112586 0.0345596064 -0.2915380552
0.1389405191 0.0261436951 -0.2840684211
0.1709712505 -0.0255113020 -0.3552490726
0.1670982862 -0.0326036907 -0.3180029946
0.1764834231 -0.0279946116 -0.3313518100
0.1606023059 -0.0119813011 -0.2952554073
0.1602158459 -0.0339449412 -0.3216228836
0.1306260675 -0.0031653092 -0.3116066738
0.1794374588 0.0388192431 -0.2881178545
0.1873038918 -0.0037482358 -0.3487112566
0.1360611994 -0.0123580229 -0.2975089478
0.1692894935 -0.0138946636 -0.3190135111
0.1910556356 0.0006992454 -0.3497757436
0.1173794479 -0.0168373679 -0.3478848330
0.1416326007 0.0027174577 -0.2867188783
0.1596693778 -0.0133727201 -0.3106260266
0.2100184789 0.0309207941 -0.3318622021
0.1217488805 0.0325832936 -0.3078849266
0.1967767242 -0.0067477943 -0.3306455589
0.1519348301 0.0347454252 -0.3569573273
0.1479513872 -0.0310739877 -0.2899893654
0.1352018132 0.0169193553 -0.3140041891
0.1536392534 -0.0377514352 -0.3288207045
0.1390341328 -0.0385237875 -0.3079721194
0.1859860979 -0.0079518786 -0.3569087362
0.1228996647 0.0292187884 -0.3166622773
0.1271603127 -0.0273814108 -0.3238814031
0.1466669137 -0.0126860592 -0.3572888734
0.1923821978 0.0291482122 -0.3086733508
0.1189351085 -0.0146730165 -0.3556624757
0.1736922883 -0.0273467340 -0.3473165150
0.1398877936 0.0057471199 -0.2959566171
0.1195999541 0.0050253042 -0.3271295578
0.1296054751 0.0304236924 -0.3460536010
0.1598412512 0.0264078995 -0.2833496490
0.2087772390 0.0063066257 -0.3289461004
0.1321216658 0.0014999641 -0.3757148730
0.1707996575 -0.0125593478 -0.3511829329
0.1263868707 0.0401379261 -0.3180767428
0.1230495527 0.0254911251 -0.3597376548
0.1199026372 -0.0035815824 -0.3115660979
0.1766258986 -0.0158420725 -0.3211472211
0.1385472308 0.0169653811 -0.3612514410
0.1284151148 0.0074646416 -0.3890652857
0.1916066404 -0.0055490720 -0.3236222013
0.1395607203 0.0443845664 -0.3550101387
0.2138684330 0.0192434935 -0.3184276215
0.1603109582 0.0031127352 -0.3705861607
0.1431928725 -0.0268147846 -0.2781284869
0.1615259609 0.0455039347 -0.2916970725
0.2044169125 0.0261518794 -0.3264424577
0.1366947885 0.0310338202 -0.2932450647
0.1558224178 0.0287893901 -0.3855928726
0.1434499681 0.0327281183 -0.3811800065
0.1402781482 0.0051994657 -0.2986026894
0.1681985401 0.0243874990 -0.3638761469
0.1856898729 0.0269504397 -0.3680943327
0.1176739432 0.0263589345 -0.3328726768
0.1220942115 0.0094756439 -0.3039869466
0.1210424259 0.0219367648 -0.2937012476
0.1191031288 -0.0185093071 -0.3335850266
0.1874580454 0.0512779007 -0.3052653029
0.1342577932 0.0169310189 -0.3808544421
0.1892763571 -0.0051076732 -0.3629253568
0.1570302674 0.0261203309 -0.2834726542
0.1470926444 -0.0037291099 -0.3751595551
0.1696444452 0.0047356375 -0.2907826006
0.1576080141 0.0338365162 -0.2879372558
0.1673780040 0.0037771076 -0.2914662380
0.1851900487 -0.0164031745 -0.3270222189
0.1314626323 0.0158117762 -0.3156702696
0.2023002755 0.0041837080 -0.3212533781
0.1695389043 -0.0430150956 -0.3521431353
0.1808510721 0.0404340141 -0.2966329753
0.1895770821 0.0119361003 -0.2906517570
0.1229599192 0.0131719092 -0.3218913103
0.1315630137 0.0193971561 -0.3335670600
0.1720127269 -0.0005006570 -0.2971833604
0.1742770984 -0.0239079171 -0.3111400293
0.1207795812 -0.0131579134 -0.3140974683
0.1727595670 0.0434544645 -0.3177791338
0.1432945697 0.0349290149 -0.3463640374
0.1408729912 0.0329495201 -0.3468566089
0.1320536269 0.0218775253 -0.2862155657
0.1482413774 -0.0280438459 -0.2814878564
0.1880071290 -0.0067400362 -0.3240283465
0.2049733445 0.0196586210 -0.3195171959
0.1470623647 0.0139524481 -0.2861786594
0.1820260627 0.0449002912 -0.3187225572
0.1285291152 0.0317616608 -0.3360179699
0.2017855666 0.0238925440 -0.3445543881
0.1601888840 -0.0441052907 -0.3483803613
0.1909955355 0.0202801909 -0.3276946503
0.2043731169 0.0261037249 -0.3242395329
0.1351199240 0.0318261262 -0.2849421853
0.1549746102 -0.0350619233 -0.2960300853
0.1688027544 0.0086204650 -0.2869722629
0.1995286163 0.0361331789 -0.3389560371
0.2025218507 0.0161371700 -0.3214773151
0.1519703840 0.0423687162 -0.3443951503
0.1273805695 -0.0030148066 -0.3141243065
0.1713061396 -0.0189484503 -0.2970294150
0.1507199808 0.0466250659 -0.3032030985
0.1535728246 0.0031144125 -0.2935621630
0.1366055572 -0.0044423824 -0.3059807162
0.1488230710 -0.0149728271 -0.2841025744
0.1508435714 0.0335842121 -0.2905836503
0.1225346845 -0.0083005313 -0.3159004388
0.1618243535 0.0442602988 -0.3293453749
0.1754992076 0.0244892732 -0.3002301015
0.1540934751 -0.0033646153 -0.2985459741
0.2013932867 -0.0077648489 -0.3283090946
0.1372101021 -0.0312463008 -0.3450634490
0.1738394960 -0.0187666305 -0.3285334911
0.2050206694 0.0245116693 -0.3367512446
0.1722003192 0.0406976681 -0.2886674046
0.1445872016 0.0072209785 -0.2824967400
0.1577757617 0.0251486742 -0.3836318952
0.1946153908 0.0159312680 -0.3113350803
0.1949939976 0.0265610479 -0.3140215175
0.1566331676 -0.0327689658 -0.3219295642
0.1433146514 -0.0309262632 -0.3148040332
0.2047893128 0.0283265185 -0.3446615000
0.1619329974 0.0443440694 -0.2931718528
0.1550278775 0.0331066514 -0.3467322054
0.1610289731 -0.0453850216 -0.3278073325
0.1384925937 0.0341452791 -0.3565176315
0.1821914206 -0.0132968480 -0.3155629794
0.1319578919 -0.0050406468 -0.2975731859
0.1549053447 -0.0452778937 -0.3157591494
0.2084219182 0.0084200674 -0.3425366478
0.1724436874 0.0300047838 -0.2811452569
0.1221900477 -0.0337837490 -0.3298987646
0.1748313999 0.0348364620 -0.3613002688
0.1435989025 0.0326277302 -0.3578972641
0.1729664720 0.0427226700 -0.3216598492
0.1596819809 -0.0133001779 -0.3650941811
0.1700908536 -0.0091714091 -0.2941055847
0.1383300339 0.0382443875 -0.3161877235
0.1520468683 0.0322010736 -0.3648346244
0.1242964748 -0.0192592121 -0.3249462760
0.1280966207 0.0026220375 -0.3093162618
0.1520540482 0.0342666682 -0.3183637018
0.1274651972 0.0176865929 -0.2842845911
0.1829676592 -0.0189685919 -0.3036219056
0.1769882143 0.0483634538 -0.2997932914
0.1517931837 -0.0123612734 -0.3107417385
0.1366245985 -0.0085577823 -0.3649198944
0.2037838950 0.0138596408 -0.3213886700
0.1572939038 0.0337828785 -0.3406550991
0.1711783849 -0.0029735216 -0.2975603928
0.1231405627 0.0158847689 -0.2922332777
0.1368642056 0.0319179225 -0.3785998186
0.1974586127 -0.0237696065 -0.3526501189
0.1573587030 0.0439177521 -0.3406419681
0.1629587584 0.0056947360 -0.3767223115
0.1406267098 0.0343224626 -0.3155455407
0.1170058444 -0.0018803068 -0.3135114968
0.1457726372 -0.0284105458 -0.3463401974
0.1451528774 -0.0103032114 -0.2821763933
0.1940177145 0.0171859764 -0.3555514409
0.1065629798 -0.0145965481 -0.3514048926
0.1351429799 0.0271931960 -0.2817264120
0.1760494714 0.0350343061 -0.3655707357
0.1921817812 0.0137569462 -0.3136684597
0.1485745459 0.0336138451 -0.3100501963
0.1850070278 0.0287821173 -0.3256140446
0.1974279537 0.0363706179 -0.3203169472
0.1596187115 0.0361776342 -0.3429700879
0.1737971753 -0.0149403894 -0.3277868629
0.1937315292 -0.0057269821 -0.3610937197
0.1211976947 0.0145570151 -0.3758571936
0.1448586670 -0.0041756271 -0.2751836239
0.1138180634 0.0250535753 -0.3248458738
0.1283745696 -0.0338503664 -0.3317829531
0.1569562838 0.0008719178 -0.3010547882
0.1681540087 0.0136347646 -0.2905490547
0.1443522323 0.0360966668 -0.3168383173
0.2035236682 0.0045049373 -0.3387075923
0.1898201716 -0.0032457461 -0.3193598294
0.1295489170 0.0061552069 -0.3103316155
0.1453514086 0.0412151888 -0.3537199864
0.1770850185 -0.0013884273 -0.2931437351
0.1777457959 0.0263754475 -0.3018276009
0.1393726439 -0.0314386840 -0.3227157948
0.1764067879 -0.0197816485 -0.3311636762
0.1087436139 0.0144453713 -0.2997292678
0.1983909535 0.0006263361 -0.3359947423
0.1555747757 0.0463787035 -0.3148533454
0.1126407956 0.0119811199 -0.3148605476
0.1285693418 0.0088810704 -0.2985935060
0.1713430337 0.0331172751 -0.3406301931
0.2097474399 0.0183804168 -0.3158250979
0.1447682879 -0.0158385438 -0.2776158447
0.1709257418 0.0393069180 -0.3326147073
0.1992004234 0.0008179379 -0.3400610945
0.1416538766 0.0282092908 -0.2844072263
0.1073317302 0.0270948059 -0.3354895745
0.1492696182 0.0107542607 -0.2882282381
0.1920732346 0.0144644702 -0.3062115537
0.1784184321 0.0504601431 -0.3014283868
0.1138189168 -0.0045464976 -0.3448710010
0.1022402262 0.0106399602 -0.2987177709
0.1252274318 0.0224653876 -0.3564481741
0.2088536532 0.0214016035 -0.3623424044
0.1374551327 -0.0398077144 -0.3123002038
0.1840878514 0.0501606378 -0.2983078612
0.1231597802 -0.0242279908 -0.3124281144
0.1989953625 0.0289459049 -0.3527453338
0.1836403168 -0.0283841213 -0.3502340701
0.1687330439 0.0483833926 -0.3243384160
0.1577306679 0.0335295684 -0.3467933932
0.1125339860 0.0136331724 -0.3670771548
0.1628979794 0.0266584146 -0.3782695119
0.1693435864 -0.0342513045 -0.3576947181
0.1895170380 0.0390335399 -0.3056020133
0.1767518950 0.0186383304 -0.2916513117
0.1263362271 0.0245365276 -0.3343120914
0.1285173073 0.0299392162 -0.2976541656
0.1663747546 0.0428308594 -0.3195960418
0.1913411369 0.0132423531 -0.3102782024
0.1325067685 0.0267101691 -0.3563703361
0.1193084849 -0.0042672636 -0.3205965477
0.1751382798 0.0185610279 -0.2907713056
0.1854350544 0.0067668680 -0.3577591625
0.1293576942 0.0130093997 -0.3194310466
0.1789156292 -0.0259424388 -0.3608647730
0.1946391959 -0.0116799037 -0.3583061032
0.1631431124 -0.0153660614 -0.3055651560
0.1655340488 0.0489000452 -0.3006434485
0.1661147747 0.0043200257 -0.3653446081
0.2016403008 0.0186796093 -0.3050180009
0.1373590999 -0.0038712852 -0.3015287216
0.1217775192 -0.0080967466 -0.3773432294
0.1748319608 0.0544387410 -0.3001817511
0.1273640581 -0.0212397167 -0.3014795211
0.1471799708 -0.0108541310 -0.3084900084
0.1778334420 0.0469171830 -0.3180698886
0.1337893837 0.0299612278 -0.2794695225
0.1216415187 -0.0267562478 -0.3282158253
0.1407391191 -0.0349987420 -0.3234013372
0.1494102461 0.0427266717 -0.2859633399
0.1332343521 -0.0013394328 -0.3778624535
0.1620318770 0.0335938352 -0.3585656068
0.1311968798 -0.0418190152 -0.3250946832
0.1350131822 0.0282680263 -0.3344871797
0.1531583114 0.0396437929 -0.3154914614
0.1295454431 0.0317797138 -0.3012932839
0.1635590279 -0.0330603800 -0.3273276211
0.1671183314 -0.0109173835 -0.2965258062
0.1371248862 0.0087005518 -0.2940384751
0.1239965374 -0.0280174493 -0.3154632981
0.1610512329 -0.0046972441 -0.2782940027
0.1978191829 0.0380994892 -0.3289081526
0.1365938183 0.0218767072 -0.2793689157
0.1671321113 -0.0138927884 -0.3514452689
0.1330342045 -0.0025619030 -0.3742127517
0.1325120921 0.0018669974 -0.3705209584
0.1545504428 0.0362064144 -0.2884146851
0.2095596065 0.0277601555 -0.3312033243
0.1373897312 0.0288371187 -0.2861892646
0.1400195783 0.0285996615 -0.2860917705
0.1747345475 0.0069932142 -0.2981875242
0.1696474375 -0.0290067470 -0.3013334040
0.1553853760 -0.0202702503 -0.2876949094
0.1497550355 -0.0179495756 -0.3202854471
0.1072103544 0.0191949086 -0.3328265996
0.1619954185 0.0322440751 -0.3125659397
0.2113428437 0.0138265412 -0.3290983791
0.1464273163 -0.0009882091 -0.2967571924
0.1560456423 -0.0304322944 -0.3273405850
0.1812195477 0.0067949920 -0.3626612451
0.2094439011 0.0186267207 -0.3263608313
0.1670005994 -0.0420232954 -0.3137024084
0.1841908227 -0.0208182417 -0.3551688980
0.1304596999 0.0288047027 -0.2908761820
0.1451148791 -0.0224671152 -0.2908114748
0.1302957858 0.0406779372 -0.3378404639
0.1644833845 0.0285738851 -0.2818105359
0.1296860168 0.0033834662 -0.2944119104
0.1648612322 0.0486779358 -0.2954472133
0.1647546271 0.0087825990 -0.2864325489
0.1429784954 -0.0298075129 -0.3383235255
0.1310544443 -0.0072030339 -0.3758246965
0.1723486469 0.0013906287 -0.2963856513
0.1432984660 -0.0371426107 -0.3121537402
0.1272459385 -0.0283178695 -0.3186480412
0.1342518713 0.0018948762 -0.3780194151
0.1137145003 -0.0112941052 -0.3515086270
0.1916119024 0.0269848911 -0.3153493460
0.1698991211 0.0082381559 -0.2906114903
0.1454972746 -0.0445672893 -0.3042533907
0.1611671910 0.0476693656 -0.3059380323
0.1427591904 -0.0433284803 -0.3031742397
0.1603265935 -0.0039688498 -0.2981650246
0.1790299507 0.0060203128 -0.2921486223
0.2062044539 0.0184721911 -0.3394998547
0.1171302434 0.0316127321 -0.3339199428
0.1586297230 -0.0323596656 -0.3401728105
0.1459391685 0.0248163002 -0.2815819325
0.1490060923 -0.0023013134 -0.3005407790
0.1320160078 0.0007926181 -0.2972451706
0.1597421071 0.0409187940 -0.2983175576
0.1792809922 0.0494633402 -0.3055827199
0.1197576389 0.0194307845 -0.2841743689
0.1643183526 0.0004730896 -0.3706150299
0.1884524467 -0.0172709537 -0.3611709237
0.1979057346 0.0008135396 -0.3489374389
0.1493366846 -0.0364441628 -0.3258439245
0.1195219215 0.0144303516 -0.3667287549
0.1747961182 -0.0295931642 -0.3580872170
0.1400435567 0.0262783660 -0.2856328576
0.1758722631 0.0323553852 -0.3236437989
0.1246796247 -0.0154160745 -0.3674526092
0.1381016486 0.0330008773 -0.2960152677
0.1577722307 -0.0190369378 -0.3023140842
0.1615248715 0.0282879623 -0.3115145527
0.1413676408 -0.0123160019 -0.2893057519
0.1754686494 -0.0022855260 -0.3580897340
0.1563127762 0.0336856165 -0.3209218793
0.1521228072 -0.0156038768 -0.3427301741
0.1141323985 0.0197793233 -0.3138328404
0.1926135487 0.0326540417 -0.3425265899
0.1564364371 0.0411261834 -0.3335212228
0.1313556961 0.0321574508 -0.3611706688
0.1741286838 -0.0235010654 -0.3681630565
0.1265062389 0.0178089096 -0.2891277313
0.1286841650 -0.0291469504 -0.2977995076
0.1756761872 0.0241963170 -0.2900535500
0.1350572640 0.0317487179 -0.3501048913
0.1769193411 0.0234077740 -0.2908377051
0.1411614469 0.0260306700 -0.3133512176
0.1672706600 -0.0042374730 -0.3007187652
0.1413634685 0.0073507626 -0.2842792724
0.1599782445 0.0018383708 -0.2772747186
0.1133760760 0.0303573807 -0.3204831440
0.1108066267 0.0150898392 -0.2974133716
0.1151960680 -0.0165156024 -0.3301013590
0.1349811892 0.0101851856 -0.3095631607
0.1901556860 0.0368002709 -0.3495111172
0.1399861592 0.0360466265 -0.2940407399
0.1773705256 -0.0078252035 -0.3705060211
0.1411254593 -0.0334616940 -0.3142608999
0.1476523984 0.0379033295 -0.3160451622
0.1539338053 -0.0094305770 -0.3039291003
0.1747698032 -0.0145202114 -0.3535294402
0.1785436663 0.0449047934 -0.3487204097
0.1915434733 0.0312814613 -0.3504357258
0.1713898843 -0.0132584382 -0.3734491027
0.1474906726 -0.0031822994 -0.3004039641
0.1591061975 0.0424014151 -0.3339395806
0.1240042015 -0.0041687739 -0.3620375356
0.1150234216 0.0237964673 -0.3134086151
0.1105465867 -0.0230026139 -0.3365884839
0.1207717067 0.0006164550 -0.3758283251
0.1421204128 0.0087485759 -0.3840663143
0.1744257981 0.0163945053 -0.2915625193
0.1781291301 -0.0046042682 -0.3723278979
0.1478030411 0.0211519709 -0.2814535739
0.1344269756 0.0184417514 -0.2889510930
0.2136379413 0.0267130348 -0.3554180975
0.1808777096 -0.0306512925 -0.3336643986
0.1926867368 0.0067874014 -0.3142450354
0.1269983430 -0.0024906799 -0.3160828779
0.1521909586 -0.0340827234 -0.3188302116
0.1193177351 -0.0016452037 -0.3110070036
0.1703360368 0.0158191948 -0.3766531164
0.1319182362 -0.0082774255 -0.3651762051
0.1673517596 0.0379981701 -0.2839641441
0.1590532320 0.0455871118 -0.2942389053
0.1081663538 0.0190653540 -0.3390055117
0.1657898428 0.0326884606 -0.2734155907
0.1571202986 0.0435071106 -0.2965001191
0.1838493333 0.0039300483 -0.3017250663
0.1802584353 0.0047995023 -0.3037156207
0.1948174349 0.0260420397 -0.3109856647
0.1826878525 -0.0079608668 -0.3546490529
0.1544312271 0.0386327617 -0.2914156002
0.1559086353 -0.0473012860 -0.3511803031
0.1869214957 0.0087734667 -0.2954433001
0.1848526009 0.0053627176 -0.2992340122
0.1098072002 0.0210864797 -0.3334624969
0.2127671171 0.0322452452 -0.3271601619
0.1254376070 -0.0025624838 -0.3024541962
0.1418392273 0.0359098621 -0.2984379932
0.1937228729 0.0282987909 -0.3261833945
0.1776695110 0.0308364191 -0.2939598729
0.1489594855 0.0230765445 -0.3775912620
0.1613843248 -0.0235157031 -0.2958213359
0.1991542417 0.0137007887 -0.3500699216
0.1588331060 -0.0105640804 -0.2858625345
0.1755859963 0.0556754362 -0.2966186312
0.1850765168 0.0079354935 -0.3083363121
0.1322366979 0.0126095021 -0.3064506531
0.1717966065 0.0518583374 -0.3031300401
0.1414530098 -0.0090065272 -0.3087105883
0.1858716607 -0.0264853369 -0.3441841602
0.1264324436 0.0007160609 -0.2936529642
0.1071031709 0.0133571886 -0.3245066272
0.1723637386 0.0412837235 -0.3536859447
0.2042659264 -0.0055109837 -0.3317731727
0.1827346914 -0.0269905186 -0.3421385375
0.2029377694 0.0244554977 -0.3511618449
0.1919117849 0.0160397066 -0.3065659148
