-0.2212728123 0.1182628403 -0.4700032332
-0.2698346531 0.1784777150 -0.5121183088
-0.2642777375 0.1798258137 -0.5131030104
-0.2550650835 0.1478562355 -0.4836280644
-0.2384036406 0.1737608245 -0.4996011887
-0.2596740402 0.1803382065 -0.5138543142
-0.2620509750 0.1950059884 -0.4844670320
-0.2545688599 0.1767748594 -0.4888828695
-0.2566908883 0.1810631757 -0.5138817657
-0.2044551260 0.1132892178 -0.4760984607
-0.2551880923 0.1812266053 -0.5142131986
-0.2325088307 0.2077863514 -0.4960966110
-0.2371240444 0.1505465992 -0.4806631804
-0.2517843195 0.1821033675 -0.5140654829
-0.2238749016 0.1753810502 -0.5082403286
-0.2797163129 0.1811688542 -0.4960444868
-0.2470755335 0.1834311252 -0.5139703261
-0.2637006342 0.1822247207 -0.5156401992
-0.2448865803 0.1841247557 -0.5137571414
-0.2418934052 0.1850814782 -0.5134415355
-0.2710276561 0.1892398751 -0.4875751723
-0.2391667562 0.1858154623 -0.5134439621
-0.2737015253 0.1877489427 -0.4952872139
-0.1798503995 0.1243364662 -0.5049934983
-0.2168841787 0.1522398697 -0.4978600182
-0.2797059544 0.1810528763 -0.5032542547
-0.2838397623 0.1355782810 -0.4759617610
-0.2809550969 0.1782004529 -0.5053589808
-0.2295212499 0.1554770894 -0.4902260517
-0.2797191446 0.1773517790 -0.5061403397
-0.1856893326 0.1215581216 -0.4996015513
-0.2442751069 0.1857028398 -0.5031049404
-0.1873466838 0.1083043709 -0.4938980262
-0.2393767983 0.2110439688 -0.5010414124
-0.2095678575 0.1526414912 -0.5031745321
-0.2293080486 0.1678138809 -0.5004707660
-0.2788951352 0.1780768429 -0.5074552194
-0.2746433013 0.1781349624 -0.5078874557
-0.2624366331 0.1284436482 -0.4807602860
-0.2722816841 0.1786791801 -0.5080825650
-0.2842269739 0.1749872168 -0.4981069664
-0.2792917620 0.1755725269 -0.5053600247
-0.2707900467 0.1791818180 -0.5091153691
-0.2518189759 0.1806455458 -0.4473514625
-0.2640727337 0.1797831947 -0.5102007423
-0.2497249471 0.1652829030 -0.4503239144
-0.2790375054 0.1574526727 -0.4871361554
-0.2471175652 0.1598894764 -0.4841932977
-0.2618376162 0.1804404639 -0.5100826958
-0.2593902191 0.1808184733 -0.5104975841
-0.2471078206 0.1853289519 -0.5028878158
-0.2850207686 0.1724456350 -0.4984335502
-0.2320100614 0.1526065180 -0.4861088322
-0.2342158740 0.1602425532 -0.4909324885
-0.2565065482 0.1817017675 -0.5106737751
-0.2334721407 0.1357164472 -0.4753052166
-0.2334048897 0.2120251209 -0.4938404262
-0.2551843822 0.1814317852 -0.5109472275
-0.2268478836 0.1559146433 -0.4907080544
-0.2542873516 0.1823561710 -0.5105275405
-0.2668354325 0.1280339390 -0.4799959422
-0.2575696260 0.1893037856 -0.5112966895
-0.2446622582 0.1839382682 -0.5118905930
-0.2371348116 0.1764884594 -0.5024877730
-0.2516112326 0.1828129862 -0.5105948237
-0.2756268877 0.1671868289 -0.4887773566
-0.2488577147 0.1834972100 -0.5106746658
-0.2198052734 0.1751059718 -0.5110559177
-0.2417213207 0.1678554169 -0.4909650114
-0.2448006739 0.1843004436 -0.5111542236
-0.1869173759 0.1111541727 -0.4931334272
-0.1908191008 0.1215356020 -0.5002546173
-0.2422467903 0.1848808909 -0.5113131694
-0.1816701690 0.1230288719 -0.5030309757
-0.2520685792 0.1324293017 -0.4772422314
-0.2302052241 0.1465308224 -0.4873606128
-0.2371594471 0.1856117559 -0.5101303602
-0.2394375000 0.1857702395 -0.5111132315
-0.2385972379 0.1259293772 -0.4662106797
-0.2373823237 0.1857838970 -0.5119689819
-0.2391371831 0.1799973691 -0.5033549343
-0.2603082359 0.1298537105 -0.4820176661
-0.2859402861 0.1756470767 -0.5019199326
-0.2771842694 0.1861548500 -0.4942243474
-0.2792097278 0.1369208933 -0.4806143909
-0.2076140259 0.1553797807 -0.5086153943
-0.2811397181 0.1820037310 -0.4989194505
-0.2389991504 0.1458002702 -0.4776869678
-0.2343397948 0.1279950571 -0.4682544725
-0.2525616191 0.1959147097 -0.4689621814
-0.2015453748 0.1426668772 -0.5056778329
-0.2240045712 0.1703554820 -0.5056269547
-0.2838130127 0.1780993231 -0.5026357725
-0.2144179398 0.1678568153 -0.5104405481
-0.2816046835 0.1778389491 -0.5032354521
-0.2484162451 0.1738722031 -0.4533134323
-0.2324354798 0.1494698077 -0.4816454053
-0.2167484834 0.1469950652 -0.4938392947
-0.2019590914 0.1178843677 -0.4859130621
-0.2793393709 0.1744430763 -0.5039791228
-0.1910538631 0.1233800119 -0.5027974447
-0.2161368057 0.1587026790 -0.5051333308
-0.2705190097 0.1790048178 -0.5071780028
-0.2688768923 0.1794001273 -0.5076779805
-0.2017618896 0.1094005862 -0.4821526702
-0.2690499362 0.1635401879 -0.4836773173
-0.2669895392 0.1797875638 -0.5078372479
-0.2788826353 0.1834221099 -0.4953076779
-0.2394014001 0.1756119553 -0.4984917433
-0.2220121626 0.1227300752 -0.4732780909
-0.2427248284 0.1680969819 -0.4890548587
-0.2467407191 0.1403633187 -0.4786405800
-0.2419316103 0.1586845410 -0.4855671516
-0.1837400211 0.1067607196 -0.4976854305
-0.2668691520 0.1773968957 -0.4955057092
-0.2644955056 0.1803286096 -0.5074394122
-0.2245413058 0.1499358047 -0.4884219789
-0.2027912736 0.1518990248 -0.5120055079
-0.2740286295 0.1697895603 -0.4901870281
-0.1915159553 0.1197798491 -0.4932539821
-0.2600165716 0.1815771647 -0.5072504165
-0.2585190406 0.1817196687 -0.5076078100
-0.2833243612 0.1328063503 -0.4752104896
-0.2748188376 0.1445679516 -0.4840938449
-0.2489428121 0.1848394501 -0.5065666311
-0.2801882335 0.1315918403 -0.4739261831
-0.2346741483 0.1774630358 -0.5032872506
-0.2469798772 0.1851903988 -0.5057113253
-0.2418507030 0.1848274329 -0.5084305457
-0.2442195863 0.2139884382 -0.4996502995
-0.2370567564 0.1856155740 -0.5079215609
-0.2699115074 0.1893973486 -0.4898591434
-0.2611158844 0.1709472961 -0.4834592356
-0.2493735189 0.1330717665 -0.4753657470
-0.2634019405 0.1527350619 -0.4825014025
-0.2831569966 0.1795306942 -0.4995554780
-0.2769662292 0.1754959094 -0.5057155494
-0.2667208677 0.1800970755 -0.5035634170
-0.2199392766 0.1373394281 -0.4840326607
-0.2458092730 0.1722036479 -0.4564549585
-0.2697417194 0.1789052362 -0.5057653136
-0.1763032511 0.1133022366 -0.5024235088
-0.2270310263 0.1328548977 -0.4753393946
-0.2726363934 0.1740677756 -0.4956412571
-0.1840453105 0.1201018568 -0.5034283341
-0.2635007343 0.1815175651 -0.5037758636
-0.2543874136 0.1835672011 -0.5036863315
-0.2516171139 0.1821896378 -0.4934730318
-0.1846581413 0.1172873328 -0.4961666030
-0.1890388643 0.1182629753 -0.4949187839
-0.2491953662 0.1849359541 -0.5009422911
-0.2133562638 0.1281961820 -0.4852813930
-0.2531092141 0.1841925106 -0.5037279635
-0.2030014319 0.1393517889 -0.4992336064
-0.2678028396 0.1751946489 -0.4937639510
-0.1923542768 0.1275123432 -0.5005000979
-0.2247959293 0.1597363146 -0.4956286733
-0.2518989600 0.1837894430 -0.5055369046
-0.2497004130 0.1846422361 -0.5033746118
-0.1917645568 0.1400234965 -0.5102710966
-0.2889326867 0.1737205016 -0.5001697770
-0.2475213318 0.1847105022 -0.4979877495
-0.2055635087 0.1506103592 -0.5050954072
-0.2537933886 0.1811175346 -0.5145149231
-0.2419147014 0.1849351351 -0.5058192987
-0.2820151794 0.1381587456 -0.4708161215
-0.2720698671 0.1303865677 -0.4787271798
-0.2442688709 0.1700784490 -0.4907952581
-0.1866638948 0.1130025216 -0.4934648646
-0.2436414408 0.1824418219 -0.5025720253
-0.2691944987 0.1427248195 -0.4838703424
-0.2294965609 0.1425889321 -0.4807354242
-0.1992238323 0.1227509773 -0.4906705013
-0.2354134841 0.1848790769 -0.5098185707
-0.2441138426 0.2056259314 -0.4976311425
-0.2609790564 0.1424496025 -0.4852964282
-0.2514411807 0.1839539409 -0.4638829827
-0.2890152099 0.1755644250 -0.5009471417
-0.2874770944 0.1756025638 -0.5014368938
-0.2311803772 0.1686243459 -0.4998508541
-0.2745316345 0.1667162882 -0.4877158406
-0.2592143988 0.1929839865 -0.4729718983
-0.2241784703 0.1680806897 -0.5057023361
-0.2817490048 0.1749068272 -0.5033165332
-0.2606464028 0.1533538550 -0.4820315242
-0.2348441283 0.1850076814 -0.5061252713
-0.2486423811 0.1805310832 -0.4969873323
-0.2646912453 0.1557198392 -0.4605786491
-0.2541006714 0.1631064292 -0.4833444293
-0.2643056226 0.1804004011 -0.5005153518
-0.2565296469 0.1841073045 -0.5003580651
-0.2557880754 0.1837527762 -0.5011710839
-0.2460005432 0.2038716078 -0.4938757122
-0.1992829306 0.1502138741 -0.5123537311
-0.2614420205 0.1456081867 -0.4842218310
-0.2521004132 0.1845521062 -0.5014026696
-0.2403329462 0.2092639059 -0.4850180745
-0.2224869682 0.1522190066 -0.4910386528
-0.2128803573 0.1579942689 -0.5033250077
-0.2322174923 0.1844007829 -0.5097483616
-0.2432044044 0.1789638987 -0.5025879644
-0.2714387327 0.1886762284 -0.4861278888
-0.1999372788 0.1053926080 -0.4835157283
-0.2863938079 0.1736401478 -0.5023518259
-0.2614105004 0.1325070401 -0.4837555842
-0.2840855197 0.1737231017 -0.5030707713
-0.2862509462 0.1626449575 -0.4904418242
-0.2849246043 0.1771019017 -0.4934123531
-0.2694467370 0.1775482726 -0.5009637663
-0.2290956805 0.1776304653 -0.5086953124
-0.2094264270 0.1604773212 -0.5105931539
-0.2606852724 0.1818592891 -0.4999231299
-0.2543840057 0.1847130764 -0.4985645839
-0.2494702146 0.1850295372 -0.4985054167
-0.2454942264 0.1388490180 -0.4769059383
-0.2446065508 0.1848518158 -0.5007060576
-0.2419238630 0.1835674891 -0.5037281915
-0.2496082512 0.1305259097 -0.4706058609
-0.2562424242 0.1846119463 -0.4983602464
-0.2652841213 0.1856740670 -0.4741856737
-0.1973799255 0.1402548796 -0.5061512094
-0.2719939554 0.1729747005 -0.4930703999
-0.2288473113 0.1784658629 -0.5097819354
-0.2397172170 0.1343868057 -0.4715553049
-0.2393039833 0.1834928312 -0.5050027375
-0.2092847067 0.1455675343 -0.5006253370
-0.2390982190 0.1406519703 -0.4751253487
-0.2513612803 0.1758826749 -0.4903604555
-0.2596289292 0.1677757762 -0.4853919670
-0.2367187159 0.1849226292 -0.5054529108
-0.2876091766 0.1748407034 -0.4979004079
-0.2366389528 0.1332920236 -0.4725185503
-0.2435586824 0.1368785973 -0.4743642633
-0.2365675060 0.1828908148 -0.5054524082
-0.2341302857 0.1829566060 -0.5079299307
-0.2519151307 0.1656167308 -0.4853222839
-0.2840652776 0.1728765878 -0.5009402623
-0.2074891746 0.1480626802 -0.5014333018
-0.2797471822 0.1736487401 -0.5027252619
-0.2244480919 0.1231625766 -0.4726710426
-0.2097330242 0.1633480341 -0.5096840411
-0.2766531936 0.1749340931 -0.5032915574
-0.2295783510 0.1277800451 -0.4724020958
-0.2247972861 0.1626773582 -0.5009536002
-0.2143538579 0.1303287304 -0.4856251508
-0.2570459871 0.1803578399 -0.4930770021
-0.2245382066 0.1225782712 -0.4713813823
-0.1809164308 0.0951223511 -0.5034934059
-0.2726803015 0.1667822235 -0.4862663520
-0.2589624609 0.1826117058 -0.4982165197
-0.2313645782 0.1501041686 -0.4872502973
-0.2541040889 0.1845743946 -0.4966943026
-0.2668287816 0.1751558420 -0.4914089034
-0.1867061830 0.1200467791 -0.4981743561
-0.2488260347 0.1274493764 -0.4665985497
-0.2297208312 0.1555615494 -0.4885305491
-0.2447133311 0.1730253869 -0.4956171455
-0.1921466551 0.1189451855 -0.4957080398
-0.2445944055 0.1831815079 -0.5008680210
-0.2421039529 0.1776220746 -0.4988887073
-0.2597624680 0.1921826296 -0.4708949791
-0.2320819303 0.1829119001 -0.5085891106
-0.2484127457 0.1804315104 -0.4490836463
-0.2390839183 0.2000829820 -0.4587230915
-0.2465378475 0.1801197016 -0.5002076956
-0.2787571423 0.1804543723 -0.4885081340
-0.2320912413 0.1259394611 -0.4670279171
-0.2484294575 0.1317697663 -0.4698046290
-0.2516716400 0.1752162176 -0.4889154874
-0.2743266406 0.1748118420 -0.5005790332
-0.2089832555 0.1569088197 -0.5088361009
-0.1808616799 0.1140068512 -0.4994710940
-0.2595112026 0.1620402634 -0.4632546902
-0.2695706166 0.1769467398 -0.4984019505
-0.2653047435 0.1790059346 -0.4979604145
-0.2594876289 0.1229712367 -0.4716053307
-0.1966939325 0.1475312624 -0.5113683882
-0.2320437583 0.1249795252 -0.4663039331
-0.1828254821 0.0937552034 -0.5036277903
-0.2696914536 0.1757469494 -0.4956524648
-0.2165229602 0.1180683267 -0.4734950190
-0.1893612257 0.1031050263 -0.4941184334
-0.2069392699 0.1550874671 -0.5105281486
-0.2423632593 0.1427193582 -0.4771883500
-0.2185242096 0.1285607399 -0.4807975932
-0.2491029167 0.1830525539 -0.4979636807
-0.2843694538 0.1654800996 -0.4952005148
-0.2041063275 0.1499740821 -0.5081683069
-0.2090188136 0.1528984934 -0.5077351685
-0.2089980608 0.1582943933 -0.5104778149
-0.2468293203 0.1830573702 -0.4981554625
-0.1951576796 0.1396306018 -0.5087332573
-0.2423985824 0.2056864575 -0.4978470951
-0.2845764784 0.1769992797 -0.4914679088
-0.2366345039 0.1545396496 -0.4839827979
-0.2740884558 0.1336397492 -0.4802366455
-0.2417380888 0.1753066571 -0.4978637366
-0.2214518264 0.1248550303 -0.4732007682
-0.2041104461 0.1482923379 -0.5081392825
-0.2846151235 0.1707028159 -0.4997913020
-0.2822300957 0.1710521544 -0.5002869273
-0.2514530718 0.1659532636 -0.4492525756
-0.2715646746 0.1357100053 -0.4828762761
-0.2214538059 0.1677333186 -0.5081131542
-0.2742830156 0.1745005361 -0.4989803133
-0.2390885585 0.1780845613 -0.5024586698
-0.2067285379 0.1261242976 -0.4902308981
-0.2702500145 0.1762851451 -0.4977945875
-0.2349186824 0.1712529148 -0.4997530478
-0.1964653554 0.1431075781 -0.5119243898
-0.2675377461 0.1772748836 -0.4976452944
-0.2597489826 0.1808588389 -0.4955503177
-0.2494375306 0.1827628909 -0.4960667528
-0.2720308537 0.1252818380 -0.4760321993
-0.2363553067 0.1257455235 -0.4657819686
-0.2298814255 0.1802286839 -0.5085845922
-0.2141119133 0.1378226717 -0.4901130540
-0.1872610495 0.1321807425 -0.5092753092
-0.2503015697 0.2057796717 -0.5147551298
-0.2070574699 0.1503676856 -0.5032868607
-0.2815188932 0.1706500259 -0.4981658926
-0.2649982073 0.1777907667 -0.4957028094
-0.2570126504 0.1677461490 -0.4535516351
-0.2518456429 0.1837094203 -0.5029063225
-0.2540531860 0.1821242748 -0.4937837529
-0.2392702699 0.2089252323 -0.4924494028
-0.2468502517 0.1805843408 -0.4976601523
-0.1730132597 0.1043618392 -0.5049717725
-0.2315595728 0.1782333405 -0.5083822841
-0.2442166906 0.1723715880 -0.4930285044
-0.2767541571 0.1821616538 -0.4828456255
-0.2377561331 0.1983986646 -0.4586794227
-0.2813598767 0.1777917839 -0.4861062061
-0.1844256371 0.1294578463 -0.5077426434
-0.2442585877 0.1770086758 -0.4965761739
-0.1968104668 0.1428008334 -0.5104376588
-0.2779338735 0.1714617523 -0.4972719854
-0.2675294578 0.1552278399 -0.4637087286
-0.2042093431 0.1502732276 -0.5058824952
-0.2642774893 0.1774255357 -0.4930399562
-0.2020701766 0.1239574850 -0.4910852611
-0.2794082314 0.1626615152 -0.4809461534
-0.2121322406 0.1543365889 -0.5006529236
-0.2541530054 0.1809332661 -0.4926636315
-0.2113511079 0.1258581401 -0.4828573809
-0.2787701860 0.1356131769 -0.4797645708
-0.2496605582 0.1799776654 -0.4935932401
-0.2466229113 0.1783148119 -0.4978779901
-0.2417954889 0.1301962340 -0.4681158893
-0.2713769078 0.1479629278 -0.4604776800
-0.2444164902 0.1748609245 -0.4475300312
-0.2373619614 0.1524439425 -0.4833489415
-0.2368392345 0.1780879874 -0.5029820229
-0.2518609762 0.1774870455 -0.4441751540
-0.2478386238 0.1527588367 -0.4821729809
-0.2142724152 0.1627527402 -0.5080952552
-0.2320359530 0.1775761191 -0.5063014713
-0.2822113749 0.1683969161 -0.4965847809
-0.2571615577 0.2024884224 -0.4940180480
-0.2344368682 0.1749772555 -0.5012413728
-0.2357653633 0.1858129630 -0.4450315165
-0.2789839256 0.1702982691 -0.4963271332
-0.2321464241 0.1675492093 -0.4980967586
-0.2515216412 0.1801671554 -0.4914378593
-0.2518535722 0.1801169522 -0.4927387706
-0.2044433749 0.1299102444 -0.4886008393
-0.2482899955 0.1785439875 -0.4955309540
-0.2240184185 0.1379493241 -0.4849715069
-0.2395577384 0.1599581704 -0.4864257306
-0.2444412585 0.1775282749 -0.4980219733
-0.2701705610 0.1769775314 -0.4679749601
-0.2320984061 0.1756655706 -0.5055605616
-0.2317985578 0.1631554658 -0.4975802027
-0.2564043105 0.1583666056 -0.4817927182
-0.2821137944 0.1374900370 -0.4784730919
-0.2313242370 0.1759792794 -0.5074364555
-0.2015337618 0.1590928791 -0.5179805933
-0.2292150535 0.1756494946 -0.5078732935
-0.2863403672 0.1728154844 -0.4878257170
-0.2614808161 0.1771693491 -0.4914587036
-0.2543959754 0.1777531021 -0.4907120349
-0.2803498060 0.1402329206 -0.4704014212
-0.2693942785 0.1860093325 -0.5069519877
-0.2468327593 0.1774940780 -0.4959369592
-0.2616825630 0.1748001102 -0.4862324442
-0.2393898579 0.1777643168 -0.5005846220
-0.2395588375 0.1753478742 -0.5005651111
-0.2253262550 0.1723955125 -0.5056741238
-0.2192341544 0.1530218811 -0.4953175789
-0.2373606710 0.1771895354 -0.5015695178
-0.2270327906 0.1529884140 -0.4881814818
-0.2395836217 0.1727444442 -0.4982245546
-0.2042756240 0.1385726644 -0.5004415213
-0.2394195197 0.1374547886 -0.4742129609
-0.2215655679 0.1754725971 -0.5100237610
-0.2442005488 0.1321681255 -0.4687552377
-0.2852378023 0.1722911859 -0.4867764521
-0.2249317460 0.1308287945 -0.4778525916
-0.2243458053 0.1726759417 -0.5078218843
-0.2428647551 0.1485135142 -0.4797789061
-0.2889937231 0.1678307912 -0.4902963860
-0.2318291082 0.1656867675 -0.4981750169
-0.2741806885 0.1710589047 -0.4927330702
-0.2617945975 0.1759454656 -0.4902177026
-0.2686966360 0.1872940361 -0.5051338673
-0.2466603374 0.1729087729 -0.4932412134
-0.1966536459 0.1381047907 -0.5057304301
-0.2749632299 0.1633493155 -0.4876138866
-0.2496623114 0.1777053726 -0.4910235015
-0.2391352268 0.1428966373 -0.4762009290
-0.2446747452 0.1825745285 -0.4987436593
-0.2316905667 0.1727145601 -0.5008016029
-0.2389594167 0.1326475755 -0.4707226564
-0.2367033449 0.1756279678 -0.5006538378
-0.2592251266 0.1725564269 -0.4841365146
-0.2615484557 0.1725160610 -0.4839040284
-0.2341375555 0.1755606209 -0.5029977881
-0.2378178502 0.1984736234 -0.4603475392
-0.2768666446 0.1426986009 -0.4660271704
-0.2078119900 0.1597442484 -0.5116468515
-0.2613766371 0.1242168153 -0.4732586442
-0.2458572090 0.1753339171 -0.4973515868
-0.2312064499 0.1734286003 -0.5054060818
-0.2394719732 0.1702053514 -0.4958847169
-0.2228544262 0.1747129843 -0.5086634637
-0.2856878507 0.1707727047 -0.4864895805
-0.2194674998 0.1304386122 -0.4805660075
-0.2874571596 0.1651039876 -0.4928695286
-0.2180994687 0.1187679436 -0.4722514036
-0.1818526930 0.1129335187 -0.4973232800
-0.2713391270 0.1719091414 -0.4905008080
-0.2830299167 0.1712708795 -0.4846820323
-0.2542462647 0.1666635275 -0.4562808871
-0.2736336291 0.1845250726 -0.5051947832
-0.2675782423 0.1735576392 -0.4897312485
-0.2240824943 0.1376013661 -0.4806839438
-0.2517511845 0.1809523851 -0.4948574603
-0.2219632645 0.1598451753 -0.5007343676
-0.2687815141 0.1203839118 -0.4745838675
-0.2295384023 0.1478689688 -0.4880164025
-0.2645693541 0.1744976825 -0.4882639966
-0.2570138347 0.1757922153 -0.4898645463
-0.2164026500 0.1692471756 -0.5101976959
-0.2301065773 0.2106194347 -0.4932951927
-0.2496740938 0.1751661809 -0.4930926423
-0.2740924681 0.1324924860 -0.4783357195
-0.2221077530 0.1726161287 -0.5086097865
-0.2464147058 0.1755069520 -0.4955492445
-0.2307301611 0.1800115556 -0.5098281205
-0.2441151259 0.1750814552 -0.4957682384
-0.2143051028 0.1361278668 -0.4898539633
-0.2467487898 0.1754896013 -0.4934375193
-0.2216711304 0.1730561937 -0.5097088778
-0.2186254524 0.1482165053 -0.4945553981
-0.2196853992 0.1728771392 -0.5105753969
-0.2720914694 0.1792832704 -0.4781533026
-0.2227743119 0.1675778329 -0.5034730434
-0.2882961073 0.1650250509 -0.4908593972
-0.2266473584 0.1503557414 -0.4857836142
-0.2539111518 0.1760725115 -0.4897220332
-0.2679061592 0.1494313478 -0.4834661782
-0.2877343807 0.1653314666 -0.4908366083
-0.2809450626 0.1583191454 -0.4873023927
-0.2373603319 0.1570093700 -0.4863700976
-0.2673678346 0.1298473562 -0.4807307687
-0.2363236344 0.1853856526 -0.4428485556
-0.2673667533 0.1727160795 -0.4878039491
-0.2620696738 0.1752252191 -0.4883529152
-0.2043685239 0.1325761361 -0.4908697797
-0.2588715460 0.1751422661 -0.4880153951
-0.2069649346 0.1352411272 -0.4932603415
-0.2272584731 0.1623081325 -0.4986506410
-0.2366043268 0.1734950052 -0.4999284217
-0.2010990214 0.1123982811 -0.4823226830
-0.2451074496 0.2086034194 -0.4852814525
-0.2669849489 0.1331132396 -0.4855495909
-0.2332012800 0.1733556612 -0.5025155957
-0.2316108174 0.1726332777 -0.5028780952
-0.1819163053 0.0968251416 -0.5030904319
-0.2460288282 0.1453486969 -0.4797536418
-0.2655609692 0.1823794418 -0.4745269138
-0.2645111539 0.1326831368 -0.4846781742
-0.2757268617 0.1748393250 -0.4806258303
-0.2841122628 0.1677765542 -0.4857042333
-0.2708736965 0.1698074147 -0.4878551345
-0.2640779244 0.1727921161 -0.4859301609
-0.2565688945 0.1754060989 -0.4881542714
-0.2368880272 0.1577441494 -0.4881436119
-0.2166765922 0.1582798864 -0.5027139633
-0.2823636090 0.1380281750 -0.4734837825
-0.2693112037 0.1507330084 -0.4617495370
-0.2516088632 0.1255976460 -0.4660799893
-0.2033932719 0.1546985227 -0.5088171190
-0.2772750810 0.1620659054 -0.4863483970
-0.2543480176 0.1751491476 -0.4885533342
-0.2344279762 0.1628864520 -0.4931771531
-0.2492156907 0.1757476353 -0.4900602709
-0.2407326180 0.1384232972 -0.4741038103
-0.2482814152 0.1734890103 -0.4925847232
-0.2417461987 0.1727982821 -0.4960113277
-0.2369092776 0.1729632456 -0.4989759716
-0.2789435685 0.1705228537 -0.4835065305
-0.2368690670 0.2099066526 -0.5006415844
-0.2583609521 0.1423571706 -0.4846658409
-0.2292085461 0.1731541102 -0.5035719496
-0.2532901466 0.2008953542 -0.4744274020
-0.2282789165 0.1711657872 -0.5058562133
-0.2273801416 0.1649214923 -0.4984598458
-0.2351267180 0.1842919261 -0.4438404618
-0.2266773064 0.1702503667 -0.5056118187
-0.2417820736 0.1321482403 -0.4691229562
-0.2068563711 0.1482675340 -0.5024941954
-0.2242947635 0.1709918871 -0.5074689179
-0.2265440479 0.1405592085 -0.4833344115
-0.2169097664 0.1274809337 -0.4786968415
-0.2345297640 0.1838883710 -0.4445763912
-0.2191293044 0.1704405063 -0.5104497638
-0.2221340719 0.1480305181 -0.4878460019
-0.2397772968 0.1871133447 -0.4367100298
-0.2449174733 0.1956054936 -0.4631167989
-0.2463972781 0.1353448405 -0.4746074436
-0.2699869662 0.1774445534 -0.4773531195
-0.1829035004 0.1269778519 -0.5065098094
-0.2868728510 0.1632438867 -0.4884641339
-0.2320350717 0.1479628213 -0.4832529738
-0.2383371592 0.2000540346 -0.4597511888
-0.2313257903 0.1834236085 -0.5096756816
-0.2596286600 0.1724554607 -0.4856687607
-0.2617709795 0.1729996949 -0.4861093239
-0.2018843731 0.1305307160 -0.4903211555
-0.2595197717 0.1728190185 -0.4873878068
-0.2612668737 0.1736370135 -0.4873893787
-0.2539333168 0.1727400036 -0.4877411221
-0.2571994068 0.1349797065 -0.4825882916
-0.2394157288 0.1707761680 -0.4977390835
-0.2368390312 0.1704019730 -0.4982778100
-0.2317108375 0.1708459371 -0.5005136638
-0.2825441771 0.1382195194 -0.4763522730
-0.2219900270 0.1701858633 -0.5080245575
-0.2140720934 0.1531238616 -0.5027793527
-0.2329765889 0.2024343035 -0.4570476381
-0.2204157975 0.1641595179 -0.5031233158
-0.2603956232 0.1826675790 -0.4722460563
-0.2420442318 0.1286186795 -0.4661805917
-0.2758300304 0.1424117833 -0.4841519296
-0.2828333055 0.1667793735 -0.4843099477
-0.2059384250 0.1186975647 -0.4801931871
-0.2520928758 0.1463994809 -0.4824138576
-0.2292883192 0.1356391942 -0.4760686149
-0.2738334074 0.1480067838 -0.4708673555
-0.2113225807 0.1552060699 -0.5073858373
-0.2796606169 0.1635085331 -0.4888295729
-0.2560131683 0.1671179440 -0.4554084219
-0.2692545507 0.1694406836 -0.4862263218
-0.2745174167 0.1354716369 -0.4810517317
-0.2420893908 0.1360780448 -0.4745432138
-0.2632511063 0.1727113538 -0.4843056937
-0.2039441915 0.1407144727 -0.5026925222
-0.2570006283 0.1728065812 -0.4860806627
-0.2466020843 0.1277066717 -0.4660094754
-0.2515300221 0.1731350839 -0.4882026881
-0.2296106815 0.1474324635 -0.4832449470
-0.2790158689 0.1758915633 -0.5069785118
-0.2447914011 0.1655909444 -0.4906038772
-0.2530227602 0.2051185966 -0.5124080777
-0.2500902097 0.1723535862 -0.4883903325
-0.2400816410 0.1720937913 -0.4950351228
-0.2295777208 0.1699325237 -0.5009702559
-0.2147515692 0.1569890564 -0.5017022669
-0.2237045422 0.1329195388 -0.4784407848
-0.2238877953 0.1577607656 -0.4956827060
-0.2230962398 0.1689934178 -0.5072867374
-0.2513099015 0.2036872506 -0.5058915019
-0.2716481066 0.1638550262 -0.4842510858
-0.2194490422 0.1676690332 -0.5085160394
-0.2193894815 0.1681653560 -0.5099445880
-0.1990738708 0.1278281722 -0.4954982622
-0.1943437457 0.1158868968 -0.4895241559
-0.2172724599 0.1683378178 -0.5100439579
-0.2141737978 0.1693669364 -0.5111349094
-0.2421349100 0.1798218285 -0.4441603499
-0.2577712624 0.1833115563 -0.4705177722
-0.2548251620 0.1720824730 -0.4866177277
-0.2466631363 0.1705481326 -0.4906298999
-0.2313823750 0.1294856419 -0.4707110822
-0.2419332010 0.1705041500 -0.4930313550
-0.2165226191 0.1377841728 -0.4862239123
-0.2499039322 0.1477515250 -0.4823347628
-0.2196027500 0.1449005258 -0.4884037330
-0.2054486138 0.1575717869 -0.5118427626
-0.2538447274 0.1211173436 -0.4647990786
-0.1870821650 0.1151247042 -0.4937579610
-0.2482002079 0.1756609529 -0.4464309216
-0.2909456193 0.1765551567 -0.5034725070
-0.2317125898 0.1453085099 -0.4830437051
-0.2399668239 0.1708794735 -0.4937168122
-0.2342470626 0.1702139982 -0.4987197269
-0.2321169734 0.1702573029 -0.4989115168
-0.1730952405 0.1136120844 -0.5047267162
-0.2271705647 0.1677605303 -0.5029598266
-0.2147628868 0.1516792616 -0.4968224662
-0.2579083462 0.1756524733 -0.4523321660
-0.2265076501 0.1681444180 -0.5047880625
-0.2396182073 0.1677787165 -0.4934845038
-0.2220507259 0.1678349906 -0.5059835379
-0.1850327551 0.1246162541 -0.5003178716
-0.2095118921 0.1500954379 -0.5005927317
-0.2168028938 0.1675154303 -0.5090485057
-0.2292043087 0.1626688935 -0.4981015097
-0.2776249603 0.1630597381 -0.4870328716
-0.2044483603 0.1351333644 -0.4959019791
-0.2645832275 0.1555654054 -0.4636617844
-0.2334574574 0.1654990199 -0.4969859400
-0.2694186661 0.1327876281 -0.4829416828
-0.2721669994 0.1653154598 -0.4852613926
-0.2598467639 0.1703459075 -0.4837712205
-0.2544513060 0.1705956434 -0.4857315451
-0.2476553172 0.2037673444 -0.5072090626
-0.2515630046 0.1714869928 -0.4867873615
-0.2469340641 0.1702225475 -0.4891568971
-0.2597962191 0.1274974527 -0.4754467145
-0.2535657669 0.1328256020 -0.4784440132
-0.2392529650 0.1677108795 -0.4958302087
-0.2555946409 0.1849284787 -0.4636702454
-0.2367456798 0.1680506244 -0.4975245495
-0.2342987001 0.1829616398 -0.5057910562
-0.2238851000 0.1607326226 -0.5006034153
-0.2441425103 0.1681785642 -0.4907542965
-0.2338639623 0.1680118787 -0.4976872025
-0.2138140563 0.1671232940 -0.5090541726
-0.2450643908 0.1703504379 -0.4417697367
-0.2195926926 0.1653390765 -0.5056144381
-0.2390692850 0.1973866273 -0.4561058809
-0.2682416825 0.1665398830 -0.4842443747
-0.2205132935 0.1469089813 -0.4862664033
-0.2742898464 0.1785484627 -0.5096755922
-0.2645795760 0.1674418140 -0.4835364650
-0.2285206243 0.1451518759 -0.4823103994
-0.2521039566 0.1697188896 -0.4883246639
-0.1955575255 0.1077652644 -0.4875442582
-0.2191344674 0.1580449587 -0.5003211395
-0.2458898921 0.1685049624 -0.4902494847
-0.2416908604 0.1685545139 -0.4929591746
-0.2613631154 0.1352232813 -0.4847235998
-0.2256750632 0.1282577999 -0.4746337530
-0.2409144044 0.2116916627 -0.5004236698
-0.2441236968 0.1626250275 -0.4877240549
-0.2244292382 0.1653309991 -0.5031941083
-0.2243242361 0.1662117212 -0.5044494756
-0.2340817702 0.1253190859 -0.4656384208
-0.2218635063 0.1656474537 -0.5054014472
-0.2164117604 0.1205877773 -0.4757772504
-0.1747803523 0.1130753045 -0.5036121308
-0.2194556583 0.1654388561 -0.5083606368
-0.2135899553 0.1477068166 -0.4973778035
-0.2208826914 0.1454295292 -0.4923799187
-0.2169403951 0.1656551616 -0.5077074594
-0.1864539568 0.1255722713 -0.5045664700
-0.2624751911 0.1811983124 -0.4656718282
-0.1867885350 0.1279310685 -0.5057289163
-0.2389818183 0.1531793657 -0.4824063395
-0.2537838252 0.1675065771 -0.4857556677
-0.2037828149 0.1250384661 -0.4880232482
-0.2396831399 0.1279150219 -0.4660240912
-0.2517489891 0.1673760230 -0.4862540910
-0.2501622056 0.1692743683 -0.4863277952
-0.2494579748 0.1680649438 -0.4876286844
-0.1995975300 0.1480107183 -0.5105085549
-0.2819993668 0.1356871148 -0.4775256082
-0.2382497896 0.1665091380 -0.4954005108
-0.2364492230 0.1653824619 -0.4952631637
-0.2158773392 0.1515178829 -0.5005902648
-0.2365620511 0.1532543314 -0.4850812819
-0.2359368419 0.1384243057 -0.4747338686
-0.2348971000 0.1666709806 -0.4964510505
-0.2372682446 0.1319775312 -0.4717315392
-0.2172542165 0.1554472262 -0.4984805627
-0.2401097864 0.1878807843 -0.4372899234
-0.2026464520 0.1472216242 -0.5063885034
-0.1888645071 0.1255127799 -0.5030098839
-0.2307963278 0.1660919567 -0.4994632475
-0.1936054553 0.1310764451 -0.5048886298
-0.2223289743 0.1648348383 -0.5037159468
-0.2708109319 0.1842445731 -0.5092636943
-0.2317111041 0.1609322915 -0.4954051669
-0.2645135658 0.1651190305 -0.4830073357
-0.2460957733 0.1665684871 -0.4897209389
-0.2313008715 0.1452356216 -0.4854535820
-0.2416580797 0.1663295299 -0.4920537080
-0.2393519980 0.1660111651 -0.4930375794
-0.2507258952 0.1687894911 -0.4498804212
-0.2294172316 0.1655662183 -0.4978954041
-0.2240962763 0.1528590951 -0.4906809168
-0.2550621763 0.1414521202 -0.4831072883
-0.2214724258 0.1310555518 -0.4796596623
-0.2271842457 0.1583523512 -0.4926006630
-0.2290566848 0.1638719836 -0.5002928815
-0.2783475764 0.1422640987 -0.4667131657
-0.2442048939 0.1743252145 -0.4546865953
-0.2282236516 0.2243922502 -0.4847526550
-0.2123734064 0.1596523447 -0.5060102013
-0.2273247215 0.1640533871 -0.5018985499
-0.2270155549 0.2225803882 -0.4849351148
-0.2813460827 0.1784761697 -0.4947912693
-0.1978137026 0.1457052354 -0.5088347953
-0.2400562912 0.1846826077 -0.5033988059
-0.1978240029 0.1251462194 -0.4930633851
-0.2192763519 0.1628935269 -0.5056999479
-0.1865093149 0.1257539950 -0.5004713312
-0.2112531364 0.1579564138 -0.5105419431
-0.2167500984 0.1629872970 -0.5062877981
-0.2120441832 0.1303731031 -0.4862052697
-0.1891206462 0.1131263354 -0.4925271014
-0.2124421830 0.1626827840 -0.5086608469
-0.2463591003 0.1654535372 -0.4882629250
-0.2418324882 0.1646918774 -0.4907313849
-0.2369508016 0.1653683493 -0.4931333237
-0.2339053646 0.1631662745 -0.4955514699
-0.2367354530 0.1505877395 -0.4836681718
-0.2124961659 0.1547787320 -0.5028335805
-0.2264817982 0.1629404041 -0.5002537641
-0.2571010498 0.1431837307 -0.4838548434
-0.2193511600 0.1624920206 -0.5035873356
-0.2524446485 0.1652784824 -0.4835610648
-0.1710546789 0.1029391335 -0.5002381818
-0.2442679353 0.1636674279 -0.4896994232
-0.2145076155 0.1351711114 -0.4880637186
-0.2363618083 0.1633641814 -0.4927946762
-0.2516846332 0.1705068249 -0.4500343087
-0.2170340296 0.1625201032 -0.5040523062
-0.2537088822 0.1278480238 -0.4693523557
-0.2219683529 0.1277059199 -0.4757004878
-0.2150721619 0.1622550662 -0.5057512140
-0.2115766971 0.1602690690 -0.5085349352
-0.2483830044 0.1347973686 -0.4763215260
-0.2555336774 0.1274400629 -0.4707871696
-0.2091580721 0.1602559480 -0.5127832270
-0.2539336516 0.1650289125 -0.4833653337
-0.2489370458 0.1631962555 -0.4854711846
-0.2426484683 0.1714331189 -0.4433906589
-0.2406247474 0.1636019100 -0.4901370316
-0.2370722942 0.1647864618 -0.4913277957
-0.2194324978 0.1280842244 -0.4779124770
-0.1884388374 0.1029160656 -0.4948775247
-0.2644480181 0.1303514299 -0.4829306664
-0.2460961392 0.1734955460 -0.4948780239
-0.2141602796 0.1606601060 -0.5055652406
-0.2809129059 0.1800127476 -0.4949757159
-0.2124737585 0.1617599776 -0.5064257767
-0.2093613118 0.1227024283 -0.4808677494
-0.2288544686 0.1257982843 -0.4699046032
-0.2492962501 0.1627048086 -0.4839099841
-0.2469166082 0.1627480831 -0.4856496867
-0.2238152460 0.1405299257 -0.4852363717
-0.2616608739 0.1512376815 -0.4821532369
-0.2393214626 0.1629238496 -0.4880655264
-0.2342020230 0.1610318212 -0.4945681972
-0.2192469868 0.1252532197 -0.4756850710
-0.2263200301 0.1608295735 -0.4980915144
-0.2267326444 0.1332229549 -0.4778122953
-0.1997791488 0.1425224191 -0.5061446025
-0.2307346612 0.1368942410 -0.4742712677
-0.2244237575 0.1601698794 -0.4981720660
-0.2567897304 0.1618839979 -0.4526120033
-0.2806893289 0.1661710739 -0.4832712114
-0.2316133517 0.1533788549 -0.4872774622
-0.2263842983 0.1480977140 -0.4879258998
-0.2192010975 0.1602016224 -0.5030405481
-0.2166224519 0.1608023316 -0.5027933706
-0.2370176824 0.1452615084 -0.4783949560
-0.2669448381 0.1254082190 -0.4778632719
-0.2058084991 0.1584535489 -0.5124655483
-0.2486418635 0.2017977834 -0.4940426350
-0.2488175767 0.1469280692 -0.4813969241
-0.2148548051 0.1547568043 -0.4986722847
-0.2443480487 0.1622988230 -0.4857460492
-0.2363455478 0.1602246610 -0.4907092640
-0.2143068200 0.1599657576 -0.5029209792
-0.2044646628 0.1525846422 -0.5105679780
-0.2315370445 0.1602654380 -0.4931615434
-0.2313842481 0.1378541802 -0.4777952625
-0.2268300892 0.1605692530 -0.4955061828
-0.2239863536 0.1590138669 -0.5002633423
-0.2148792148 0.1293934435 -0.4808161557
-0.2217715737 0.1585751798 -0.5006296846
-0.2127929248 0.1599126148 -0.5037768037
-0.2070957274 0.1579796571 -0.5104024326
-0.2004445573 0.1547945120 -0.5123002617
-0.2168944204 0.1553367197 -0.5004169950
-0.2021263580 0.1568002942 -0.5147028535
-0.2672390193 0.1935088784 -0.4956211746
-0.2521225184 0.1613757131 -0.4817545164
-0.2494934978 0.1606647255 -0.4836469806
-0.2044229209 0.1234116927 -0.4873120338
-0.2291521809 0.1580395736 -0.4906860902
-0.2470908890 0.1610220730 -0.4847879172
-0.2819794118 0.1416907758 -0.4819495380
-0.2113350097 0.1529398340 -0.5053802844
-0.2417872547 0.1602775925 -0.4857864938
-0.2396617833 0.1622786678 -0.4863786087
-0.2002698013 0.1416894802 -0.5037087270
-0.2210470713 0.1479375326 -0.4928641856
-0.2240109455 0.1582984359 -0.4978747546
-0.2393827137 0.1520347723 -0.4813716163
-0.2217471329 0.1576752617 -0.4981752522
-0.2175501275 0.1591757516 -0.5014290607
-0.2572023472 0.1255759041 -0.4709882534
-0.2602227628 0.1902239174 -0.4730566740
-0.2119615834 0.1574598618 -0.5055162071
-0.2767260685 0.1353578774 -0.4801934281
-0.2707067430 0.1880753189 -0.5006509423
-0.2095708443 0.1556336837 -0.5082261893
-0.2075563138 0.1573088509 -0.5090547404
-0.2439680972 0.1602895377 -0.4839199730
-0.2392658853 0.1600484765 -0.4877967997
-0.2135767192 0.1163717061 -0.4748027623
-0.2123147059 0.1521178217 -0.4985383162
-0.2171604835 0.1248347596 -0.4761331058
-0.2373745734 0.1600966022 -0.4883107141
-0.2656175646 0.1176836326 -0.4700109452
-0.2272229741 0.1578125209 -0.4911389649
-0.2145030007 0.1331203405 -0.4859906585
-0.2045210928 0.1554701479 -0.5109355251
-0.1970464036 0.1493910812 -0.5114117190
-0.2018700203 0.1552461262 -0.5109080876
-0.2522986233 0.2042412907 -0.5069218874
-0.1969616545 0.1499717107 -0.5131812373
-0.2008119345 0.1556650730 -0.5129278487
-0.2343959608 0.1581475912 -0.4902188209
-0.2244766411 0.1580135259 -0.4932927722
-0.2189922382 0.1572634913 -0.4984896123
-0.2140927147 0.1428530836 -0.4929779330
-0.2137998146 0.1554700152 -0.5033278134
-0.2120689253 0.1552864663 -0.5053392493
-0.1943930114 0.1255902492 -0.4980145656
-0.2105030238 0.1549760411 -0.5066094920
-0.2390952806 0.1577986812 -0.4858575018
-0.2117653735 0.1356101066 -0.4902189133
-0.1838201146 0.0979788684 -0.5007559218
-0.2142703665 0.1550059664 -0.5006156326
-0.2691634592 0.1239768449 -0.4776312092
-0.2092902294 0.1531040576 -0.5061306653
-0.2054057005 0.1074021075 -0.4782396611
-0.2111747563 0.1528487653 -0.5077813864
-0.2392089516 0.1688152105 -0.4972648025
-0.2069391164 0.1529866508 -0.5081386751
-0.1995639742 0.1275476885 -0.4912652003
-0.2047241186 0.1528626685 -0.5081438500
-0.2576673925 0.1233676821 -0.4701349139
-0.2381947376 0.1896998958 -0.4459138345
-0.2488020042 0.1657157149 -0.4468048854
-0.2319010422 0.1572637587 -0.4887457107
-0.2521196116 0.1377798355 -0.4807711805
-0.2242365041 0.1550842812 -0.4929053371
-0.2195258445 0.1550741650 -0.4961286489
-0.2118725290 0.1531061638 -0.5032890272
-0.2014254741 0.1521725604 -0.5099385535
-0.1800201535 0.1202187240 -0.5008566976
-0.2385509908 0.2126386017 -0.4929158092
-0.2495146711 0.1806927574 -0.4500155915
-0.2185401469 0.1609076113 -0.5048607588
-0.2427085767 0.1846661681 -0.4482730138
-0.2049252815 0.1030126442 -0.4809349178
-0.2344180581 0.1551339321 -0.4876536219
-0.2236092240 0.1262386279 -0.4746783362
-0.2317044089 0.1553059227 -0.4881832577
-0.2173805058 0.1547798652 -0.4963461453
-0.2065418948 0.1523983450 -0.5055193494
-0.2597355147 0.1774315784 -0.4906193316
-0.2516509540 0.1772344553 -0.4514261982
-0.2187983245 0.1506244721 -0.4953426134
-0.2404427566 0.1759723833 -0.4410478306
-0.2339118877 0.1852780678 -0.4485284481
-0.2320743662 0.1503890613 -0.4856154999
-0.2633285843 0.1583438314 -0.4591271069
-0.1917567033 0.1187890903 -0.4970399270
-0.2347923819 0.1548618919 -0.4862117758
-0.2569645313 0.1692178202 -0.4425582410
-0.2219196777 0.1552054414 -0.4936140722
-0.2045188650 0.1518936088 -0.5059690407
-0.2048660306 0.1368629141 -0.4954197722
-0.2570443973 0.1626837142 -0.4830349311
-0.1968340145 0.1103482303 -0.4848156200
-0.2543446730 0.1754945204 -0.4496530732
-0.2216913707 0.1256932688 -0.4754585644
-0.2466159270 0.1802428650 -0.4483856470
-0.2400823888 0.1828186274 -0.4482590367
-0.1719377076 0.0996333474 -0.5047598155
-0.2388562770 0.1820047176 -0.4497627526
-0.2132938802 0.1564273834 -0.5057643652
-0.2608636618 0.1682239473 -0.4874055684
-0.2296031342 0.1529242599 -0.4881067197
-0.2697577257 0.1277959614 -0.4781827957
-0.2367355752 0.1260409732 -0.4671203007
-0.2238318235 0.1529553836 -0.4924113904
-0.1992408715 0.1329494204 -0.5008458091
-0.2793712277 0.1334070979 -0.4762161673
-0.2215687393 0.1531505373 -0.4929071523
-0.2100725279 0.1518336546 -0.5010749166
-0.1848822186 0.1251849607 -0.5033135414
-0.2293212004 0.1625405997 -0.4960578457
-0.2093565126 0.1506146379 -0.5026551550
-0.1764691997 0.1053227488 -0.5030646563
-0.2010998392 0.1483731355 -0.5100059494
-0.2069044716 0.1181943066 -0.4781229354
-0.2121362935 0.1183924700 -0.4780158599
-0.2405237293 0.1814738875 -0.4479671017
-0.2444850235 0.1776804857 -0.4506239523
-0.2015582262 0.1311031944 -0.4979639202
-0.1993429244 0.1076505584 -0.4835093285
-0.2470107184 0.1740169634 -0.4537775461
-0.2233487517 0.1480890661 -0.4905732572
-0.2456068747 0.1741679728 -0.4542352381
-0.1999506054 0.1467391486 -0.5087664649
-0.1861536710 0.1016211934 -0.4975809615
-0.2257953435 0.1434704512 -0.4849715531
-0.2265483161 0.1511448736 -0.4903687349
-0.2532373869 0.1610107840 -0.4463973211
-0.1741496742 0.1180165340 -0.5055823260
-0.2167358042 0.1504113582 -0.4957151536
-0.2143099425 0.1501277875 -0.4980449315
-0.2121513468 0.1506590579 -0.4982135007
-0.2442188114 0.1351096332 -0.4744637609
-0.2102987463 0.1519609649 -0.4988494704
-0.2078650938 0.1512667396 -0.5010474874
-0.2597104556 0.1746107420 -0.4456900414
-0.2196781181 0.1327616141 -0.4811345774
-0.2443955756 0.1297827535 -0.4677184880
-0.2214035720 0.1503314972 -0.4932349563
-0.2312388119 0.1897906548 -0.4408374625
-0.2540486441 0.1695129299 -0.4540914444
-0.2504529340 0.1703529926 -0.4547435133
-0.2518345475 0.1682983432 -0.4556225865
-0.2482199400 0.1669763728 -0.4439767757
-0.2536433959 0.1660701177 -0.4582913830
-0.2767247153 0.1372774956 -0.4814749095
-0.2316126959 0.1451485716 -0.4805517071
-0.2669506156 0.1377379644 -0.4857346128
-0.2627331683 0.1395348810 -0.4857141888
-0.2437658503 0.1502432374 -0.4805202324
-0.2367628923 0.1504636512 -0.4850537423
-0.2339072433 0.1507205089 -0.4853739329
-0.2689332260 0.1356220092 -0.4852278736
-0.2292054385 0.1507117080 -0.4880449958
-0.2264479188 0.1505616365 -0.4887856871
-0.2569637597 0.1752374023 -0.4499165714
-0.1942898697 0.1227622286 -0.4959707405
-0.2196688234 0.1502308314 -0.4932652064
-0.2105342613 0.1504765930 -0.4986703625
-0.2047107468 0.1477272816 -0.5033847805
-0.2575765550 0.1263627857 -0.4729557633
-0.2041615134 0.1475893414 -0.5059087917
-0.2532084122 0.1662302555 -0.4564952865
-0.2542461455 0.1631607264 -0.4848380387
-0.2494374485 0.1327031633 -0.4733899490
-0.2014261108 0.1457369515 -0.5080682759
-0.1970872043 0.1456407462 -0.5108407443
-0.1949446249 0.1451186781 -0.5135250036
-0.2048302820 0.1102611931 -0.4767186923
-0.2585415142 0.1611963427 -0.4598937000
-0.2795052329 0.1351780702 -0.4782345650
-0.1986339448 0.1405990572 -0.5076888108
-0.2705601386 0.1348926729 -0.4851991684
-0.2669909425 0.1351498492 -0.4852729721
-0.2235110682 0.1334235306 -0.4795205764
-0.2648254422 0.1375762009 -0.4856938134
-0.2116660858 0.1381184595 -0.4931592893
-0.2594093047 0.1400216598 -0.4847038562
-0.2794234009 0.1306647428 -0.4755860061
-0.2157392351 0.1308755284 -0.4846045864
-0.2540929101 0.1435933527 -0.4830358974
-0.2244280837 0.1351304837 -0.4781095386
-0.2409601644 0.1504498051 -0.4803660498
-0.1786641743 0.1050683863 -0.5025635112
-0.2391467756 0.1505705202 -0.4802895521
-0.2414862961 0.1846146733 -0.5168082118
-0.2390059031 0.1498227667 -0.4827707818
-0.2238235207 0.1505100706 -0.4900204953
-0.2167986957 0.1477312844 -0.4950724808
-0.2143496903 0.1277297245 -0.4802726407
-0.2146090722 0.1479180045 -0.4960217775
-0.2119822581 0.1479199805 -0.4981674990
-0.2092756695 0.1476968237 -0.5006950815
-0.2036572623 0.1453550920 -0.5056208576
-0.2484168338 0.1742885235 -0.4476365774
-0.2753785637 0.1501902594 -0.4629744151
-0.2803431302 0.1353558451 -0.4763851166
-0.2428603110 0.1678665300 -0.4388890872
-0.2352990061 0.2110751271 -0.4882405102
-0.2679185387 0.1528148852 -0.4633897921
-0.2746658451 0.1465587998 -0.4674974885
-0.2806181398 0.1408587168 -0.4713326960
-0.2713180309 0.1334417731 -0.4830720596
-0.2168202128 0.1282019713 -0.4804543061
-0.2708508182 0.1333289077 -0.4848070775
-0.1866451683 0.0928558982 -0.5001873987
-0.2691015319 0.1330250557 -0.4849662824
-0.1916624060 0.1156450319 -0.4907263500
-0.2479253365 0.1257539803 -0.4650684925
-0.2297612280 0.1347351372 -0.4734640867
-0.2645228380 0.1352666843 -0.4853499704
-0.2603757755 0.1378641235 -0.4847552216
-0.2501268931 0.1447549416 -0.4816135055
-0.2394156170 0.1479151423 -0.4806095885
-0.2512851279 0.1302402282 -0.4699692099
-0.2390416828 0.1479847704 -0.4823869785
-0.2361881767 0.1484489208 -0.4829489138
-0.1865029708 0.1227490101 -0.4981032535
-0.2345813875 0.1476908882 -0.4832303336
-0.2015785313 0.1233132061 -0.4882388839
-0.2047942173 0.1451914502 -0.5038380100
-0.2337536671 0.1486738103 -0.4848782651
-0.1815758715 0.1260252555 -0.5065118072
-0.2292459458 0.2162771821 -0.4818876982
-0.2313892869 0.1477123075 -0.4872538836
-0.2217991564 0.1494054918 -0.4892104011
-0.2169512895 0.1304894332 -0.4834997732
-0.2521283363 0.1270250734 -0.4678502872
-0.2517949939 0.1483962387 -0.4825764596
-0.2213968643 0.1478697033 -0.4908471558
-0.2192275432 0.1475725525 -0.4934191269
-0.2169481158 0.1306129988 -0.4813632974
-0.2070853147 0.1454951968 -0.5029982203
-0.2014362841 0.1450381955 -0.5062593347
-0.1998619665 0.1444720170 -0.5079215648
-0.1945788936 0.1429195532 -0.5127525027
-0.1845184263 0.1179002846 -0.4982673940
-0.2368437557 0.1844293429 -0.4396910627
-0.2016608813 0.1073959162 -0.4823492233
-0.2300857157 0.1525041535 -0.4860886037
-0.2418011460 0.1790461608 -0.4435418422
-0.2601173391 0.1621808319 -0.4556148327
-0.1815957890 0.1231637920 -0.5062218219
-0.2659173136 0.1561975446 -0.4585175595
-0.2750151195 0.1461059763 -0.4658673688
-0.2787412585 0.1421372713 -0.4686926537
-0.2817579868 0.1328319972 -0.4754210714
-0.2806701642 0.1340101311 -0.4771824735
-0.2767595591 0.1330809162 -0.4781790935
-0.2718296800 0.1333202625 -0.4804907211
-0.1875081734 0.1042631414 -0.4959838186
-0.2560236101 0.1393026219 -0.4831672181
-0.2501129844 0.1433069900 -0.4811262579
-0.2424642898 0.1476302103 -0.4790934011
-0.2240367633 0.1481895652 -0.4877865030
-0.2147459530 0.1299846331 -0.4831059525
-0.2138274213 0.1581967026 -0.5078841050
-0.2197417806 0.1475354104 -0.4906660920
-0.2541210949 0.1450471580 -0.4835146666
-0.2189039389 0.1460273684 -0.4928536495
-0.1820547232 0.1173933207 -0.5035198443
-0.2601396739 0.1948194802 -0.4986432791
-0.2495949367 0.1299128787 -0.4683313961
-0.2122149754 0.1453827042 -0.4960844959
-0.2019282728 0.1360350251 -0.5025414824
-0.1889044520 0.1300801136 -0.5055657527
-0.2100721877 0.1452629285 -0.4982558710
-0.2316218922 0.1363630780 -0.4774600079
-0.2079423529 0.1446508691 -0.5008177353
-0.2036017211 0.1430045311 -0.5051105983
-0.2216711184 0.1300325205 -0.4781194174
-0.1990935497 0.1179381579 -0.4856160368
-0.1992015884 0.1444841246 -0.5066624451
-0.1990744295 0.1426079582 -0.5081252698
-0.1990843165 0.1357810073 -0.5029766447
-0.1929253975 0.1423975714 -0.5128895102
-0.2365185601 0.1836800535 -0.4390890751
-0.2067156491 0.1253980800 -0.4881579356
-0.2124081382 0.1271083645 -0.4806106443
-0.2359309570 0.1832632843 -0.4398275757
-0.2353406279 0.1828495440 -0.4405654415
-0.2023582791 0.1321550044 -0.4954824563
-0.2050023898 0.1420581713 -0.5011249781
-0.2591921254 0.1266676572 -0.4736781112
-0.2455674829 0.1734043777 -0.4465400000
-0.2526212653 0.1661925009 -0.4514561988
-0.2591374896 0.1599406238 -0.4554272738
-0.2609483705 0.1293958579 -0.4808160373
-0.2142432150 0.1196066462 -0.4764787191
-0.2845300683 0.1335309241 -0.4738042422
-0.2065287911 0.1300523269 -0.4876093601
-0.2166679750 0.1650869523 -0.5105464359
-0.2697021129 0.1327925384 -0.4804574151
-0.2672946826 0.1325286130 -0.4839494077
-0.2569861114 0.1371478259 -0.4832041411
-0.2083273972 0.1216056140 -0.4823583529
-0.2515316285 0.1405508342 -0.4813369589
-0.2369986818 0.1477316776 -0.4803343372
-0.2665521305 0.1195004033 -0.4716174392
-0.2292431844 0.1453305169 -0.4854490003
-0.2266246353 0.1477716821 -0.4854756982
-0.2844580412 0.1738988757 -0.4956903756
-0.2201119545 0.1474641568 -0.4877021581
-0.2195426907 0.1451749818 -0.4906730659
-0.2601755857 0.1887845099 -0.5110662580
-0.2170376414 0.1453480770 -0.4930392820
-0.2191006737 0.1329085254 -0.4830129521
-0.2139696359 0.1457090455 -0.4953480875
-0.2090790896 0.1435604994 -0.5000456652
-0.2068179042 0.1429301891 -0.5006752668
-0.2065110180 0.1434483425 -0.5030381508
-0.2043677167 0.1425005042 -0.5031867189
-0.2103309881 0.1253699745 -0.4807042518
-0.2326545566 0.2092755437 -0.4923870265
-0.1965754252 0.1406388573 -0.5102287478
-0.1925251138 0.1415475434 -0.5122265788
-0.2586603761 0.1689749807 -0.4873959720
-0.2532334695 0.1693308707 -0.4458799873
-0.2656629294 0.1580585487 -0.4527930719
-0.2566162612 0.1639446268 -0.4503680268
-0.2551917300 0.1640731063 -0.4508864914
-0.2126378217 0.1322774176 -0.4868636515
-0.2551034987 0.1835831106 -0.4666034579
-0.2576181043 0.1602717428 -0.4540472130
-0.2218058080 0.1400934607 -0.4861143629
-0.2591848690 0.1580728821 -0.4558016328
-0.2095923608 0.1303808145 -0.4878839852
-0.2697150874 0.1488424672 -0.4613119536
-0.2035835134 0.1026288378 -0.4821224983
-0.2483909577 0.2062368393 -0.5025447607
-0.2786805702 0.1407451639 -0.4662757042
-0.2829923128 0.1334510733 -0.4725388107
-0.2210463732 0.1640679538 -0.5074380040
-0.2788549286 0.1311114757 -0.4771047605
-0.2118553612 0.1251038851 -0.4790806658
-0.2195145041 0.1707933545 -0.5090696812
-0.2723290322 0.1324017430 -0.4788583395
-0.1917055935 0.1279811930 -0.5032117236
-0.2274241850 0.1315435885 -0.4775649422
-0.2127164006 0.1161249056 -0.4756051004
-0.2690694389 0.1306356849 -0.4804819596
-0.2686569894 0.1310660930 -0.4823433482
-0.2668232386 0.1308071852 -0.4827231184
-0.2591146217 0.1568257553 -0.4535797032
-0.2117662454 0.1204571055 -0.4781792331
-0.2367767417 0.1463039741 -0.4801031655
-0.2340342059 0.1457839977 -0.4824275363
-0.2265654054 0.1454659532 -0.4855157948
-0.2237758254 0.1470599980 -0.4862493342
-0.1833837311 0.1162055196 -0.5002382916
-0.2409877926 0.2089350969 -0.4939447045
-0.2221259077 0.1471511130 -0.4857511455
-0.2212210469 0.1449720739 -0.4887238347
-0.2177104837 0.1447549641 -0.4908983399
-0.2741304040 0.1878820360 -0.4891311228
-0.1793348230 0.1000379207 -0.5034273778
-0.1728554722 0.1067028230 -0.4936376947
-0.2145688574 0.1448424109 -0.4938441790
-0.2104242467 0.1443114029 -0.4967531734
-0.2315778402 0.1352419116 -0.4754949096
-0.2422636668 0.1772639431 -0.4387664987
-0.2092304241 0.1429781666 -0.4981455613
-0.2057890045 0.1414008960 -0.5028892324
-0.2020913566 0.1420777810 -0.5041347820
-0.2518232763 0.1947700083 -0.4661079645
-0.2237753076 0.1352804507 -0.4801752204
-0.2501731217 0.1462238431 -0.4820558727
-0.2466805298 0.1736394524 -0.4423906443
-0.2763565183 0.1545922011 -0.4855957925
-0.2446011059 0.1738481170 -0.4431239166
-0.1972059217 0.1230700562 -0.4932998334
-0.2017802847 0.1155192314 -0.4807917514
-0.2717219876 0.1459715487 -0.4607032047
-0.2479028823 0.1695033323 -0.4464423181
-0.2419663726 0.1731450146 -0.4451426462
-0.2277311385 0.2202735394 -0.4818028212
-0.2180183083 0.2233048528 -0.4885464013
-0.2488767991 0.1668860438 -0.4489212077
-0.2633008255 0.1537005885 -0.4569493416
-0.2318642467 0.1355538189 -0.4732207298
