-0.2410569768 -0.0163395486 -0.4119950992
-0.2377306477 -0.0383757552 -0.4049429474
-0.2379241612 -0.0656335794 -0.4016855394
-0.2003563142 -0.0358580604 -0.4316379953
-0.2308402773 -0.0734111490 -0.4025063690
-0.2380593119 -0.0430064791 -0.4039651458
-0.2027163146 -0.0501390766 -0.4270861054
-0.2328414492 -0.0161628251 -0.4202514546
-0.1992421299 -0.0292034950 -0.4310271144
-0.2022597585 -0.0435818386 -0.4284091132
-0.1974401367 -0.0252106257 -0.4349400688
-0.2357054566 -0.0703004148 -0.4003089280
-0.2054070013 -0.0631351133 -0.4223312686
-0.2280813984 -0.0259979136 -0.4144115068
-0.2403814048 -0.0506688419 -0.4003259655
-0.2007898698 -0.0234957799 -0.4305623761
-0.2253014126 -0.0190095730 -0.4149737550
-0.2230838557 -0.0333836518 -0.4145579093
-0.2527636588 -0.0428534597 -0.3947441280
-0.2332269215 -0.0331635227 -0.4069531248
-0.2055043976 -0.0504871962 -0.4246033250
-0.2262560099 -0.0631677731 -0.4076139760
-0.2566983405 -0.0651461736 -0.3976864250
-0.2647974536 -0.0489773534 -0.3991089942
-0.2402869791 -0.0166593383 -0.4075362496
-0.2257826922 -0.0736161486 -0.4073534209
-0.2412674312 -0.0782646108 -0.3957534335
-0.2105876217 -0.0607702769 -0.4202111473
-0.2132561867 -0.0602730479 -0.4196816491
-0.2334743671 -0.0434932918 -0.4053357604
-0.2531407302 -0.0331850700 -0.3969734473
-0.2231703306 -0.0412178986 -0.4131414665
-0.2508231576 -0.0207833263 -0.3997521100
-0.1982169570 -0.0173442859 -0.4447485552
-0.2449527001 -0.0773225298 -0.3904570901
-0.2068803140 -0.0187355291 -0.4269907271
-0.2134196673 -0.0728797219 -0.4171289090
-0.2481797441 -0.0783568262 -0.3924610951
-0.2108330309 -0.0456672439 -0.4223070813
-0.2332762959 -0.0656164441 -0.4026107205
-0.2357767873 -0.0731214971 -0.4000550657
-0.2298024554 -0.0356735611 -0.4103950278
-0.2075997523 -0.0733857309 -0.4196498220
-0.2411256618 -0.0655906910 -0.3993985447
-0.1960622433 -0.0667038332 -0.4281821514
-0.2421139488 -0.0553362249 -0.3999295690
-0.2600887854 -0.0559283902 -0.3993781927
-0.2027743501 -0.0167365008 -0.4424297671
-0.2409435839 -0.0805235514 -0.3951574131
-0.2008124242 -0.0178917585 -0.4344591541
-0.2007108980 -0.0577567791 -0.4255201036
-0.2125920759 -0.0558931886 -0.4168726551
-0.2000243996 -0.0378913713 -0.4318542530
-0.2230728146 -0.0280863411 -0.4147967143
-0.2308909198 -0.0558611664 -0.4070238272
-0.2424000811 -0.0350247409 -0.4020421916
-0.2327142415 -0.0555937257 -0.4068641242
-0.2002136482 -0.0709525284 -0.4230789891
-0.2252545832 -0.0180603237 -0.4163739572
-0.2178175646 -0.0206285733 -0.4194483929
-0.2128408242 -0.0284895658 -0.4221175562
-0.2656776403 -0.0209904375 -0.4022297617
-0.2079621578 -0.0530359798 -0.4219466427
-0.2230885668 -0.0608258976 -0.4105114176
-0.2549024541 -0.0229847240 -0.3979379524
-0.2080378085 -0.0263642520 -0.4295442700
-0.2385412872 -0.0251430367 -0.4048950230
-0.2177871219 -0.0354920295 -0.4176403546
-0.2118486229 -0.0199188041 -0.4224668243
-0.2355951651 -0.0334361423 -0.4072119822
-0.2109557688 -0.0705712331 -0.4171896337
-0.2656426885 -0.0284720858 -0.3967810246
-0.2479705662 -0.0604719184 -0.3952328265
-0.2012484554 -0.0328756352 -0.4322983777
-0.2277911711 -0.0505013013 -0.4079151300
-0.2003805804 -0.0210605289 -0.4304000320
-0.2353523910 -0.0260834979 -0.4090286532
-0.2586592635 -0.0360808844 -0.3952186604
-0.2105606021 -0.0329159000 -0.4252594522
-0.2356351604 -0.0681586935 -0.4002547840
-0.2501179206 -0.0610036083 -0.3949105088
-0.2431749462 -0.0538289821 -0.3975713182
-0.2360815636 -0.0536956757 -0.4043051982
-0.2284079597 -0.0709145938 -0.4044263082
-0.2233345546 -0.0556716831 -0.4098340332
-0.2352221882 -0.0448205633 -0.4033070656
-0.2376584913 -0.0204024819 -0.4069912931
-0.2488342009 -0.0707632768 -0.3944141695
-0.2148998074 -0.0180941793 -0.4237590024
-0.2184917216 -0.0713713515 -0.4106004534
-0.2457918326 -0.0385728070 -0.3977389540
-0.2027625649 -0.0475893059 -0.4293261303
-0.2255306897 -0.0356370541 -0.4144694620
-0.2121307477 -0.0279814513 -0.4246800618
-0.2512376046 -0.0481564561 -0.3956260214
-0.2431886955 -0.0306501923 -0.4017188509
-0.2283486925 -0.0758485783 -0.4070934818
-0.2410738698 -0.0733377459 -0.3954039110
-0.2252529047 -0.0335321414 -0.4142279793
-0.2436371774 -0.0156430440 -0.4125670097
-0.1974104050 -0.0709792977 -0.4243686672
-0.2110073417 -0.0283239540 -0.4231735170
-0.2398070266 -0.0677269782 -0.3997232001
-0.1954413064 -0.0177860297 -0.4419287179
-0.2289854709 -0.0528453817 -0.4052546698
-0.2526491852 -0.0658674375 -0.3947834233
-0.2257194111 -0.0656473432 -0.4077848169
-0.1929282499 -0.0208051341 -0.4350784703
-0.2179697558 -0.0613435573 -0.4110865242
-0.2332822207 -0.0757582954 -0.4001372226
-0.2284256757 -0.0460827690 -0.4081088250
-0.1995618663 -0.0721884293 -0.4255132734
-0.2182548411 -0.0602783939 -0.4124381239
-0.2599157578 -0.0238502562 -0.3998260634
-0.2583096027 -0.0326343179 -0.3928609788
-0.2332845095 -0.0479665501 -0.4054369321
-0.2167237431 -0.0502916327 -0.4191440514
-0.2034448626 -0.0352234956 -0.4282610843
-0.2254535091 -0.0203104063 -0.4150306621
-0.2555554791 -0.0252586379 -0.3996099339
-0.2329426733 -0.0432935409 -0.4071682443
-0.1997641059 -0.0198664893 -0.4340470461
-0.2301881733 -0.0809573789 -0.4008645606
-0.2291907582 -0.0591954440 -0.4028098120
-0.2332505598 -0.0402476358 -0.4056076051
-0.2180749183 -0.0681316840 -0.4123074458
-0.1979845228 -0.0260364422 -0.4323955279
-0.2280500683 -0.0558456511 -0.4079324459
-0.2289323011 -0.0234402084 -0.4102408524
-0.2384417667 -0.0333231904 -0.4046791687
-0.2008135638 -0.0605890657 -0.4251081709
-0.2570734322 -0.0726204589 -0.3927299678
-0.2244091488 -0.0227221336 -0.4123875756
-0.2337542366 -0.0581583053 -0.4025912339
-0.2607004782 -0.0261822988 -0.3977791949
-0.2552975855 -0.0679912410 -0.3951113274
-0.2083115681 -0.0400323078 -0.4249142649
-0.2428497120 -0.0282727725 -0.4024390900
-0.2182638180 -0.0635990734 -0.4150657136
-0.2174609363 -0.0429396377 -0.4179327053
-0.2506885638 -0.0462049650 -0.3967111057
-0.2102934718 -0.0441397838 -0.4246345311
-0.2356684455 -0.0508235960 -0.4048341729
-0.2133996457 -0.0582651926 -0.4150931872
-0.2331798532 -0.0456250426 -0.4065877146
-0.2384646047 -0.0183298916 -0.4050971665
-0.2164162001 -0.0752693320 -0.4151181922
-0.2202595938 -0.0357829052 -0.4169766995
-0.2624738519 -0.0508978638 -0.3991645161
-0.2342855781 -0.0561654419 -0.4008421600
-0.2337535396 -0.0538138635 -0.4008494020
-0.2297861934 -0.0824785249 -0.4011272761
-0.2382661651 -0.0485054192 -0.4026240806
-0.2221335918 -0.0483080782 -0.4137559831
-0.2053425633 -0.0430783413 -0.4276233483
-0.2230098798 -0.0738873785 -0.4071790693
-0.2704475380 -0.0230368816 -0.4023845779
-0.2553460081 -0.0381820945 -0.3967257282
-0.2385661267 -0.0528426974 -0.4018898916
-0.2158298748 -0.0606745250 -0.4152718663
-0.2391308519 -0.0779587209 -0.3960256837
-0.2354518129 -0.0347657595 -0.4095225302
-0.2499700658 -0.0784691318 -0.3898113905
-0.2517534368 -0.0407641857 -0.3972475273
-0.2681019805 -0.0310069734 -0.3955779189
-0.2255356537 -0.0584111751 -0.4091109733
-0.2321619740 -0.0708203197 -0.4004022651
-0.2478175237 -0.0163213289 -0.4021781014
-0.2491622051 -0.0386869624 -0.3975018945
-0.2220605435 -0.0413577022 -0.4110609767
-0.2557002008 -0.0381750576 -0.3949936926
-0.2403363869 -0.0256287330 -0.4048143115
-0.2089699531 -0.0756151118 -0.4178499663
-0.2626322465 -0.0552448975 -0.4005448229
-0.2297298528 -0.0636533917 -0.4031450312
-0.2323640063 -0.0781990286 -0.4021548237
-0.2082293088 -0.0228451400 -0.4254001005
-0.2101274383 -0.0284071203 -0.4250337794
-0.2008704526 -0.0206954420 -0.4316705752
-0.2577020295 -0.0356616203 -0.3964400884
-0.2257327423 -0.0232240533 -0.4143335504
-0.2310144258 -0.0454887633 -0.4056782325
-0.2580840994 -0.0556456867 -0.3980993849
-0.2439021918 -0.0332640262 -0.4035852072
-0.2551906251 -0.0359190751 -0.3964628020
-0.2696624100 -0.0413992256 -0.3960224986
-0.2181972343 -0.0658598739 -0.4131571920
-0.2395534785 -0.0168569523 -0.4090381103
-0.2156865061 -0.0584845785 -0.4142532166
-0.2005206548 -0.0530858225 -0.4268579675
-0.2258149459 -0.0160443869 -0.4317165159
-0.2234603610 -0.0509164295 -0.4100119781
-0.2433363327 -0.0638068436 -0.3969594741
-0.2331777066 -0.0233676713 -0.4086559713
-0.2047629229 -0.0278290673 -0.4277551677
-0.2515992224 -0.0339702256 -0.3960307240
-0.2207683772 -0.0243911762 -0.4157075882
-0.2225609264 -0.0478608731 -0.4106610902
-0.2057188647 -0.0527525442 -0.4246392016
-0.2431233096 -0.0655832438 -0.3967927548
-0.2302468581 -0.0166220714 -0.4204299002
-0.2187032410 -0.0607957532 -0.4149872569
-0.1981717122 -0.0179138980 -0.4479697486
-0.2013369347 -0.0187967109 -0.4329497703
-0.2186651323 -0.0580677007 -0.4127818133
-0.2437682125 -0.0706156933 -0.3948827235
-0.2564547360 -0.0150400978 -0.4162096083
-0.2144017748 -0.0681326076 -0.4170594962
-0.2027543529 -0.0309180522 -0.4296012470
-0.2448830280 -0.0494433882 -0.3953457629
-0.2199078678 -0.0406685596 -0.4174317252
-0.2460730113 -0.0207916619 -0.3995186595
-0.2148899954 -0.0525943301 -0.4200954496
-0.2082478807 -0.0702380312 -0.4191283785
-0.2330400724 -0.0177464371 -0.4124725014
-0.2379591543 -0.0177731771 -0.4079059446
-0.2635363474 -0.0432325418 -0.3956438590
-0.2520600855 -0.0772304162 -0.3924050629
-0.2310139767 -0.0483461318 -0.4075349831
-0.2397507507 -0.0155297569 -0.4138982819
-0.2229603380 -0.0357990153 -0.4133158624
-0.2165217248 -0.0606615909 -0.4177303374
-0.2511793570 -0.0557133112 -0.3954482637
-0.2531919288 -0.0154364656 -0.4045867160
-0.2556164171 -0.0462576447 -0.3968113804
-0.2173286974 -0.0322298706 -0.4212690294
-0.2679601341 -0.0483114587 -0.3995496722
-0.2358157999 -0.0407542665 -0.4067351223
-0.2281107257 -0.0707259576 -0.4072282513
-0.2088904281 -0.0253361129 -0.4255209769
-0.1983014887 -0.0180976414 -0.4344206590
-0.2189268917 -0.0555378981 -0.4122767150
-0.2250131298 -0.0758133034 -0.4074110556
-0.2381651039 -0.0407944513 -0.4043266269
-0.2033260812 -0.0181735837 -0.4324240800
-0.2395247299 -0.0482537692 -0.4017449510
-0.2253025266 -0.0756609142 -0.4047196817
-0.2244812097 -0.0173623430 -0.4216331086
-0.2529601157 -0.0403202189 -0.3949741026
-0.2131623048 -0.0332290578 -0.4244071758
-0.2220925987 -0.0633873641 -0.4120252132
-0.2273302299 -0.0776122715 -0.4077515178
-0.2221171215 -0.0580851601 -0.4125397438
-0.1981790971 -0.0356658181 -0.4328197104
-0.1980225198 -0.0174694177 -0.4414685777
-0.2006601944 -0.0226258183 -0.4317462587
-0.2609607975 -0.0462869024 -0.3973316788
-0.2350302998 -0.0229045426 -0.4101033790
-0.2406326933 -0.0807153647 -0.3969041793
-0.2648675977 -0.0459725574 -0.3973571044
-0.2211565788 -0.0610677941 -0.4123495164
-0.2249186378 -0.0384840924 -0.4142171680
-0.2324481944 -0.0359695557 -0.4070678151
-0.2372077431 -0.0352279564 -0.4063402515
-0.2445367792 -0.0526645576 -0.3988667424
-0.2756991627 -0.0339540181 -0.3978228754
-0.2461448054 -0.0629989254 -0.3955192554
-0.2375452392 -0.0165199598 -0.4119029209
-0.2205351443 -0.0260109499 -0.4176462375
-0.2208620147 -0.0336260959 -0.4146991279
-0.2278461783 -0.0483456304 -0.4096345635
-0.2083331624 -0.0207962146 -0.4270643456
-0.2339732051 -0.0482921563 -0.4027512968
-0.2205268928 -0.0604403397 -0.4147845307
-0.2558301540 -0.0630074300 -0.3973000677
-0.2130674227 -0.0481796071 -0.4199740088
-0.2456843082 -0.0784738154 -0.3943267169
-0.2107225674 -0.0556792288 -0.4201256799
-0.2430959878 -0.0578527273 -0.3994588037
-0.2057282916 -0.0581017780 -0.4225001551
-0.2445010252 -0.0556566318 -0.3988286912
-0.2150777429 -0.0505780193 -0.4174589614
-0.2502813885 -0.0682966792 -0.3929848728
-0.2003045306 -0.0304464955 -0.4316793903
-0.2189881355 -0.0335766785 -0.4157649279
-0.2380271906 -0.0505254185 -0.4017728020
-0.2177231404 -0.0704314620 -0.4126328462
-0.2338687181 -0.0510570668 -0.4018099308
-0.2713354306 -0.0330886563 -0.3963616323
-0.2455589448 -0.0531276977 -0.3971008517
-0.2343844724 -0.0760304460 -0.3981449826
-0.2459531812 -0.0688329280 -0.3929482560
-0.2448027529 -0.0259497170 -0.4020047688
-0.2204943862 -0.0705162138 -0.4125525295
-0.2158166236 -0.0387337036 -0.4198377556
-0.2399008391 -0.0556644856 -0.4004560148
-0.2320587170 -0.0231978359 -0.4117602543
-0.2258987612 -0.0333092135 -0.4131408341
-0.2333443734 -0.0486547635 -0.4068012084
-0.2001050751 -0.0655142217 -0.4247212029
-0.2246501192 -0.0629038965 -0.4086624713
-0.2118253857 -0.0435853768 -0.4205294251
-0.2083839713 -0.0506832934 -0.4225300004
-0.2409621311 -0.0207745094 -0.4025640217
-0.2551669973 -0.0701396788 -0.3945748644
-0.2376683450 -0.0582393420 -0.4001350777
-0.2247693387 -0.0555838334 -0.4097500373
-0.2484229967 -0.0486513252 -0.3954819444
-0.2378237472 -0.0277395628 -0.4070505439
-0.2260978578 -0.0784016407 -0.4057681644
-0.2461997797 -0.0659091294 -0.3948799221
-0.2222475938 -0.0353208548 -0.4162633064
-0.1945412511 -0.0228406183 -0.4369200365
-0.2006777786 -0.0636318175 -0.4251969815
-0.2283349440 -0.0256124464 -0.4100279846
-0.2029360627 -0.0228901425 -0.4303077554
-0.2405972755 -0.0631958679 -0.3967891646
-0.2412738650 -0.0513158678 -0.3979435983
-0.2172686225 -0.0176217686 -0.4213584215
-0.2227121772 -0.0256046966 -0.4169817218
-0.2184925526 -0.0298463851 -0.4185156226
-0.2157574620 -0.0653842894 -0.4149118080
-0.2533908137 -0.0592041173 -0.3955104550
-0.2230227102 -0.0211925695 -0.4172724030
-0.2400445448 -0.0353587626 -0.4021464343
-0.2157524190 -0.0705794527 -0.4155736517
-0.1868137121 -0.0210154634 -0.4397083819
-0.2582612525 -0.0283898829 -0.3989891731
-0.2380693406 -0.0532877240 -0.3993715644
-0.2271532686 -0.0153009015 -0.4285199645
-0.2106056655 -0.0357184487 -0.4248376341
-0.2436639664 -0.0587306405 -0.3945484488
-0.2330531568 -0.0555643721 -0.4050421707
-0.2278060859 -0.0607789707 -0.4071451925
-0.2332188659 -0.0680877946 -0.4021383335
-0.2206178793 -0.0403550832 -0.4152447140
-0.2003319049 -0.0165898118 -0.4375534241
-0.2624330098 -0.0277298286 -0.3946369847
-0.2302708176 -0.0756605243 -0.4041347543
-0.2357430775 -0.0533835858 -0.4000639942
-0.2135783531 -0.0579973507 -0.4193245478
-0.2083606720 -0.0609420296 -0.4213020802
-0.2207055738 -0.0462445531 -0.4131067119
-0.2103670697 -0.0204054049 -0.4250494441
-0.2072795034 -0.0758863324 -0.4196547124
-0.2522698405 -0.0382978820 -0.3966211022
-0.1930613105 -0.0213691835 -0.4409742582
-0.2209131353 -0.0166389797 -0.4223123260
-0.2471960628 -0.0582618717 -0.3931795137
-0.2048201719 -0.0628044266 -0.4240887890
-0.2325576680 -0.0187372671 -0.4073331387
-0.2691065305 -0.0452552618 -0.3987037873
-0.2280477114 -0.0183058320 -0.4144228923
-0.2129997111 -0.0432837037 -0.4200143246
-0.2397510041 -0.0376022919 -0.4043409917
-0.2056795698 -0.0332898226 -0.4276273253
-0.2251654859 -0.0207950704 -0.4120766451
-0.2299028818 -0.0357281455 -0.4073217733
-0.2461803748 -0.0362528336 -0.3995183610
-0.2005334091 -0.0166256622 -0.4484489352
-0.2169397627 -0.0725082588 -0.4148530007
-0.2508354708 -0.0281411371 -0.4023023883
-0.2010638788 -0.0260371808 -0.4306556135
-0.2408413290 -0.0233369433 -0.4051146524
-0.2721913914 -0.0384118136 -0.3971546598
-0.2239805611 -0.0161957204 -0.4323918796
-0.2256420372 -0.0804741524 -0.4069405012
-0.2479063325 -0.0710112453 -0.3916479609
-0.2029371322 -0.0404297379 -0.4301800000
-0.2153580137 -0.0305697777 -0.4223857273
-0.1991296892 -0.0729447886 -0.4231754873
-0.2572925090 -0.0333474134 -0.3971052436
-0.2257274362 -0.0256436161 -0.4145249024
-0.2256267087 -0.0506775524 -0.4093291512
-0.2367779464 -0.0167347286 -0.4126617610
-0.1991809071 -0.0386916651 -0.4302638789
-0.2158578486 -0.0405211431 -0.4182809512
-0.2301031790 -0.0171577102 -0.4172844803
-0.2269495197 -0.0577380787 -0.4051361142
-0.2199733830 -0.0272169699 -0.4196528277
-0.2233656353 -0.0180938992 -0.4170952175
-0.1950648896 -0.0681492265 -0.4270011221
-0.2024067725 -0.0697781216 -0.4231780274
-0.2519936384 -0.0803692862 -0.3920489415
-0.2360382540 -0.0635137620 -0.4023226700
-0.2361135176 -0.0281193762 -0.4088051452
-0.2211402201 -0.0381792875 -0.4147201910
-0.2685742867 -0.0515839201 -0.4016927698
-0.2180589026 -0.0257785574 -0.4197126133
-0.1984137148 -0.0612447578 -0.4273962379
-0.2178801081 -0.0277416612 -0.4223525611
-0.2086509435 -0.0380348009 -0.4246273572
-0.2284624620 -0.0660172118 -0.4076226274
-0.2333587060 -0.0227527256 -0.4077742867
-0.2576594651 -0.0417207927 -0.3961734772
-0.2657728927 -0.0382307387 -0.3946945187
-0.2225500271 -0.0322477681 -0.4162182576
-0.2305335775 -0.0432276744 -0.4081128538
-0.2441989238 -0.0511253212 -0.3979403459
-0.2281947705 -0.0431666584 -0.4100815410
-0.2151589374 -0.0281501970 -0.4198191045
-0.2460794038 -0.0304391956 -0.4014121371
-0.1968093961 -0.0583652984 -0.4282799661
-0.2305185032 -0.0278975794 -0.4116445462
-0.1987535805 -0.0559396744 -0.4278819412
-0.1906448879 -0.0227651888 -0.4369258677
-0.2090132833 -0.0654096380 -0.4184158444
-0.1992170066 -0.0169475190 -0.4365076721
-0.2421288785 -0.0232657274 -0.4041828429
-0.2125483285 -0.0231051016 -0.4203849581
-0.2053907106 -0.0654754013 -0.4201227632
-0.2455782450 -0.0385448526 -0.3999629465
-0.1927522300 -0.0182440519 -0.4417291280
-0.2196940975 -0.0306820776 -0.4174753366
-0.2179903153 -0.0728327099 -0.4130015546
-0.2416874760 -0.0629279262 -0.3994308929
-0.2626466558 -0.0232257317 -0.3999033843
-0.2430407242 -0.0174591840 -0.4057402231
-0.2032435170 -0.0654699533 -0.4246895843
-0.2087176886 -0.0231649929 -0.4275576063
-0.2476229259 -0.0234272185 -0.4001620502
-0.2281665809 -0.0631354732 -0.4066811927
-0.2327564863 -0.0401726138 -0.4072616051
-0.2663192898 -0.0258474555 -0.3992543221
-0.2504874810 -0.0144580123 -0.4136897724
-0.2324351814 -0.0683989142 -0.4010794308
-0.2218840122 -0.0530407056 -0.4095842540
-0.1956263443 -0.0181301195 -0.4396270420
-0.2222641695 -0.0361277105 -0.4149841924
-0.2199855279 -0.0325976830 -0.4167398638
-0.2168405152 -0.0170033654 -0.4268413251
-0.1944660322 -0.0198780130 -0.4377233441
-0.1953482032 -0.0211963337 -0.4319491982
-0.2282074445 -0.0679710559 -0.4055434553
-0.2185210337 -0.0609758385 -0.4170699020
-0.2032839805 -0.0330210514 -0.4285014570
-0.2530971377 -0.0204389039 -0.3992288377
-0.1983754784 -0.0436413561 -0.4298208356
-0.2255349711 -0.0436254330 -0.4118820599
-0.2105057900 -0.0282732742 -0.4264307116
-0.2446500537 -0.0161632650 -0.4062906049
-0.2003672495 -0.0588136241 -0.4270057529
-0.2263302978 -0.0164095062 -0.4203854778
-0.2366982847 -0.0677464828 -0.3980259895
-0.2497923547 -0.0482550706 -0.3979778838
-0.2425234974 -0.0732092644 -0.3967993562
-0.1971367905 -0.0612140745 -0.4256930143
-0.2282884775 -0.0752649093 -0.4047710573
-0.2503868449 -0.0256879356 -0.3992177537
-0.2709471205 -0.0437620492 -0.3975135551
-0.2456692839 -0.0805075839 -0.3926377392
-0.2382251236 -0.0458269707 -0.4024694464
-0.2433822682 -0.0206800936 -0.4026607049
-0.2157102671 -0.0677935164 -0.4147597417
-0.2052274185 -0.0352713222 -0.4257565852
-0.2201521527 -0.0427209501 -0.4175863917
-0.2119096046 -0.0605196481 -0.4176714043
-0.2139623467 -0.0608329487 -0.4178814519
-0.2436117513 -0.0606429472 -0.3954360262
-0.2377067828 -0.0160634944 -0.4278522757
-0.2189026326 -0.0377754308 -0.4145414233
-0.2427926246 -0.0412185984 -0.4001334916
-0.2700895493 -0.0284042003 -0.3975358364
-0.2353479655 -0.0174791626 -0.4118709324
-0.2383329391 -0.0156176269 -0.4323676226
-0.2037961239 -0.0380068324 -0.4281217243
-0.2342185080 -0.0734679177 -0.4003900588
-0.2310722746 -0.0411966276 -0.4077206359
-0.2338340935 -0.0782381422 -0.4002958786
-0.2278418257 -0.0159971675 -0.4248211387
-0.2309147388 -0.0231248452 -0.4093741059
-0.2018815726 -0.0381935090 -0.4304172695
-0.2551473418 -0.0756196250 -0.3921779066
-0.1982338034 -0.0188629061 -0.4320699856
-0.2293943225 -0.0205180082 -0.4098470148
-0.2108092045 -0.0351099983 -0.4226596990
-0.2282848826 -0.0360101539 -0.4120496473
-0.2419159859 -0.0236875899 -0.4010423422
-0.2124139893 -0.0204050076 -0.4240297300
-0.2082221508 -0.0166589469 -0.4428303540
-0.2528255961 -0.0183501599 -0.3996128199
-0.2424203582 -0.0261357441 -0.4043622587
-0.2390176807 -0.0431445576 -0.4023794686
-0.2406287019 -0.0606401082 -0.4000784302
-0.2354694123 -0.0760083284 -0.3998210149
-0.2249343097 -0.0157561023 -0.4236497879
-0.2328414096 -0.0358668972 -0.4098823255
-0.2358175438 -0.0254263593 -0.4075611561
-0.2510006958 -0.0183885660 -0.4001004642
-0.2274064273 -0.0460413955 -0.4116959274
-0.2480938542 -0.0282355093 -0.3998821134
-0.2432384460 -0.0363203624 -0.3996615445
-0.2213767865 -0.0255413072 -0.4189466534
-0.2599914074 -0.0195774250 -0.4007385373
-0.2325735614 -0.0310731473 -0.4095135210
-0.2660613850 -0.0337653622 -0.3946017499
-0.2254865152 -0.0380646038 -0.4129173503
-0.2567441848 -0.0579233400 -0.3979447153
-0.2273856863 -0.0383955600 -0.4093190065
-0.2047596308 -0.0607635038 -0.4243886168
-0.2358887676 -0.0608445731 -0.4026817684
-0.2287468866 -0.0803258041 -0.4029291487
-0.2206342805 -0.0482227389 -0.4126664832
-0.2428846001 -0.0333469236 -0.4004170107
-0.1981297284 -0.0430990234 -0.4313933551
-0.2254588115 -0.0674728703 -0.4060028451
-0.2300635129 -0.0608201652 -0.4066321935
-0.2490155045 -0.0568030540 -0.3934467209
-0.2625149289 -0.0200137929 -0.4020636308
-0.2086263785 -0.0257099053 -0.4271548498
-0.2033492938 -0.0356085661 -0.4296768435
-0.2456970535 -0.0230063839 -0.4021624848
-0.2046488008 -0.0172874689 -0.4338594062
-0.2045632154 -0.0594138913 -0.4239169359
-0.2185170148 -0.0511135773 -0.4150572407
-0.1919565600 -0.0236140630 -0.4396017423
-0.2236331504 -0.0657619686 -0.4099960702
-0.2180421004 -0.0184739290 -0.4194690121
-0.1976909488 -0.0236088792 -0.4298293293
-0.2081415836 -0.0559634612 -0.4219509484
-0.2367826849 -0.0663752630 -0.3985593617
-0.2481619705 -0.0758982208 -0.3920411233
-0.2399393979 -0.0356855118 -0.4048056200
-0.2656205223 -0.0408514041 -0.3954480111
-0.2173894271 -0.0580571964 -0.4170899987
-0.2305035700 -0.0332604631 -0.4120609146
-0.2444135859 -0.0660037226 -0.3931448568
-0.2102017080 -0.0178217888 -0.4270290763
-0.2330573261 -0.0381597087 -0.4097125471
-0.2033457795 -0.0169154699 -0.4368218269
-0.2056210592 -0.0178786129 -0.4316010613
-0.2391877139 -0.0293409508 -0.4030928343
-0.2119970009 -0.0179997356 -0.4240633232
-0.2632522469 -0.0406184184 -0.3949633476
-0.2285326860 -0.0580347114 -0.4075616233
-0.2248651769 -0.0352389083 -0.4161741000
-0.2263246260 -0.0709494446 -0.4079851477
-0.2333981618 -0.0621215776 -0.4039953500
-0.2698768675 -0.0451600961 -0.3973932266
-0.2077321224 -0.0409539351 -0.4268221483
-0.2363902645 -0.0800500587 -0.3997945400
-0.2297073622 -0.0780777740 -0.4019517607
-0.2132090206 -0.0380649599 -0.4219221448
-0.2716646045 -0.0484075174 -0.3995274752
-0.2278620648 -0.0234126824 -0.4116259026
-0.2300662224 -0.0178424583 -0.4138952876
-0.1911039735 -0.0278337485 -0.4356290061
-0.2283217625 -0.0209213054 -0.4121343253
-0.2232924119 -0.0238366160 -0.4156454344
-0.2241306137 -0.0703210028 -0.4080831570
-0.1987415403 -0.0663366963 -0.4247665902
-0.2365017607 -0.0826012618 -0.3977130012
-0.2395987550 -0.0685879729 -0.4016520598
-0.2389666651 -0.0831574171 -0.3953508388
-0.2602582331 -0.0179128116 -0.4030570518
-0.2118486454 -0.0172952100 -0.4288820559
-0.2419800301 -0.0807076625 -0.3922132438
-0.2461003166 -0.0729700760 -0.3928047670
-0.1984131377 -0.0283083049 -0.4319072562
-0.2449190396 -0.0683000305 -0.3941401248
-0.2681537384 -0.0239197034 -0.4005606630
-0.2430327944 -0.0484148441 -0.3999434337
-0.2306004958 -0.0459402215 -0.4089794933
-0.2323930688 -0.0171832137 -0.4184905039
-0.2124454787 -0.0171275496 -0.4262139730
-0.2238672265 -0.0603969116 -0.4128826040
-0.2485210064 -0.0148717312 -0.4142479671
-0.2600834626 -0.0332217800 -0.3963152771
-0.2711259255 -0.0355266634 -0.3956277030
-0.2445322162 -0.0737643743 -0.3946334233
-0.1981073442 -0.0332217871 -0.4318967555
-0.2375914454 -0.0447178148 -0.4036618173
-0.2733550370 -0.0309167281 -0.3986569047
-0.2420554663 -0.0208625854 -0.4044460324
-0.2459899673 -0.0184106303 -0.4030567599
-0.1954676334 -0.0203905426 -0.4347480362
-0.2395884522 -0.0579400278 -0.4003961631
-0.2479075808 -0.0457515193 -0.3968809533
-0.1953585148 -0.0637425631 -0.4259340465
-0.2062527288 -0.0226545693 -0.4270011224
-0.2729917765 -0.0329949446 -0.3976455331
-0.2001786648 -0.0329282493 -0.4304670120
-0.1998192190 -0.0255539460 -0.4343336912
-0.2323651124 -0.0172801241 -0.4144513264
-0.2408249378 -0.0355675984 -0.3998038322
-0.2082249337 -0.0362175067 -0.4255057538
-0.2216099912 -0.0581410083 -0.4102758169
-0.2145807209 -0.0702689837 -0.4172321404
-0.2330551729 -0.0259413286 -0.4118263074
-0.2582137809 -0.0486496502 -0.3976357124
-0.2183482078 -0.0631972372 -0.4119232722
-0.2510060847 -0.0306056849 -0.3979367426
-0.2362560206 -0.0482372311 -0.4003238277
-0.2277546545 -0.0733507221 -0.4070586757
-0.2027375429 -0.0628860285 -0.4246574867
-0.2547591460 -0.0151394289 -0.4109478601
-0.2230805166 -0.0684192394 -0.4100705724
-0.2434942663 -0.0434210600 -0.4001110397
-0.2483641356 -0.0151979132 -0.4205364585
-0.2424970406 -0.0376883287 -0.4027417420
-0.2638696730 -0.0258180220 -0.3988064826
-0.2444100454 -0.0234301092 -0.3994162714
-0.2521946349 -0.0703967216 -0.3945649371
-0.2206027906 -0.0307082091 -0.4150935616
-0.1926093515 -0.0186368151 -0.4399143167
-0.2470980594 -0.0656298340 -0.3964167686
-0.2452679207 -0.0207816985 -0.4019357901
-0.2598511791 -0.0405845640 -0.3953494326
-0.2152341891 -0.0479196205 -0.4193808457
-0.2600356931 -0.0360691767 -0.3949354746
-0.2044220764 -0.0477717239 -0.4249282556
-0.2031156018 -0.0204481492 -0.4299217303
-0.2404645773 -0.0426406578 -0.3998263663
-0.2185042134 -0.0284768557 -0.4176468721
-0.1955408978 -0.0329765615 -0.4341197188
-0.2524053454 -0.0143910954 -0.4185794890
-0.2258185594 -0.0456614391 -0.4108771501
-0.2346631545 -0.0555713829 -0.4028288312
-0.2188995679 -0.0705276910 -0.4143130046
-0.2593519688 -0.0145217115 -0.4150888324
-0.2044066489 -0.0609078054 -0.4207433174
-0.2539824439 -0.0599659086 -0.3966216928
-0.2476325658 -0.0204522876 -0.4019075718
-0.1972076199 -0.0227028341 -0.4371284080
-0.2631024280 -0.0333836446 -0.3947306134
-0.2410768514 -0.0328519176 -0.4040640816
-0.2429529636 -0.0550267459 -0.3973408796
-0.2547599574 -0.0711245297 -0.3931663864
-0.2053981541 -0.0556883901 -0.4227149110
-0.2126448898 -0.0654760985 -0.4166215023
-0.2405850968 -0.0405894884 -0.4005160327
-0.2257731634 -0.0816851832 -0.4034391309
-0.2197675161 -0.0558641306 -0.4152822010
-0.2386512380 -0.0211038688 -0.4049611351
-0.2534137964 -0.0239605419 -0.3987550139
-0.2407353968 -0.0208017227 -0.4046203073
-0.2052513479 -0.0510768214 -0.4273406200
-0.2361665118 -0.0659326495 -0.3995657138
-0.2108937002 -0.0504187097 -0.4220151065
-0.2655753089 -0.0264671129 -0.3953467002
-0.2259609252 -0.0170743670 -0.4174029529
-0.2631452437 -0.0253125109 -0.3974232594
-0.2204636603 -0.0209451677 -0.4175722916
-0.2347153620 -0.0728614691 -0.4017229647
-0.2304999078 -0.0259794826 -0.4096614221
-0.2057608740 -0.0379854164 -0.4278546021
-0.2334453556 -0.0254654115 -0.4067232760
-0.2119744517 -0.0698052924 -0.4178662292
-0.2083235331 -0.0449355669 -0.4265837170
-0.2538025486 -0.0143131846 -0.4140948701
-0.2088793596 -0.0163132663 -0.4285844833
-0.2473255098 -0.0297100712 -0.4013123810
-0.2355700313 -0.0635375051 -0.3999666744
-0.2537472432 -0.0287467490 -0.3972783620
-0.2056437124 -0.0251121785 -0.4274060081
-0.2469143942 -0.0655071478 -0.3924435566
-0.2606437648 -0.0579212589 -0.4000249322
-0.2311746647 -0.0772749204 -0.4042789405
-0.2208563899 -0.0456779938 -0.4145297754
-0.2458113251 -0.0331615468 -0.4004553552
-0.2211027372 -0.0633616817 -0.4121798774
-0.2502484025 -0.0149551082 -0.4213190921
-0.1984927951 -0.0311371689 -0.4326627414
-0.2331534028 -0.0157121662 -0.4250032306
-0.2206968275 -0.0532459368 -0.4121850213
-0.2009213058 -0.0660652470 -0.4225044223
-0.2055696572 -0.0204647334 -0.4278185218
-0.2522372992 -0.0219307876 -0.3970688915
-0.2092531621 -0.0276058074 -0.4258715510
-0.2579322413 -0.0508556477 -0.3977019337
-0.2366921815 -0.0532603253 -0.4027150533
-0.2294370359 -0.0706105695 -0.4029938085
-0.2685314165 -0.0386678736 -0.3948726549
-0.2305950212 -0.0254826155 -0.4076273544
-0.2555181768 -0.0557083323 -0.3969230003
-0.2334733829 -0.0506847743 -0.4050178081
-0.2382667616 -0.0761966211 -0.3988553389
-0.2176637744 -0.0358138961 -0.4197746447
-0.2653856805 -0.0529798506 -0.4004810418
-0.2508568466 -0.0751855150 -0.3916199505
-0.2473837733 -0.0609608750 -0.3933645231
-0.2731017284 -0.0268483760 -0.4005667828
-0.2702178375 -0.0256571179 -0.3994331984
-0.2286339161 -0.0607486659 -0.4028111258
-0.2570611785 -0.0150940045 -0.4164003766
-0.2316166766 -0.0784496376 -0.4005986164
-0.2083347614 -0.0305579441 -0.4273921736
-0.2281019856 -0.0257446250 -0.4125709047
-0.2221001309 -0.0427924027 -0.4107802751
-0.2251166091 -0.0535671223 -0.4092795663
-0.2006637653 -0.0505773698 -0.4272444646
-0.2419142190 -0.0580825475 -0.3972416589
-0.2459860072 -0.0557639077 -0.3954594731
-0.2130297404 -0.0259570153 -0.4224963026
-0.2390951881 -0.0334172832 -0.4031700741
-0.2687598891 -0.0431697903 -0.3968003343
-0.2190889269 -0.0251318384 -0.4180789292
-0.2184083913 -0.0379992299 -0.4175855468
-0.2243550775 -0.0612860007 -0.4079655974
-0.2605121747 -0.0206662313 -0.4000980490
-0.2273021444 -0.0179237951 -0.4166274727
-0.1986318777 -0.0579418950 -0.4276490211
-0.2328386727 -0.0201685393 -0.4112256361
-0.2715328563 -0.0311727595 -0.3969019543
-0.2309013663 -0.0632257137 -0.4051925743
-0.2081376525 -0.0479555032 -0.4242802647
-0.2174216154 -0.0752512691 -0.4126909938
-0.1884452105 -0.0281732902 -0.4381441474
-0.2076281429 -0.0583857190 -0.4220144495
-0.1920653054 -0.0225217016 -0.4373979677
-0.2454789632 -0.0705900614 -0.3926506276
-0.2050805159 -0.0481215516 -0.4269487547
-0.2034895346 -0.0556045656 -0.4243898738
-0.2405709874 -0.0758405872 -0.3973248897
-0.2234460517 -0.0159405374 -0.4226608805
-0.2300177233 -0.0185435886 -0.4116099234
-0.2212250680 -0.0556794517 -0.4104306549
-0.2427820271 -0.0285160041 -0.4045385926
-0.2684954376 -0.0335958284 -0.3948380009
-0.2464606095 -0.0584155437 -0.3974490200
-0.2076294858 -0.0502062044 -0.4241131255
-0.2540271873 -0.0577258408 -0.3967574932
-0.2147987567 -0.0653380472 -0.4172394665
-0.2127851194 -0.0310507068 -0.4229015272
-0.2607205260 -0.0413407602 -0.3963471229
-0.2128460716 -0.0410496971 -0.4203221806
-0.1963821261 -0.0631088921 -0.4267763413
-0.2532757521 -0.0380559079 -0.3945049345
-0.2051570047 -0.0168759373 -0.4442564150
-0.2342076271 -0.0363362904 -0.4054645054
-0.2187729080 -0.0164449823 -0.4251005751
-0.2138866404 -0.0631742507 -0.4192759077
-0.2424249724 -0.0733899623 -0.3938386589
-0.2016629651 -0.0359446406 -0.4306086302
-0.2108301080 -0.0429062950 -0.4229093010
-0.2129849941 -0.0631586052 -0.4183773696
-0.2355365604 -0.0165020656 -0.4170404375
-0.2025822240 -0.0484232959 -0.4273333937
-0.2031426430 -0.0533570535 -0.4245850742
-0.1957586744 -0.0228260571 -0.4344458944
-0.2475691929 -0.0158392583 -0.4178144489
-0.2305613656 -0.0386234639 -0.4099895422
-0.2156994805 -0.0162137499 -0.4296675158
-0.2356462664 -0.0163695536 -0.4221271192
-0.2684613487 -0.0232437664 -0.4018266864
-0.2555205103 -0.0433201998 -0.3967574177
-0.2160595954 -0.0582734454 -0.4178835982
-0.2557304363 -0.0144526228 -0.4094709590
-0.2113097577 -0.0159927193 -0.4343435127
-0.2243257008 -0.0582334296 -0.4071696993
-0.2432674370 -0.0608931300 -0.3976328071
-0.2378692769 -0.0627471764 -0.4000995718
-0.2258560425 -0.0712280358 -0.4054814265
-0.2393293530 -0.0382437818 -0.4029931128
-0.1926558945 -0.0202834513 -0.4371857304
-0.2251729146 -0.0710734949 -0.4090071917
-0.2393502390 -0.0626474871 -0.4021443048
-0.2083526340 -0.0633874696 -0.4196759912
-0.2624425786 -0.0483225681 -0.3986337867
-0.2483487358 -0.0506174191 -0.3951868461
-0.2480526508 -0.0431193319 -0.3975053940
-0.2423164466 -0.0436590234 -0.4011530992
-0.2375603193 -0.0282021881 -0.4051638377
-0.2061365706 -0.0376681711 -0.4252913075
-0.2232533648 -0.0682039984 -0.4079977703
-0.2204016876 -0.0166164429 -0.4247762331
-0.2532127129 -0.0481111601 -0.3968508533
-0.2285672474 -0.0283529849 -0.4127033754
-0.2355218856 -0.0781121587 -0.3998005655
-0.2502354526 -0.0357498766 -0.3977736595
-0.1988474372 -0.0232273822 -0.4345680767
-0.1973810327 -0.0278873658 -0.4346155085
-0.2049097007 -0.0207470237 -0.4290458867
-0.2197970200 -0.0449386985 -0.4167033840
-0.2362276611 -0.0478681242 -0.4043401204
-0.2483241340 -0.0560204583 -0.3949263031
-0.2106848873 -0.0682204192 -0.4177801996
-0.2296517640 -0.0733353272 -0.4043261111
-0.2506349589 -0.0236958461 -0.3994467036
-0.2157901968 -0.0630048182 -0.4175907998
-0.2174460291 -0.0280636152 -0.4201755925
-0.2436577917 -0.0626193297 -0.3955290136
-0.2204237751 -0.0560897798 -0.4119364569
-0.2109407529 -0.0659212840 -0.4175661931
-0.2381527871 -0.0413561948 -0.4029735029
-0.2486757866 -0.0657873864 -0.3944004494
-0.2031811402 -0.0281601333 -0.4300642280
-0.1878793985 -0.0254130503 -0.4391904622
-0.1980368450 -0.0229380074 -0.4330909321
-0.2079574317 -0.0302730082 -0.4297988713
-0.2025324813 -0.0527161463 -0.4273927607
-0.2352397130 -0.0154688876 -0.4277432012
-0.2008560632 -0.0280881613 -0.4305006755
-0.1995751417 -0.0704949338 -0.4249289274
-0.2031022725 -0.0634170263 -0.4224088230
-0.2651746543 -0.0230973604 -0.4002508278
-0.2208426818 -0.0589057542 -0.4127977788
-0.2680375565 -0.0413259803 -0.3954216242
-0.2285095672 -0.0533683718 -0.4081200154
-0.2487406582 -0.0464397594 -0.3958081305
-0.2429670446 -0.0507809677 -0.4000471072
-0.2132300138 -0.0160181914 -0.4346487820
-0.2581323385 -0.0382875316 -0.3954692781
-0.2633871622 -0.0408189388 -0.3962242114
-0.2532088922 -0.0160177161 -0.4022059133
-0.2334559047 -0.0183621543 -0.4091892112
-0.2430867807 -0.0756364533 -0.3931069757
-0.2060377387 -0.0189809585 -0.4293697544
-0.2356679983 -0.0159280604 -0.4150344813
-0.2288041190 -0.0560436232 -0.4040627584
-0.2019116133 -0.0168271773 -0.4492940009
-0.2489618896 -0.0629741909 -0.3952905893
-0.2079614953 -0.0333614390 -0.4271491971
-0.2501170933 -0.0334852226 -0.3989767730
-0.2413557127 -0.0183729898 -0.4046034558
-0.2557903801 -0.0306144235 -0.3973486672
-0.2200539261 -0.0633997321 -0.4142705202
-0.2108071723 -0.0234494858 -0.4248251615
-0.2167979330 -0.0512116905 -0.4155069143
-0.2456713504 -0.0278501127 -0.4001901547
-0.2034666526 -0.0254088878 -0.4315619334
-0.2699450542 -0.0379865743 -0.3964908474
-0.2379109108 -0.0709698348 -0.3996721915
-0.2330708970 -0.0286767138 -0.4095161882
-0.1922964008 -0.0252948034 -0.4371062755
-0.2253245651 -0.0163248960 -0.4219070731
-0.2306293347 -0.0506385904 -0.4080132628
-0.2370753157 -0.0557696380 -0.4020394909
-0.2369182381 -0.0437879302 -0.4022407348
-0.2454056368 -0.0158620374 -0.4096349517
-0.2378638834 -0.0503851417 -0.3999750912
-0.2500596836 -0.0311716114 -0.3994487571
-0.2003336820 -0.0312599163 -0.4302637953
-0.2671275636 -0.0508874215 -0.3998067241
-0.2313878583 -0.0508040190 -0.4048693877
-0.2109623700 -0.0385368454 -0.4248727759
-0.2037619561 -0.0406278977 -0.4279341904
-0.2536357036 -0.0435147456 -0.3980605229
-0.1951552304 -0.0224500006 -0.4393681058
-0.2578644629 -0.0527281614 -0.3980850012
-0.2256754122 -0.0507985631 -0.4074103588
-0.2402456641 -0.0708282809 -0.3972132905
-0.2457457241 -0.0408584324 -0.3974172594
-0.2186016682 -0.0580440143 -0.4148815314
-0.2453863493 -0.0154883446 -0.4125558156
-0.2309230576 -0.0204747056 -0.4119171755
-0.2385682793 -0.0310443838 -0.4053433173
-0.2480499212 -0.0584613755 -0.3951610883
-0.1935731396 -0.0207925616 -0.4331829250
-0.2225634750 -0.0307005149 -0.4145128812
-0.2065711343 -0.0552855201 -0.4250451955
-0.2111320554 -0.0262098624 -0.4263657762
-0.2334394071 -0.0209624474 -0.4080371591
-0.2614855688 -0.0433319010 -0.3967352225
-0.2298390716 -0.0405413806 -0.4115852863
-0.2333530280 -0.0281955700 -0.4081564662
-0.2353320868 -0.0310161483 -0.4067750570
-0.2108715074 -0.0580047127 -0.4198449940
-0.2627699597 -0.0306718960 -0.3954275382
-0.1984876998 -0.0582057059 -0.4258389260
-0.2080149651 -0.0285089761 -0.4289925992
-0.2283767062 -0.0281779335 -0.4106311282
-0.2386419056 -0.0708396935 -0.3977216099
-0.2482639069 -0.0809183505 -0.3921100384
-0.2152335495 -0.0699741319 -0.4132201672
-0.2194848508 -0.0409406833 -0.4195730388
-0.2012052089 -0.0168053303 -0.4425193667
-0.2157903046 -0.0333094366 -0.4223394199
-0.2141941811 -0.0714333378 -0.4131760023
-0.2181809237 -0.0507613315 -0.4172862683
-0.2410766560 -0.0557672717 -0.3973465078
-0.2296093106 -0.0482561551 -0.4091253877
-0.2516028881 -0.0150225786 -0.4150875509
-0.2560194591 -0.0287397877 -0.3968808974
-0.2431720644 -0.0311197732 -0.4004895389
-0.2158417233 -0.0553459769 -0.4171053754
-0.2608033973 -0.0483757110 -0.3981926119
-0.2243135039 -0.0558989002 -0.4078509151
-0.2408813326 -0.0464945872 -0.4006316464
-0.2544541061 -0.0306779351 -0.3957798183
-0.2372584785 -0.0355536834 -0.4050055733
-0.2028682331 -0.0652940944 -0.4215187232
-0.2234418633 -0.0175474267 -0.4192782133
-0.2627132773 -0.0354904487 -0.3948333016
-0.2205209620 -0.0283159117 -0.4166847146
-0.2102262283 -0.0679882999 -0.4196226287
-0.2236717948 -0.0582735878 -0.4095579725
-0.2440543688 -0.0584968808 -0.3975092014
-0.2514784804 -0.0733352902 -0.3925054281
-0.2268384483 -0.0399752908 -0.4071792986
-0.2257810149 -0.0413103504 -0.4110259658
-0.2506824031 -0.0532529528 -0.3952022938
-0.2560712099 -0.0429409910 -0.3951205164
-0.2476456653 -0.0187085759 -0.3997145364
-0.2507036143 -0.0505252438 -0.3966687988
-0.2617689967 -0.0251643620 -0.3989039958
-0.2044592107 -0.0600698220 -0.4230141398
-0.2026620857 -0.0455900957 -0.4279038024
-0.2688029706 -0.0302461740 -0.3961897194
-0.2086887158 -0.0428908750 -0.4250981449
-0.2250578761 -0.0459763324 -0.4081499480
-0.2301182225 -0.0702647381 -0.4046296030
-0.1958906651 -0.0192627087 -0.4332745373
-0.2569214305 -0.0144032902 -0.4153121959
-0.2435353916 -0.0679229258 -0.3969567289
-0.2627480178 -0.0382594254 -0.3946218990
-0.2394791692 -0.0269943420 -0.4063231051
-0.2427421008 -0.0824507849 -0.3944169601
-0.1988228336 -0.0401575733 -0.4318499714
-0.1983884573 -0.0168758724 -0.4490871429
-0.2558763723 -0.0356304534 -0.3951986134
-0.2078093674 -0.0678774035 -0.4193980252
-0.2111273571 -0.0407117527 -0.4226149448
-0.2129167270 -0.0458222765 -0.4202468100
-0.2459948712 -0.0255671615 -0.4003498851
-0.1980102658 -0.0380124785 -0.4324110299
-0.2569390134 -0.0408930529 -0.3969415524
-0.2233574539 -0.0257048467 -0.4152865708
-0.2436191801 -0.0607548325 -0.3998037197
-0.2314516239 -0.0746220170 -0.3984803239
-0.2356209159 -0.0326951258 -0.4092803597
-0.2333214133 -0.0529011919 -0.4047694843
-0.2205358446 -0.0185887441 -0.4192920476
-0.2306831780 -0.0658471943 -0.4043330010
-0.2273849497 -0.0381987840 -0.4129970471
-0.2281281672 -0.0307674597 -0.4122875910
-0.2252264529 -0.0484023644 -0.4101842218
-0.1997830561 -0.0636053655 -0.4227575979
-0.2459796915 -0.0572929695 -0.3989666398
-0.2429549931 -0.0398314628 -0.3979966086
-0.2075129977 -0.0376417915 -0.4234796571
-0.2242825891 -0.0782478880 -0.4097367598
-0.2228218274 -0.0163709744 -0.4195446234
-0.2327656696 -0.0528596261 -0.4069230337
-0.2109308937 -0.0227366185 -0.4225904396
-0.2319426327 -0.0529242750 -0.4088082027
-0.2382510871 -0.0383479131 -0.4062762633
-0.2192449233 -0.0229693513 -0.4182042174
-0.2436959893 -0.0525861569 -0.3995138109
-0.1957164123 -0.0310219433 -0.4343032560
-0.2177613154 -0.0563790221 -0.4167910963
-0.2647906120 -0.0285791601 -0.3944819314
-0.2177784387 -0.0159691353 -0.4263201561
-0.1936093867 -0.0636439137 -0.4258603156
-0.2360361973 -0.0483618944 -0.4027841472
-0.2187748762 -0.0627386087 -0.4105867765
-0.1932345580 -0.0188978526 -0.4378480458
-0.2409073263 -0.0606410466 -0.3959537446
-0.2023397512 -0.0331086883 -0.4295060769
-0.2183209357 -0.0484241739 -0.4133455260
-0.2283196331 -0.0636383967 -0.4058817411
-0.2478316476 -0.0357767604 -0.3994135459
-0.2647206855 -0.0355065943 -0.3945461159
-0.2229425011 -0.0232288935 -0.4172686345
-0.2177020204 -0.0382758784 -0.4192418814
-0.2310639973 -0.0577914450 -0.4072134760
-0.2432345948 -0.0455887175 -0.3997308590
-0.2469569292 -0.0357428079 -0.3972309843
-0.2652673032 -0.0511693713 -0.4001314537
-0.2229395980 -0.0530203236 -0.4098808534
-0.1933842003 -0.0661396161 -0.4262815416
-0.1908991411 -0.0310239107 -0.4346668944
-0.2360896182 -0.0433965558 -0.4055503005
-0.2478572362 -0.0162635849 -0.4050443379
-0.2183718230 -0.0177983697 -0.4242891945
-0.2402869541 -0.0782322424 -0.3972864516
-0.2267964463 -0.0735103153 -0.4055156588
-0.2587477436 -0.0183674306 -0.4015313233
-0.2557761629 -0.0483286801 -0.3974679246
-0.2220098538 -0.0680537988 -0.4117739751
-0.2531204062 -0.0255827515 -0.3991471364
-0.2132648486 -0.0223400576 -0.4239448720
-0.2063176179 -0.0680339663 -0.4205619133
-0.2680659533 -0.0405376473 -0.3963719828
-0.2617818304 -0.0531445787 -0.3995721282
-0.2466941011 -0.0253504020 -0.4043702234
-0.2205545593 -0.0756792997 -0.4097152982
-0.2457255716 -0.0407747216 -0.3994291339
-0.2389920503 -0.0161227789 -0.4109475315
-0.2476843484 -0.0639211793 -0.3928315995
-0.2181678156 -0.0307970637 -0.4193434121
-0.2210618724 -0.0661315981 -0.4124740508
-0.2081645243 -0.0361011773 -0.4273681343
-0.1952535303 -0.0279494149 -0.4346529851
-0.2382851990 -0.0678589661 -0.3971627534
-0.2414829209 -0.0235108249 -0.4028383493
-0.2217715171 -0.0729621676 -0.4102610658
-0.2379594594 -0.0149913384 -0.4291355610
-0.2279647887 -0.0477076657 -0.4119934738
-0.2225646255 -0.0504381715 -0.4122398602
-0.1905789612 -0.0285934761 -0.4369750161
-0.2309388037 -0.0590942353 -0.4026929850
-0.1982493773 -0.0413246285 -0.4306325465
-0.2606639207 -0.0332585310 -0.3945630852
-0.2030932596 -0.0576350053 -0.4235935831
-0.2722792327 -0.0254501980 -0.4013608992
-0.2516393661 -0.0170063991 -0.4008814096
-0.2407805456 -0.0532035180 -0.3995557072
-0.2436265200 -0.0489257462 -0.3981723785
-0.2304469227 -0.0424052544 -0.4092218812
-0.2387087760 -0.0604664257 -0.3976004445
-0.2352587523 -0.0207875966 -0.4074918255
-0.2190362795 -0.0660903679 -0.4102237647
-0.2147822103 -0.0254887253 -0.4216815193
-0.2563351276 -0.0318287460 -0.3948519070
-0.2307840598 -0.0681447912 -0.4025339733
-0.2682458968 -0.0361325812 -0.3948246502
-0.2461294615 -0.0507851278 -0.3970615488
-0.2109789253 -0.0482444198 -0.4221820783
-0.2299365622 -0.0249560880 -0.4128430857
-0.2396216529 -0.0285266743 -0.4063383021
-0.2599491189 -0.0308866725 -0.3951250015
-0.2354060101 -0.0357603743 -0.4070114870
-0.2587353454 -0.0434859270 -0.3969001973
-0.2550379186 -0.0232556110 -0.3989067862
-0.2326429229 -0.0165477054 -0.4223748338
-0.2024237277 -0.0284143592 -0.4282308259
-0.2446403490 -0.0167786139 -0.4026866225
-0.2198953679 -0.0503773143 -0.4146633950
-0.2745425828 -0.0356969018 -0.3976143302
-0.2084532947 -0.0280392645 -0.4277440004
-0.2095095802 -0.0491507037 -0.4211057615
-0.2385710676 -0.0732075309 -0.3978260587
-0.2407232001 -0.0433480758 -0.4020926580
-0.2357472452 -0.0457000300 -0.4042369272
-0.2238543671 -0.0485171023 -0.4122516189
-0.2078377440 -0.0555232302 -0.4204055266
-0.2383348058 -0.0230807880 -0.4053234065
-0.2132799114 -0.0533611624 -0.4180706752
-0.2312078219 -0.0706964554 -0.4028651387
-0.2207021051 -0.0162852987 -0.4261792413
-0.2185714990 -0.0555464240 -0.4151779314
-0.2447365104 -0.0190446313 -0.4000155369
-0.2080172327 -0.0406925419 -0.4235090664
-0.2546636629 -0.0272134815 -0.3992910371
-0.2158094198 -0.0465853177 -0.4178766310
-0.2235052735 -0.0162494443 -0.4252575785
-0.2475995329 -0.0712658411 -0.3905961242
-0.2027036585 -0.0509329459 -0.4294660730
-0.1940532408 -0.0276044480 -0.4364444672
-0.2362939394 -0.0410459691 -0.4048550828
-0.2322391719 -0.0335990787 -0.4118163586
-0.2055435330 -0.0346744210 -0.4289743304
-0.2191821097 -0.0730672747 -0.4108456884
-0.2516200008 -0.0505290473 -0.3956630671
-0.2579135073 -0.0260569312 -0.3991479415
-0.2073397817 -0.0210285000 -0.4251187911
-0.2053912511 -0.0357889705 -0.4281036973
-0.1886378154 -0.0193069130 -0.4390029758
-0.2452738046 -0.0157566475 -0.4165673212
-0.2575008515 -0.0236088561 -0.3996713342
-0.2379663886 -0.0358652293 -0.4029382629
-0.2583295392 -0.0297570946 -0.3996197348
-0.2123548155 -0.0358980395 -0.4200913866
-0.2123405069 -0.0161309805 -0.4285804728
-0.2100443345 -0.0730523697 -0.4184419784
-0.2272366974 -0.0733541347 -0.4028944625
-0.2289167017 -0.0165405750 -0.4215230598
-0.2137569379 -0.0328568986 -0.4205499625
-0.1960577679 -0.0379915698 -0.4324433527
-0.2098172978 -0.0410590824 -0.4246925414
-0.2058544468 -0.0167627693 -0.4425517796
-0.2433614539 -0.0806816524 -0.3941094391
-0.2467401153 -0.0329852168 -0.4012714172
-0.2309060645 -0.0306608918 -0.4103278527
-0.2281198516 -0.0331639769 -0.4125002050
-0.2348575485 -0.0385062927 -0.4066561193
-0.2607609183 -0.0387984300 -0.3948865011
-0.2158968716 -0.0558388512 -0.4151616619
-0.2128678988 -0.0348077359 -0.4241691124
-0.2680160051 -0.0263391405 -0.3968874436
-0.2554207231 -0.0665184752 -0.3956538117
-0.2453367980 -0.0305447439 -0.3999086535
-0.2414548460 -0.0313259923 -0.4024902897
-0.2455520804 -0.0758714321 -0.3949775519
-0.2333840365 -0.0335285336 -0.4096845815
-0.2701396709 -0.0506195308 -0.4021083017
-0.2711192202 -0.0400016477 -0.3963391949
-0.2388419565 -0.0586656709 -0.4028080938
-0.2339932345 -0.0464061648 -0.4047621301
-0.2409877131 -0.0455375427 -0.4017247194
-0.2046255839 -0.0721580623 -0.4222385312
-0.2283002065 -0.0505871122 -0.4091297060
-0.2186308682 -0.0430832128 -0.4188817305
-0.1935957745 -0.0626691785 -0.4275019169
-0.1974235328 -0.0206134285 -0.4367075519
-0.2330056670 -0.0382160393 -0.4075698675
-0.2171642140 -0.0406192417 -0.4179935980
-0.2308332106 -0.0763110901 -0.4009022301
-0.1975206994 -0.0655443628 -0.4265425587
-0.2081908237 -0.0459058336 -0.4247730192
-0.2428617196 -0.0686509732 -0.3945031474
-0.2338071018 -0.0560779944 -0.4026627988
-0.2318396515 -0.0556825998 -0.4032269804
-0.2533779442 -0.0168448780 -0.4006953537
-0.2109033819 -0.0632915732 -0.4178017121
-0.2266120523 -0.0834252891 -0.4028429498
-0.2505401373 -0.0449557342 -0.3960867822
-0.2029459923 -0.0314590623 -0.4283487188
-0.2547702491 -0.0515277945 -0.3967517912
-0.2528785765 -0.0461449203 -0.3968452842
-0.2512751007 -0.0160923982 -0.4186496540
-0.2255267613 -0.0306753992 -0.4143689812
-0.2020850908 -0.0402433024 -0.4318821566
-0.2410188730 -0.0653328362 -0.4014512158
-0.2551004020 -0.0733757884 -0.3926349794
-0.1954171359 -0.0250880095 -0.4346493197
-0.2211305229 -0.0580624776 -0.4143047007
-0.2063168382 -0.0610178630 -0.4220547654
-0.2057199513 -0.0701396431 -0.4217785443
-0.2555831224 -0.0164065426 -0.4022229165
-0.2329310107 -0.0632045622 -0.4024665782
-0.2004337236 -0.0461962614 -0.4288726747
-0.2587843835 -0.0288758306 -0.3978530020
-0.2375485513 -0.0558311415 -0.3997801627
-0.2575096491 -0.0152047534 -0.4111585664
-0.2079086957 -0.0177351556 -0.4294556398
-0.2477921470 -0.0255714013 -0.3999598264
-0.2441762511 -0.0161555782 -0.4036290091
-0.2525142906 -0.0280172633 -0.3990260588
-0.2344794485 -0.0706698290 -0.4020241243
-0.2133173438 -0.0335935118 -0.4229454780
-0.2328166936 -0.0256941611 -0.4091404289
-0.2185158653 -0.0480636101 -0.4153230341
-0.2185451984 -0.0170724764 -0.4217928052
-0.2454841952 -0.0626557925 -0.3927991853
-0.2021328772 -0.0728414486 -0.4221156255
-0.2554944456 -0.0331345722 -0.3940049708
-0.2047023376 -0.0734334533 -0.4203679718
-0.2502133226 -0.0766389960 -0.3911217695
-0.2143022154 -0.0726109662 -0.4153272394
-0.2444369710 -0.0464200401 -0.3973917343
-0.2402498785 -0.0558777569 -0.4014312277
-0.2323157360 -0.0757605410 -0.4023167960
-0.2679584324 -0.0535295121 -0.4019959867
-0.2238481788 -0.0777365925 -0.4072129636
-0.2237048855 -0.0730679304 -0.4092423788
-0.2158433341 -0.0179381232 -0.4222446821
-0.2486072994 -0.0733720507 -0.3923846047
-0.2284374257 -0.0781752641 -0.4048093201
-0.1915678108 -0.0257577422 -0.4352131573
-0.2292589635 -0.0837132999 -0.4025314054
-0.2676276008 -0.0284453685 -0.3974034647
-0.2351412533 -0.0684335923 -0.4021906483
-0.2630435980 -0.0285281192 -0.3973295400
-0.2062534338 -0.0257448659 -0.4301689358
-0.2243497670 -0.0633050129 -0.4075806737
-0.2504512595 -0.0284400904 -0.3993208432
-0.2482603916 -0.0251930974 -0.3980031444
-0.2361707884 -0.0660975463 -0.4021439158
-0.2304579467 -0.0382806566 -0.4118139595
-0.2592180168 -0.0242977852 -0.3960149525
