-0.2684366071 -0.0407870989 -0.4169071204
-0.1461128397 0.0531083451 -0.3893588044
-0.1767020513 0.0127362753 -0.3603594483
-0.1263658285 0.0301330290 -0.3967288497
-0.1437364390 -0.0312281672 -0.3941763304
-0.2797270167 0.0077545872 -0.3444351277
-0.2107377808 0.0580977710 -0.3814009614
-0.1914190855 0.0449199231 -0.3843035690
-0.1309124090 0.0320062216 -0.3746763763
-0.1474964495 0.0438862903 -0.3747924273
-0.1383472053 -0.0143260611 -0.4477363924
-0.1740423110 0.0216462618 -0.4043464280
-0.0883541610 -0.0072781494 -0.3998706460
-0.2121152201 -0.0307624331 -0.4273245033
-0.1596405058 -0.0439030909 -0.4396553132
-0.3517610828 -0.0040490344 -0.4218604581
-0.2601127780 0.0031975853 -0.4468081768
-0.1989387836 -0.0357148638 -0.4312237061
-0.1837564058 0.0094040198 -0.4669713124
-0.1490320469 -0.0023842146 -0.3915269955
-0.1708435232 0.0332765390 -0.4223333004
-0.1647761477 -0.0353823515 -0.4380529621
-0.2405297818 0.0607847167 -0.3835307124
-0.1839724084 -0.0374908678 -0.4389436128
-0.2357801267 -0.0070189698 -0.3914585449
-0.2183688621 -0.0362278878 -0.4268809079
-0.1991119970 0.0044739675 -0.3564853460
-0.2394802782 0.0224999851 -0.3493987382
-0.2619391609 -0.0364441565 -0.4353481997
-0.2008248997 -0.0200368155 -0.4853102149
-0.2017492801 -0.0294921566 -0.4176363051
-0.2589801193 -0.0311727812 -0.4023072560
-0.2857757170 -0.0161174735 -0.4095775519
-0.2464547843 -0.0249010737 -0.4406197571
-0.2709447195 -0.0636617383 -0.4519664201
-0.2258516614 0.0569795877 -0.4034758856
-0.2237942671 -0.0287003648 -0.4513562298
-0.2912390289 0.0179383519 -0.3359624342
-0.1938073949 0.0175380191 -0.3567396583
-0.2468787445 -0.0320075772 -0.4095103792
-0.1607332585 -0.0131536669 -0.4060237579
-0.1084623693 0.0468362481 -0.3922404419
-0.1442712165 -0.0121258237 -0.4243720566
-0.1991516697 -0.0245393761 -0.4112345174
-0.2226191951 -0.0092614436 -0.3600523238
-0.2022904432 0.0595025724 -0.4625206488
-0.2094717848 0.0219969748 -0.3530013286
-0.2388714853 -0.0173972363 -0.3867425737
-0.2046300510 -0.0456151500 -0.4450095790
-0.2289582318 -0.0239993679 -0.4329516017
-0.2958251864 0.0087367409 -0.3777487151
-0.2703610905 -0.0587306106 -0.4612824839
-0.1356614087 0.0380753952 -0.4148801222
-0.2336915517 0.0265041593 -0.3968634600
-0.1757182776 0.0443495677 -0.3872436462
-0.2617349402 0.0183983247 -0.4403176307
-0.1345486640 0.0125881208 -0.4211827534
-0.2194363911 0.0099999238 -0.3478407374
-0.2306105351 0.0517845984 -0.3992555807
-0.2777678336 0.0211261587 -0.3445130061
-0.1822500669 -0.0022717439 -0.3452835064
-0.2089300782 -0.0518480684 -0.4524521976
-0.2942500322 0.0101071499 -0.4349637197
-0.2099885590 -0.0282193657 -0.3708634339
-0.2712342018 -0.0001656198 -0.4432094206
-0.2090337215 -0.0133589494 -0.4625156063
-0.1837922615 -0.0325312682 -0.4323275994
-0.2823202699 0.0470425736 -0.4287773342
-0.2320834055 -0.0166621412 -0.3766179109
-0.1785014623 -0.0401762011 -0.3782548182
-0.1355946770 0.0155371535 -0.3637039012
-0.2527579923 0.0054387358 -0.4457816398
-0.1805015104 -0.0257049982 -0.4390319804
-0.1881700322 0.0325313251 -0.4752736515
-0.1504855608 0.0406698775 -0.4309652740
-0.2417384535 -0.0115516791 -0.3721344471
-0.2486374056 0.0328356780 -0.4010762747
-0.1414158293 -0.0112568252 -0.4517348264
-0.2990532312 -0.0226321456 -0.3853235447
-0.1915192603 0.0373050911 -0.3667886277
-0.2880552668 -0.0027590111 -0.4499698650
-0.1815396935 -0.0461227812 -0.4545075651
-0.1914392095 0.0504014427 -0.4117181638
-0.1132127164 0.0143451222 -0.3871398571
-0.2042984338 0.0412383939 -0.4542864223
-0.1365751784 0.0225340762 -0.3792283811
-0.1520100483 0.0052554816 -0.4585436788
-0.1735408731 0.0263790525 -0.4652894550
-0.1600746991 -0.0213775380 -0.4672850860
-0.1448164835 0.0349352070 -0.4277923769
-0.2317564748 -0.0316666031 -0.4153368850
-0.1428605179 0.0299778706 -0.3430213634
-0.2313539288 -0.0321582924 -0.4174232083
-0.2790839368 0.0184833453 -0.3810155928
-0.1761381431 0.0264472441 -0.4419429685
-0.2111292350 -0.0377165637 -0.4722941644
-0.3067085377 -0.0070454353 -0.4669743641
-0.2070000918 0.0272331180 -0.3567857380
-0.2243832418 -0.0176286090 -0.3946553779
-0.2124594677 -0.0260258541 -0.4775877638
-0.2122706982 0.0483726943 -0.3763424478
-0.2110331655 0.0493861735 -0.3783063143
-0.1589301848 0.0349635781 -0.3691279990
-0.1747100279 0.0365111407 -0.4625888050
-0.1790286874 0.0356914138 -0.4637570334
-0.1375617502 -0.0314076261 -0.4881004297
-0.1343364584 0.0445840681 -0.4015101503
-0.2123800245 -0.0149364929 -0.4707590445
-0.1591549145 0.0415314030 -0.3630931163
-0.1770971599 -0.0396123640 -0.4499874433
-0.2233530851 -0.0566853418 -0.4554104964
-0.2302011981 -0.0122340055 -0.3493081971
-0.1297759013 0.0367509265 -0.3899041922
-0.1702829422 0.0449686007 -0.3747942762
-0.2229463051 0.0363215702 -0.4387144725
-0.1964947624 -0.0614188905 -0.4778007975
-0.2296164820 0.0123237946 -0.3492806849
-0.2307080628 -0.0431973575 -0.4197053862
-0.2761900693 0.0251402246 -0.4385708272
-0.2290899061 -0.0175543319 -0.3918110200
-0.1939164956 0.0282552864 -0.3612983535
-0.1374861420 0.0082784413 -0.3992153664
-0.1905819649 0.0545677172 -0.3901870042
-0.1756478150 -0.0132650503 -0.4009817344
-0.1373461845 0.0490906108 -0.3929335590
-0.2243793728 0.0345244157 -0.3676951373
-0.1592657803 0.0234658736 -0.4667499509
-0.1766161777 -0.0151436107 -0.3621582753
-0.1310597390 0.0403771460 -0.3941451613
-0.3308571687 -0.0210092746 -0.4503814878
-0.2290415579 -0.0254579696 -0.4050881044
-0.2316721726 -0.0271278371 -0.4072351588
-0.1743430238 -0.0256793262 -0.4242144523
-0.2365330413 0.0141884647 -0.3947473993
-0.1723266802 0.0573925654 -0.4817995216
-0.2244850314 -0.0338540810 -0.4485611642
-0.1385523254 -0.0076343510 -0.4415792987
-0.2474810745 0.0214343415 -0.4457187718
-0.2596500089 0.0331220974 -0.4453987522
-0.1971859487 -0.0222785266 -0.3779464317
-0.1960239518 -0.0267472069 -0.4145277754
-0.1962891391 -0.0182581333 -0.4019795268
-0.2227655414 -0.0167683559 -0.4578002283
-0.2893406429 0.0062346750 -0.4273761024
-0.2336577961 0.0023121722 -0.4539107472
-0.2519383819 -0.0202995480 -0.4345182494
-0.1955622340 -0.0385665198 -0.4035312454
-0.2511746639 0.0157279849 -0.4267875164
-0.1292982719 0.0201359332 -0.4093899165
-0.1465894586 0.0380179265 -0.3701723957
-0.2365442139 0.0347578382 -0.3596025526
-0.2369905412 0.0352699412 -0.3624058509
-0.2959325516 0.0139523665 -0.4410705016
-0.2927438212 -0.0366414007 -0.4288588878
-0.2139910984 0.0147862493 -0.4591826943
-0.1277507578 -0.0145764161 -0.4438592102
-0.2734779063 -0.0462994565 -0.3763305417
-0.1663061633 0.0699892541 -0.4427853881
-0.2024665192 0.0365957010 -0.4430441113
-0.2217179908 -0.0028083026 -0.4656082692
-0.1216984911 -0.0066586287 -0.5022041348
-0.2429623942 0.0227073910 -0.3307434236
-0.2378667324 -0.0237066206 -0.4507243953
-0.2167626843 0.0104064949 -0.3514641691
-0.2152014071 0.0414394678 -0.4220215757
-0.2522276018 0.0512889222 -0.3626784022
-0.2945424300 -0.0209361352 -0.4087360225
-0.1505327623 -0.0246854646 -0.4580116829
-0.1894948412 -0.0513000331 -0.4129103876
-0.1433881151 0.0302946347 -0.3733765535
-0.2117470440 -0.0009495442 -0.3596296410
-0.2693294286 0.0395287289 -0.3980029873
-0.1988126042 0.0503943932 -0.3842030210
-0.2138826271 0.0434264915 -0.3713908543
-0.2436968912 0.0115401750 -0.3391547916
-0.2805533642 0.0530007029 -0.4253263026
-0.1565416639 0.0427256003 -0.3763061921
-0.2734256747 -0.0498107346 -0.4573465382
-0.1946168309 0.0306769464 -0.4641973691
-0.2222145247 -0.0564562139 -0.4556507615
-0.1723667073 -0.0094921344 -0.3925236309
-0.2959177802 -0.0521092876 -0.4380996919
-0.1535790966 0.0611144908 -0.3825990981
-0.1121161321 0.0184382571 -0.3816240588
-0.1865923788 0.0569179353 -0.4462669867
-0.0859588224 0.0253807975 -0.4076728972
-0.3054832979 -0.0473037176 -0.4053338310
-0.1498860785 0.2306362755 -0.4661294606
-0.1583495140 -0.0059198339 -0.3898279196
-0.1268745801 0.0427651820 -0.3584907939
-0.2428722769 0.0254587125 -0.4139093651
-0.1965270994 0.0345351506 -0.4195750542
-0.2162577913 -0.0062074940 -0.3695431708
-0.2392883568 -0.0403692959 -0.4080046697
-0.1833361565 0.0211553867 -0.4015955840
-0.2472870343 0.0176854476 -0.3326348181
-0.2356738734 0.0310469919 -0.3495137287
-0.1772161265 0.0291489499 -0.4230411397
-0.1963006130 -0.0173728405 -0.4566424477
-0.1958353636 -0.0409687676 -0.4413844825
-0.1613387506 0.2371680191 -0.4784523190
-0.1885221932 0.0104523483 -0.3444068765
-0.1983162053 0.0209905587 -0.4503899756
-0.1442006480 0.0073491367 -0.4193188079
-0.1423100046 0.0125953088 -0.3728290139
-0.1290582480 0.0226453964 -0.4059403094
-0.1618431592 -0.0119728029 -0.3763796333
-0.1731925078 0.0503226316 -0.3953460242
-0.2463302650 -0.0067288443 -0.4685632148
-0.1750084185 0.0250252887 -0.4496161899
-0.1539652093 -0.0018920422 -0.3841829791
-0.1433496089 -0.0227191033 -0.4089947478
-0.1894191415 -0.0080150577 -0.3694406676
-0.2117034970 -0.0393587874 -0.4323891702
-0.1251111594 0.0255790641 -0.3974601476
-0.2767668959 -0.0381955183 -0.4358092393
-0.1968523272 -0.0117800037 -0.3904704866
-0.2301127245 -0.0231963106 -0.3928169634
-0.2108085199 -0.0378897270 -0.4315412460
-0.2512244383 0.0045460159 -0.3446628168
-0.1381222518 -0.0273254249 -0.3866542725
-0.1878000207 -0.0261476201 -0.4717523698
-0.2319470330 -0.0076694870 -0.3668042525
-0.1341755255 0.2304593885 -0.4016897955
-0.2239403041 0.0290269124 -0.3649311522
-0.1712095039 -0.0391357939 -0.4868337502
-0.1692485579 -0.0135041372 -0.4042640241
-0.2793287200 0.0253557355 -0.3551088282
-0.2486038203 0.0288103446 -0.4203678192
-0.1916478674 0.0448492919 -0.3823825712
-0.1400726449 -0.0151268513 -0.3599600527
-0.1637398233 0.0419895365 -0.4417793087
-0.1427029002 -0.0128629335 -0.3680328036
-0.2838564410 -0.0008279643 -0.3765444694
-0.1878037006 0.0436328985 -0.3942209184
-0.1592205810 0.0374000757 -0.3537293101
-0.1570733543 0.0515553829 -0.3717948394
-0.1888772435 0.0148800674 -0.3577438049
-0.2622877867 -0.0012982922 -0.3320413784
-0.1435839194 0.0173346130 -0.3717982890
-0.2454393612 -0.0185011883 -0.4564733774
-0.1811892785 0.0113144886 -0.4718212738
-0.1662543755 0.0250517770 -0.3644790754
-0.3073032973 -0.0399955655 -0.4376762276
-0.2263277269 -0.0512538104 -0.4462806575
-0.2751221029 0.0636778557 -0.3527928659
-0.1543302542 0.0596658752 -0.3995296499
-0.1875088606 -0.0008719340 -0.4038143424
-0.1944556453 0.0227961937 -0.3588257067
-0.1665116557 0.0125029279 -0.3596289442
-0.2015496938 0.0176398913 -0.3547566865
-0.2695126034 0.0381664428 -0.4210721199
-0.2558030274 -0.0336946042 -0.4475691058
-0.1331030857 0.0195981766 -0.3918237592
-0.1387993440 0.0427978809 -0.3825686639
-0.2214070642 0.0130927993 -0.4590615165
-0.2560029911 0.0593040603 -0.3754544814
-0.1324395761 0.0205474254 -0.3930451721
-0.1972190397 0.0191896319 -0.4139009722
-0.2435775229 0.0489232848 -0.3885873060
-0.2445529842 -0.0090632930 -0.3653503398
-0.2393249735 0.0380140512 -0.3643403708
-0.3011713273 -0.0367649361 -0.4151718131
-0.1615845014 0.0226872376 -0.3639477013
-0.1344762938 -0.0035160103 -0.4489142467
-0.2070651043 -0.0121368816 -0.3405297623
-0.1681593978 0.0445538246 -0.4191727256
-0.2107263643 0.0425035773 -0.3558221807
-0.1443833330 0.0402109511 -0.4471555576
-0.1571539102 -0.0064136789 -0.3903602212
-0.1037241655 -0.0012142831 -0.3898009109
-0.1321823046 0.0391984270 -0.3818953188
-0.2499620994 0.0348926233 -0.3947693017
-0.1610638578 -0.0122943006 -0.4014859708
-0.2243261813 0.0113099214 -0.3447279588
-0.1940413895 0.0121715826 -0.3547738308
-0.2018700761 -0.0153733556 -0.3945783875
-0.2424554741 -0.0030194062 -0.3307677551
-0.1389203600 0.0468780624 -0.3871246107
-0.1194270086 0.2061828935 -0.4027941993
-0.1983186850 -0.0209999582 -0.4061414590
-0.1534447053 0.0540104292 -0.4373008307
-0.3005818911 -0.0077091837 -0.4074007202
-0.2017053442 0.0183907886 -0.4648926422
-0.2657603136 0.0455833588 -0.4245901299
-0.2364128348 -0.0502555796 -0.4413892059
-0.1683462035 -0.0321603148 -0.3734561875
-0.1970112606 0.0457846646 -0.4069938014
-0.2816109442 -0.0342725073 -0.3995727440
-0.2148246678 0.0301269709 -0.3586954722
-0.1869226984 0.0015711484 -0.3638842806
-0.2038647386 -0.0536830430 -0.4575399924
-0.2271548321 0.0337805651 -0.3641642327
-0.2089428832 -0.0471087688 -0.4453583468
-0.2496644267 0.0064067147 -0.4403745955
-0.2673115796 -0.0220700651 -0.3847237752
-0.2458953012 0.0081326447 -0.4346801809
-0.2982183066 0.0303869569 -0.3599342596
-0.2246751851 0.0172332742 -0.4015370752
-0.2470701745 -0.0522566758 -0.4491441346
-0.2632927609 -0.0185721366 -0.3807623316
-0.1763828339 0.0042268241 -0.3636506311
-0.2170059266 0.0519148587 -0.3948072278
-0.1443793335 0.0562335773 -0.4041575676
-0.1322854301 0.0441799873 -0.3989983810
-0.2301387534 0.0477407296 -0.3821955667
-0.2089991364 0.0151097979 -0.3514547573
-0.2642904877 -0.0124245645 -0.4449299896
-0.1300967664 0.0244008705 -0.4208578592
-0.2467289479 0.0157500119 -0.4467444514
-0.1436714311 0.0017459515 -0.4366264404
-0.1527884210 0.0051866128 -0.3590691033
-0.2035995245 0.0186445501 -0.4576620591
-0.2234156565 -0.0216635964 -0.4005475717
-0.2631279136 -0.0318321720 -0.4432131677
-0.1616386059 0.0450189205 -0.3774226242
-0.1717422794 0.0173587300 -0.3624284036
-0.2138695312 0.0286830975 -0.4504244811
-0.2290805781 -0.0208812346 -0.3795516253
-0.1332001818 0.0009915122 -0.4050668668
-0.1682693628 -0.0093522871 -0.3749248309
-0.1662538390 -0.0225038804 -0.4194290599
-0.1615403018 0.0406412424 -0.4326427793
-0.1589169582 0.0566457003 -0.3786139159
-0.1944141931 -0.0516871886 -0.4577201941
-0.1858315074 -0.0123601736 -0.4673783754
-0.1354171044 -0.0125414625 -0.3905204972
-0.2297911748 0.0284581738 -0.4391405641
-0.1978839922 -0.0565389122 -0.4644328088
-0.2371896015 -0.0374079083 -0.4249717250
-0.2736212182 -0.0396575949 -0.4126592095
-0.2441277020 -0.0066168356 -0.4457494305
-0.2031173502 -0.0204795867 -0.4560540678
-0.2447383221 0.0250834740 -0.4449205547
-0.3098420779 0.0038510199 -0.4471663897
-0.1791614753 -0.0123819328 -0.3846609150
-0.1691202225 0.0095552324 -0.3611054584
-0.2547532920 -0.0371503717 -0.4128980024
-0.1449752918 0.0311584070 -0.4309572759
-0.1961703852 -0.0428908271 -0.4226297172
-0.2890017232 0.0117531347 -0.4424459428
-0.2161711897 -0.0120324907 -0.4704751942
-0.1827321546 -0.0439600271 -0.4281436041
-0.2362145024 -0.0123966383 -0.3773829902
-0.1549883763 0.0553854134 -0.4289306341
-0.1993364037 -0.0158965316 -0.3966010410
-0.1472502983 0.0447412863 -0.3773262991
-0.2333441442 -0.0321229354 -0.3564838984
-0.2296725634 -0.0137061458 -0.3818933258
-0.3587710476 -0.0133588846 -0.4456471323
-0.1979912370 -0.0642346218 -0.4806925952
-0.2236428719 -0.0250789798 -0.4072854338
-0.2379079057 0.0051346682 -0.3409066451
-0.2952897893 -0.0309925451 -0.4240890816
-0.2814345131 -0.0132361177 -0.4287745542
-0.2010661576 -0.0096625391 -0.3444358329
-0.1701582071 0.0548590896 -0.4414932258
-0.1382300910 0.2216517351 -0.4396778667
-0.2656876475 -0.0099849680 -0.3461251910
-0.1650759917 0.0353134187 -0.4523805384
-0.2313186714 -0.0071490313 -0.3563475645
-0.1246929212 0.0251693938 -0.4192902246
-0.1446871562 -0.0087209005 -0.4936154708
-0.2903086413 0.0676582286 -0.4164357337
-0.2112293449 -0.0426914737 -0.4393811956
-0.3114719472 -0.0384210873 -0.4025767827
-0.2542875089 -0.0069693931 -0.3353701948
-0.1789490663 0.0379390993 -0.3790102610
-0.2185869657 0.0199755170 -0.3513214858
-0.2766851677 0.0283872009 -0.4086998134
-0.1688349221 0.0670970231 -0.4440311584
-0.2294549710 -0.0064927879 -0.3436964499
-0.1373573646 0.0311995936 -0.4403453300
-0.1463790568 0.0224581646 -0.3715235510
-0.1544444168 -0.0160071233 -0.4606408445
-0.2738524046 -0.0203385111 -0.3799215896
-0.1586678626 0.0353200102 -0.4455522765
-0.2236871452 -0.0328144095 -0.3769670133
-0.2888583400 0.0317873202 -0.4504836672
-0.2413485101 -0.0232270713 -0.4671312777
-0.2025786542 -0.0278068693 -0.4379084860
-0.2499739056 0.0331484292 -0.3370202120
-0.2291492730 -0.0498229100 -0.4429487286
-0.1441505928 -0.0125219401 -0.3938017435
-0.2871209544 -0.0130119207 -0.4540465085
-0.2207469562 -0.0021108323 -0.3472159553
-0.1384899578 0.2331475708 -0.4419438330
-0.2615324532 0.0009996722 -0.3383125893
-0.1984314698 0.0404225178 -0.3687975680
-0.2292767389 -0.0453405433 -0.4363166131
-0.1794377950 0.0323239762 -0.4549078702
-0.2756892483 0.0212060522 -0.3464819006
-0.2291064495 -0.0303025130 -0.4140670033
-0.2348420147 -0.0592771012 -0.4552435417
-0.2269011927 0.0314897308 -0.3528041720
-0.1355006078 0.0388618269 -0.3671753153
-0.2034214596 -0.0325142741 -0.4049847198
-0.1212864454 0.0296730329 -0.4040515439
-0.1550333342 0.0361104370 -0.4324298444
-0.2015535449 0.0500310213 -0.4298029777
-0.2224108439 -0.0091138746 -0.4635354276
-0.2748422956 -0.0383954561 -0.4103082439
-0.2022907358 0.0547819924 -0.4163941010
-0.0883528123 -0.0112898690 -0.4014530661
-0.1204354816 0.0050253601 -0.3816002593
-0.1427086591 0.0196710997 -0.4497954431
-0.1539507488 0.0198017079 -0.3520089886
-0.2744102424 0.0251784242 -0.3455816327
-0.2573386380 0.0003845819 -0.3433957613
-0.1642919063 0.0200884969 -0.3639919171
-0.2363020199 0.0372421941 -0.3747570231
-0.1462769536 0.0350101336 -0.4209267607
-0.2812211075 0.0105503494 -0.3476490156
-0.1630448556 0.0059566275 -0.4767050996
-0.2700211361 -0.0316546837 -0.3727709378
-0.1961914159 -0.0151138129 -0.3966947913
-0.1925576166 -0.0010612752 -0.4466039617
-0.2129282103 -0.0355812574 -0.4042088786
-0.1583086585 0.0318368409 -0.4616691757
-0.2138314655 0.0529632798 -0.3848362619
-0.2958159765 0.0258463403 -0.3821229606
-0.2678198579 -0.0157767391 -0.4373474623
-0.1941904962 -0.0330866249 -0.4298028532
-0.1105448072 0.0039404708 -0.4612546065
-0.2743173830 -0.0183886861 -0.4303399223
-0.2325932087 0.0121130080 -0.3457326537
-0.2291716477 0.0147296612 -0.3474418414
-0.1770690060 0.0444844141 -0.3899021718
-0.2317173292 -0.0058408223 -0.3537903244
-0.0876895801 0.0652414207 -0.2165753097
-0.1602088415 -0.0273155419 -0.4431916018
-0.2705098409 0.0598379225 -0.4035014826
-0.1437948215 0.0040435979 -0.3835368749
-0.2052811776 -0.0179668667 -0.4705969553
-0.2844337319 -0.0521866144 -0.4274507281
-0.2590503474 0.0358168022 -0.4254500481
-0.1288280745 0.0324325433 -0.4122122314
-0.2333503499 -0.0574087824 -0.4540171439
-0.1529333301 -0.0217546415 -0.4269100241
-0.1537305099 -0.0393610249 -0.4587364687
-0.1939914157 0.0007840196 -0.3627102577
-0.1619828286 0.0390217536 -0.3698819738
-0.2528058584 -0.0435280798 -0.4106841790
-0.1948494431 -0.0668247468 -0.3851896508
-0.2886555624 0.0328573607 -0.3854868089
-0.1970646408 -0.0415918738 -0.4418895251
-0.1634228287 0.0688924677 -0.4414608295
-0.2170150622 0.0100173682 -0.3478726701
-0.2608365539 0.0344334468 -0.4168760533
-0.2447732463 0.0468975045 -0.3905947655
-0.1640411051 -0.0408075582 -0.4224008206
-0.1720409817 0.0347805722 -0.3649621697
-0.2753259629 0.0437332530 -0.3874187544
-0.1735221900 -0.0322095172 -0.4344771564
-0.2045305738 0.0120786433 -0.3504972717
-0.2880645607 0.0069234550 -0.3593856156
-0.2505899258 0.0363182960 -0.4000914604
-0.1382288929 0.0441803134 -0.4313700237
-0.1608540228 0.0674415017 -0.4096574288
-0.0760361475 -0.0048568742 -0.3960127709
-0.1642968235 -0.0446642863 -0.4449399374
-0.2353882679 0.0245098034 -0.4196203141
-0.1327317300 0.0171142752 -0.4300829140
-0.0302028213 0.0628437043 -0.2371970870
-0.1747001795 -0.0516732005 -0.4015036936
-0.2266359622 -0.0583533538 -0.4573356858
-0.2442304096 -0.0306065012 -0.4070399648
-0.2268101613 0.0148054788 -0.3473226855
-0.1404171868 0.0310215100 -0.4207729863
-0.1942290559 0.0369854744 -0.3645169154
-0.2098501762 -0.0226490365 -0.3599319719
-0.1941560566 0.0494906329 -0.3976630192
-0.2275089053 -0.0462405658 -0.4539319003
-0.2234249405 0.0493192730 -0.3726500985
-0.1837777978 -0.0218124596 -0.4096522256
-0.2161369065 -0.0251482057 -0.3670224375
-0.2342208798 -0.0141967450 -0.3447596700
-0.1764510550 -0.0054258782 -0.3820852454
-0.1375418110 -0.0271292278 -0.4016093879
-0.1653494825 0.0454517591 -0.4468281775
-0.1439295664 0.0024866146 -0.4690697094
-0.2759824369 0.0042332575 -0.3455933426
-0.3128159092 -0.0162408220 -0.4265870540
-0.2380112525 -0.0412089724 -0.4317971482
-0.0298423054 0.0712658751 -0.2171450852
-0.1449685228 0.0001926921 -0.3923259652
-0.1429969538 -0.0103439289 -0.4320913012
-0.1793921859 0.0522228781 -0.4068968165
-0.1408419873 0.0253896047 -0.3740895452
-0.1813371445 -0.0065737807 -0.3829220066
-0.1675912248 0.0348975932 -0.4182965906
-0.2057698150 0.0698176672 -0.4324630457
-0.2884228978 -0.0176976120 -0.4313460035
-0.2394004570 0.0005275362 -0.3474914383
-0.1151184662 -0.0001990882 -0.4292611505
-0.1440816450 0.0522677853 -0.3871168800
-0.2824521117 -0.0322057195 -0.3953344168
-0.1713309655 0.0180210820 -0.3634651700
-0.1586392412 -0.0131416501 -0.4145793137
-0.2771081536 0.0381747853 -0.3691628614
-0.2354130341 0.0125980359 -0.3979712561
-0.2425143958 -0.0362574651 -0.3674801176
-0.2712934446 -0.0187417779 -0.3638809685
-0.1471593405 -0.0038650922 -0.4065050913
-0.2765309787 0.0586716303 -0.4005012587
-0.1591785041 0.0174253695 -0.3628372675
-0.2526666233 -0.0688637188 -0.4717588491
-0.1706170956 0.0449689174 -0.4537138017
-0.1825418247 -0.0318767883 -0.3794331171
-0.2194754047 0.0512899554 -0.4029670317
-0.1912798326 -0.0374260819 -0.4691272354
-0.1476567308 0.0082795693 -0.3724916844
-0.1588839219 0.0203240122 -0.4736634158
-0.1918888639 -0.0349667032 -0.3893860704
-0.1391476238 -0.0064988888 -0.4692192315
-0.1325107168 0.0269896625 -0.3893253173
-0.1841472159 -0.0173086494 -0.3709723355
-0.1528385601 0.0352141521 -0.4590393198
-0.2391895747 -0.0210621439 -0.4329158936
-0.2082236819 -0.0350879018 -0.3882898119
-0.1398133169 0.0348215442 -0.4287469731
-0.1711374766 0.0390936315 -0.4166371467
-0.1580086092 0.2289015916 -0.4786088725
-0.1434593430 0.0276774856 -0.3954489320
-0.2709705951 0.0530202943 -0.3663849574
-0.2475114211 -0.0057213064 -0.4540060191
-0.2263310187 -0.0162189659 -0.3515466519
-0.2926442418 -0.0179123925 -0.3817462389
-0.2065011173 0.0333173977 -0.3589864850
-0.1714866895 -0.0475773640 -0.4585806170
-0.2468597224 0.0566432659 -0.3785365889
-0.2014595184 -0.0257622875 -0.4124714995
-0.2704811175 0.0462219392 -0.3932670938
-0.2189483026 0.0697836169 -0.4501683420
-0.1397554169 0.0079171111 -0.3845592270
-0.1405337850 0.0506180775 -0.4084982470
-0.1622016058 0.0635693962 -0.3908479884
-0.2691299766 -0.0061548468 -0.3743093239
-0.1462812225 0.0024100398 -0.4034471143
-0.2073992006 0.0193628131 -0.3531944037
-0.1735680234 0.0510402608 -0.4232539434
-0.1789592677 0.0264442148 -0.4131518291
-0.1344149194 0.0400891406 -0.3817982467
-0.2986032159 -0.0356948079 -0.4293210547
-0.2636642573 0.0290520589 -0.4309109538
-0.1535211666 -0.0475283544 -0.3650839130
-0.1937347329 -0.0175039324 -0.4490992354
-0.2010207943 -0.0101492055 -0.4747379986
-0.2905631117 -0.0019375004 -0.3593543009
-0.1575646280 0.0737112238 -0.4497822812
-0.2661806620 -0.0370857427 -0.4031782929
-0.1819179449 -0.0044124589 -0.4765904726
-0.1810550217 -0.0254546005 -0.4461602204
-0.1783992442 -0.0352808686 -0.4044857054
-0.2050000878 0.0391205141 -0.4463196016
-0.2407421298 0.0144961541 -0.4452725270
-0.1843250254 0.0463481419 -0.4191043268
-0.1518465543 0.0132296052 -0.3672668408
-0.2665076227 0.0614623882 -0.4243556807
-0.2098324777 0.0451442845 -0.4171297833
-0.1942586051 -0.0316242623 -0.4250989010
-0.2637593327 -0.0343844111 -0.4007058472
-0.2343914790 -0.0616979236 -0.4600473876
-0.1602825873 0.2413065577 -0.4720217075
-0.2343329941 -0.0148053165 -0.3827946380
-0.2724911929 -0.0050043176 -0.3846226649
-0.1767584058 -0.0323336829 -0.4324975017
-0.2037668717 -0.0379993024 -0.3619449710
-0.2342759557 -0.0258265758 -0.4048673609
-0.3085418723 -0.0106457533 -0.4380701090
-0.2672104842 0.0217099830 -0.3456160399
-0.2144513468 0.0121332327 -0.3513012433
-0.1290607440 -0.0139056146 -0.3689814593
-0.2018933062 0.0680462513 -0.3909181586
-0.2331572610 -0.0258610003 -0.3701163866
-0.1763883416 -0.0264323056 -0.3633230405
-0.2372289324 -0.0016484134 -0.3389230781
-0.2140443363 0.0571323830 -0.3878880176
-0.1861832714 0.0189470573 -0.4272529217
-0.1694220006 -0.0062532868 -0.3644192751
-0.1718094497 -0.0258989466 -0.4250535568
-0.3086349831 -0.0067937998 -0.4176582882
-0.1286846395 0.0166228477 -0.4262927842
-0.2490847822 -0.0320953740 -0.4071431124
-0.2041918708 -0.0598772362 -0.4695836073
-0.1692842228 -0.0133135513 -0.4585550622
-0.1388322199 -0.0114781113 -0.4474841820
-0.2312700521 0.0342241907 -0.3691676476
-0.1729546329 -0.0009787820 -0.3736329164
-0.1519080469 -0.0074434851 -0.4048589211
-0.2344474460 0.0053727490 -0.3869782632
-0.1722502205 0.0287714991 -0.4412984838
-0.1553593909 -0.0103659723 -0.4609116703
-0.1449650825 0.0552491162 -0.4449357870
-0.1154635659 0.0186991742 -0.4112789402
-0.1596106903 -0.0437613693 -0.4220282347
-0.1896583326 -0.0378345371 -0.4376474639
-0.2679192148 -0.0556879043 -0.4470486965
-0.1963509147 0.0027318308 -0.3596991786
-0.2952660783 0.0111436094 -0.4121932568
-0.1700135848 0.0205200876 -0.4116533072
-0.2694496323 0.0381877782 -0.3441716852
-0.2305773379 0.0314043735 -0.4247553985
-0.2779922266 -0.0081808785 -0.4562854293
-0.1794112430 -0.0495303825 -0.4546006272
-0.2549435835 -0.0202673799 -0.3469070645
-0.2774974062 -0.0549240659 -0.4523734844
-0.1633609608 0.0001081671 -0.3738636552
-0.2998439505 -0.0358221449 -0.3930521516
-0.2642163797 0.0582800540 -0.4267641819
-0.1563627992 0.0510941220 -0.4272581454
-0.1582591852 -0.0385446553 -0.4258800833
-0.1157004818 0.2123648013 -0.3591452876
-0.2223323618 0.0520313649 -0.4242286814
-0.2603258627 -0.0067007314 -0.3599960623
-0.1865238652 0.0349233600 -0.4194717788
-0.1400674354 -0.0041928361 -0.3847145535
-0.2458386788 0.0243798798 -0.3977470900
-0.2094467459 0.0073058300 -0.3538775344
-0.1937308529 0.0015504258 -0.4831846364
-0.1358504026 0.0452274929 -0.3896216903
-0.2711689880 0.0354189615 -0.3424413087
-0.1630086306 0.0402578659 -0.3611340028
-0.2555153555 0.0300473399 -0.4377816831
-0.2277436294 0.0450948959 -0.3945824419
-0.2062635940 -0.0506782483 -0.4547888932
-0.2056563514 0.0336149406 -0.3522591750
-0.2235558178 0.0190640360 -0.3480669409
-0.2057792374 -0.0051018880 -0.3717706956
-0.1721532767 -0.0028278127 -0.3635372634
-0.2626554344 0.0534300172 -0.4122566594
-0.1833828642 0.0325957017 -0.3662578549
-0.1802824140 -0.0054022169 -0.4976212908
-0.1596472319 0.2291093098 -0.4820737716
-0.1341869858 0.0104457469 -0.4145362614
-0.2089155082 -0.0507201743 -0.4523466023
-0.1560970790 -0.0007577293 -0.3799671004
-0.2496219539 -0.0343566579 -0.4372410716
-0.2277713269 0.0507594367 -0.3801003700
-0.1202113750 0.0334421024 -0.3699956074
-0.0980416936 0.1771443814 -0.2901052699
-0.2415388039 -0.0044052822 -0.4603545655
-0.1397754982 0.0470765623 -0.3852516009
-0.1808483508 0.0174364999 -0.4481492513
-0.2198076999 0.0214345494 -0.4499713931
-0.1397111536 0.0060379918 -0.4069127791
-0.1186821294 -0.0012375980 -0.4214306381
-0.1797269426 0.0327051731 -0.4430585505
-0.3160498334 -0.0522468288 -0.4060647240
-0.2260962133 -0.0527084471 -0.3650808585
-0.2469975620 0.0518744799 -0.3666428989
-0.2471815000 0.0504513470 -0.3822839657
-0.1914524532 -0.0544698176 -0.4620920288
-0.1273024737 -0.0012691216 -0.3760469893
-0.1667418129 0.0406153671 -0.3638883520
-0.1786351043 0.0517388825 -0.3957244478
-0.2987287532 -0.0001246872 -0.3920562026
-0.1590712908 -0.0144663843 -0.4892679835
-0.3019974003 0.0304478207 -0.3988821094
-0.1844203468 -0.0291347017 -0.4226621135
-0.2162245429 0.0302590876 -0.4464372673
-0.3137259054 -0.0469386782 -0.4072213630
-0.1946352841 0.0365363172 -0.3628303219
-0.1237079644 -0.0131547708 -0.4627056452
-0.3000474397 0.0042018406 -0.3946063494
-0.1640066894 0.0351603249 -0.3685672514
-0.2413811491 -0.0605516899 -0.4572400321
-0.2454101343 -0.0138226611 -0.4531102803
-0.1408392158 0.0457669855 -0.3844836094
-0.2003371446 0.0249363965 -0.4439671580
-0.1536691520 0.0092545263 -0.4670533436
-0.2285072542 0.0201400948 -0.4592262930
-0.2688838590 -0.0174272585 -0.4701626083
-0.2093124495 0.0476220779 -0.3746650398
-0.2898735468 -0.0100863849 -0.4016616538
-0.2785161814 -0.0078346570 -0.4374540310
-0.2851622928 -0.0388018355 -0.3876897805
-0.2728914413 -0.0072623347 -0.4396638484
-0.1787441029 0.0392999883 -0.3849019081
-0.1915911083 0.0492161677 -0.3976685987
-0.2830843286 0.0252803323 -0.3663082563
-0.2950448009 0.0059779979 -0.4461448444
-0.2098833640 -0.0098593981 -0.3508084440
-0.2638880898 -0.0433276926 -0.4222380505
-0.2287526524 -0.0158988280 -0.3643996248
-0.1989666285 0.0546597908 -0.4426145412
-0.2397920908 0.0541515088 -0.3854094498
-0.1439652060 0.0263598227 -0.4366570352
-0.2271681700 -0.0161875674 -0.3899925655
-0.3109409201 0.0243061852 -0.4126728603
-0.2185130452 -0.0159817986 -0.3928875661
-0.1510385889 -0.0082024956 -0.4239985942
-0.2045243860 -0.0456478782 -0.4341024225
-0.2837796133 0.0165793633 -0.3930853692
-0.2082886612 0.0131919124 -0.3411013608
-0.2331217068 0.0616023124 -0.3838268197
-0.2893028151 0.0003252214 -0.3457133208
-0.1578822504 0.0619188860 -0.4352759443
-0.1544124381 -0.0386798048 -0.4296987830
-0.2534388137 0.0530866661 -0.3820346153
-0.2912809923 -0.0223948027 -0.4239350203
-0.2732504335 0.0160073044 -0.4268628770
-0.1670195091 -0.0515081238 -0.4840694712
-0.2331712919 0.0021917395 -0.4031759982
-0.1413619120 -0.0119880471 -0.3613201610
-0.1830848810 -0.0007143328 -0.3518591497
-0.1939685374 0.1594458291 -0.5945834779
-0.2261216006 -0.0548609257 -0.4518110387
-0.1438003507 -0.0002994730 -0.4011712262
-0.1450336324 -0.0015778861 -0.4078731288
-0.1708542912 0.0462129412 -0.4191542584
-0.1719981824 0.0497190070 -0.3839792369
-0.2483679301 -0.0133466912 -0.3445534679
-0.2517362030 0.0428473660 -0.4203653667
-0.2434562043 0.0407887764 -0.4425658261
-0.1702602328 -0.0434682256 -0.4860522966
-0.1286721244 -0.0047524841 -0.4909308848
-0.0931009288 0.1684685744 -0.3072289688
-0.1163156887 -0.0069420787 -0.3899838929
-0.1904155591 0.0527384657 -0.4085020517
-0.1459190648 -0.0021511701 -0.4287719391
-0.2386762798 -0.0561397411 -0.4478475153
-0.2414582743 -0.0289070141 -0.4577472073
-0.1456293163 -0.0189021843 -0.3601398333
-0.2666221386 0.0448809445 -0.4170601729
-0.1651278187 -0.0700852797 -0.4007687279
-0.1961827682 0.0581016811 -0.3992331241
-0.2919001508 0.0114058176 -0.4402844815
-0.1545243298 0.0502242587 -0.4511210965
-0.2671665991 0.0463359496 -0.3886220056
-0.2332804937 -0.0286999314 -0.3732056535
-0.1540238365 0.0443102249 -0.3742032421
-0.2394348217 0.0427902156 -0.3867520102
-0.2170715611 0.0374363521 -0.4360843311
-0.0299544232 0.0627563471 -0.2282158933
-0.1809703576 0.0070261925 -0.3609847975
-0.1458282707 -0.0259606350 -0.4650985024
-0.2426253026 -0.0244406063 -0.3505989287
-0.1464847081 -0.0177212560 -0.4489744347
-0.1595651232 0.0352292579 -0.4659549619
-0.1411147578 -0.0273503380 -0.4070147525
-0.2572021699 0.0506598748 -0.4079504294
-0.2184127889 -0.0116462481 -0.3827974573
-0.2746294074 -0.0408799429 -0.4145590986
-0.2508977980 0.0075408083 -0.4516999104
-0.2107441287 0.0127189971 -0.4676336814
-0.2796749147 -0.0089187941 -0.3809576873
-0.2318247225 -0.0382243781 -0.4274433670
-0.2247952334 -0.0191276544 -0.3543285484
-0.1372538482 0.0518875998 -0.3993735938
-0.1381562736 -0.0217668234 -0.3768404173
-0.1890311685 -0.0284918908 -0.4696502530
-0.1374500755 0.0122985123 -0.4340812393
-0.2314834758 -0.0032258852 -0.3567852499
-0.1487560084 0.2388693176 -0.4397764613
-0.1597106606 0.0437695719 -0.3751248419
-0.1514178738 0.0568807320 -0.3947661490
-0.1900663230 -0.0210956846 -0.4498879968
-0.2314703920 -0.0140006487 -0.3828706618
-0.1329128854 0.0463727975 -0.4034515160
-0.2534186541 -0.0117400708 -0.4375134873
-0.2741008764 0.0467754134 -0.4161124075
-0.2489974138 0.0572253834 -0.3759907583
-0.1404300723 -0.0245806810 -0.4246595918
-0.2605991712 -0.0149750800 -0.3531345839
-0.1687873548 -0.0316130846 -0.4316918617
-0.2138349052 0.0506912810 -0.4212974956
-0.1590082241 0.0280583581 -0.4577214342
-0.2154843630 -0.0547556459 -0.4402959001
-0.0804615367 -0.0052006327 -0.3927849232
-0.2934908434 -0.0167865094 -0.4019615728
-0.2185582299 -0.0229376216 -0.4683121362
-0.1336239698 0.0309869210 -0.4144208994
-0.1772471429 -0.0222718239 -0.4171100808
-0.1515816156 -0.0155266998 -0.4658081965
-0.1564253028 0.2424330445 -0.4647292741
-0.2349127444 0.0231784266 -0.3962972276
-0.2609733333 -0.0115100048 -0.3781738875
-0.1534136546 -0.0350759925 -0.4138297674
-0.2548757871 0.0498043201 -0.4126143169
-0.2273111473 -0.0292426087 -0.3775865244
-0.2124346904 -0.0121730923 -0.3528730710
-0.2089847595 0.0251653431 -0.4500720181
-0.1329696287 0.0184301526 -0.4462686087
-0.1874437178 0.0014626081 -0.4697359190
-0.2592593758 -0.0601296955 -0.4475849740
-0.2366293741 -0.0321802086 -0.4153314704
-0.1908598433 0.0178452742 -0.3586739837
-0.2383959506 -0.0262911884 -0.3647651906
-0.2611747019 -0.0118744494 -0.3626894812
-0.2735012635 -0.0007704770 -0.4484485521
-0.2288087282 0.0302143938 -0.3537987842
-0.2682567239 -0.0085894535 -0.3707855467
-0.2062443644 -0.0265637953 -0.4131984413
-0.2288673789 0.0300267929 -0.4097249106
-0.1399993595 -0.0241579644 -0.4815622161
-0.1348090009 -0.0256415931 -0.3991843251
-0.2850091829 -0.0298378046 -0.3778779346
-0.1914255864 0.0325819001 -0.3636461470
-0.1514776848 -0.0079355646 -0.4148521455
-0.1577451902 0.0398149651 -0.4622624329
-0.1514350708 -0.0055568597 -0.4124877809
-0.1596422915 0.0433815473 -0.4541960981
-0.1884954237 0.0491786468 -0.3628785343
-0.2822589164 0.0275955416 -0.3520353605
-0.1970327886 -0.0072378632 -0.4755729579
-0.1500288926 0.0070158372 -0.4694370520
-0.1760902385 -0.0066725044 -0.4644185651
-0.2765751614 -0.0270549636 -0.4048752891
-0.2309403609 0.0001414421 -0.4010906493
-0.2346359379 -0.0174114302 -0.3689116538
-0.1350480710 -0.0026590395 -0.4624757295
-0.2199911060 -0.0527953658 -0.4260214790
-0.1610962106 0.0000482880 -0.3743143992
-0.1984286656 -0.0315213092 -0.3747008045
-0.2734881422 -0.0302916880 -0.3577566012
-0.1618903289 0.0008307609 -0.3725468417
-0.2343990906 0.0392672031 -0.3799100215
-0.0897006214 0.1590432143 -0.3139221881
-0.3011707550 0.0040765154 -0.4072211467
-0.2043591831 0.0109455878 -0.4674693096
-0.1713941368 0.0203091448 -0.3638858330
-0.1683966967 -0.0263720709 -0.4246638508
-0.1464832374 0.0086729924 -0.4539742034
-0.1688962369 -0.0095783345 -0.3948324811
-0.2441921272 -0.0096374081 -0.3670691972
-0.1841816218 -0.0058668370 -0.3434105769
-0.2392087973 -0.0216997736 -0.3928361017
-0.1772544613 -0.0052238585 -0.3974675301
-0.1717632907 0.0290277580 -0.3649528663
-0.1373844461 -0.0258030856 -0.4101638463
-0.2163936492 0.0048461738 -0.3496159643
-0.2616912640 0.0311159091 -0.4268627614
-0.1321177586 0.0246277388 -0.3899711517
-0.1482848438 0.0090429621 -0.3671164487
-0.1594896389 -0.0014175514 -0.3777884361
-0.2875201059 -0.0036120792 -0.3946089520
-0.1323308607 -0.0030302309 -0.4397879728
-0.2959860474 -0.0275536662 -0.4035209048
-0.2755176095 -0.0330517156 -0.4119435208
-0.1490873842 0.0066677256 -0.3759458251
-0.1761585287 0.0641338458 -0.4071137226
-0.2220825258 -0.0402174897 -0.3841544889
-0.1918353921 -0.0696432907 -0.4398337179
-0.2164435500 0.0116620738 -0.4575598381
-0.2372725768 -0.0204081517 -0.3512072997
-0.1938641688 0.0275340879 -0.3594745727
-0.2430606335 0.0485453345 -0.3909805119
-0.2802119514 -0.0303622857 -0.3598324580
-0.2281022581 0.0268048705 -0.4426503110
-0.1909821423 0.0191159249 -0.4240111432
-0.2565785306 0.0521169431 -0.3791262333
-0.2180329758 -0.0204724860 -0.4012098071
-0.1580750545 0.0340739451 -0.4547927788
-0.1451221526 0.2438465815 -0.4162828669
-0.2302507851 0.0207950426 -0.4441607153
-0.2345174789 -0.0559471906 -0.4498693666
-0.2544775512 -0.0462419007 -0.4380116582
-0.2960316318 -0.0086721028 -0.3667986783
-0.2742237305 -0.0592360458 -0.4623726030
-0.1766493461 0.0208875060 -0.3989904358
-0.2630189527 -0.0571143553 -0.4548840011
-0.2676772951 -0.0177901232 -0.3728207939
-0.1974508950 0.0584913943 -0.4105866601
-0.1503916701 0.0004461180 -0.4839493183
-0.2512600233 0.0593156246 -0.4212819764
-0.2115865739 -0.0218822613 -0.4422830393
-0.2299848441 0.0005630346 -0.3503336493
-0.2647757126 -0.0384573235 -0.4583238150
-0.2424731644 0.0218751703 -0.4063890140
-0.2394944010 -0.0236887127 -0.3626839162
-0.1988036733 -0.0480816485 -0.4515725058
-0.1470546394 0.0294193936 -0.3676630205
-0.2201963302 0.0430863876 -0.4033671870
-0.1894770246 0.0304652304 -0.3637209559
-0.0886095710 0.1364545527 -0.2669145691
-0.3021324159 -0.0454393247 -0.4354697549
-0.1737931148 0.0045231992 -0.3636092218
-0.2148646397 -0.0215234392 -0.3793273233
-0.2674793245 0.0652086212 -0.4186819160
-0.2520712347 -0.0472471236 -0.3554674936
-0.2092392648 -0.0012271002 -0.3615886449
-0.2370552479 0.0016174446 -0.3269733646
-0.2551619693 -0.0477039511 -0.3794371563
-0.1525731359 0.0000894613 -0.3431741249
-0.2285186500 0.0232258639 -0.3573927732
-0.2645520553 -0.0256911308 -0.4267345776
-0.1938329542 -0.0271137602 -0.4213616654
-0.1747039838 -0.0014938496 -0.3728876336
-0.2188434783 0.0367832240 -0.4429633938
-0.1796727519 -0.0018446515 -0.3727212245
-0.1919067712 0.0200508532 -0.3455453493
-0.1415236010 -0.0272536437 -0.4118702444
-0.2308974134 -0.0529456292 -0.4470070690
-0.1821309903 -0.0159698222 -0.4611462357
-0.1489519603 0.0396557510 -0.3700495785
-0.2288847403 -0.0371154885 -0.3879018406
-0.1772430252 0.0190552938 -0.4047692065
-0.1244287061 0.0209216535 -0.4165159075
-0.1900043390 0.0097543157 -0.4044618449
-0.2087717416 0.0443605053 -0.3706042885
-0.1777541827 -0.0498864477 -0.4378026223
-0.2098372421 0.0575290263 -0.3871999784
-0.2099166575 0.0484469627 -0.4091938937
-0.2373652687 0.0395627498 -0.3727054219
-0.1642737405 0.0576004133 -0.4126586442
-0.2972176506 0.0127559369 -0.4593681914
-0.2615739411 -0.0635241975 -0.4541192524
-0.2981333521 0.0030623391 -0.3743545161
-0.1042978474 0.1885242046 -0.3708594894
-0.2451698053 -0.0110552370 -0.4609520261
-0.1817171700 0.0038714651 -0.4589321245
-0.1314613404 -0.0170278470 -0.3637288980
-0.2155553455 0.0099723826 -0.3454784063
-0.2540591546 0.0193063537 -0.4382908526
-0.1811977521 -0.0502846954 -0.4564235122
-0.1515032502 0.0398959402 -0.4558926739
-0.1881830623 0.0314968315 -0.4416954589
-0.1404931684 0.0167454308 -0.4398414162
-0.1710818370 0.0382613058 -0.3745984473
-0.1525762127 -0.0065378419 -0.3990596247
-0.1365220407 0.0096808888 -0.3553134376
-0.1345031016 -0.0240272017 -0.4076413917
-0.2048451767 0.0099198875 -0.3503248514
-0.2150061673 -0.0146634963 -0.3496345590
-0.1346390076 0.0116161694 -0.4096148219
-0.2846762978 0.0339351415 -0.3782462538
-0.2511506450 -0.0260804046 -0.4521715905
-0.1622265352 -0.0228050332 -0.4490268897
-0.2689895644 0.0577109168 -0.3942645358
-0.1538051984 -0.0296630562 -0.3903731987
-0.1886329800 0.0482933410 -0.3994181057
-0.1221676373 0.1971938407 -0.4280495993
-0.1515480269 0.0441636957 -0.4345973702
-0.1194642918 -0.0064412250 -0.4088088619
-0.2385217032 0.0230053206 -0.4065155044
-0.1617244288 -0.0338024970 -0.4653736299
-0.1511906823 0.0020433627 -0.4214963223
-0.2625357693 -0.0066355119 -0.3619898697
-0.2506708271 -0.0009389239 -0.4491733373
-0.2281151866 0.0392322854 -0.3578687341
-0.2737545050 -0.0193967904 -0.3866985222
-0.2643240770 -0.0332856352 -0.4165235719
-0.2319065298 0.0199614656 -0.3497075237
-0.2438210305 -0.0257198175 -0.3997263627
-0.1847284584 -0.0103003844 -0.3740968053
-0.2307162479 0.0435839832 -0.3775641870
-0.2960933021 -0.0106178341 -0.3742008228
-0.2792673918 0.0127812533 -0.3937442121
-0.1510673929 -0.0257836910 -0.3734784488
-0.2894548358 -0.0359623765 -0.4216467416
-0.2386117313 0.0008150959 -0.3448323379
-0.2396384393 -0.0163779897 -0.3304457809
-0.2009599547 0.0543744688 -0.4517887731
-0.2385011382 0.0478543733 -0.4383981341
-0.2759191729 0.0553116207 -0.4071952449
-0.1470843719 -0.0047376533 -0.4186914505
-0.2361505922 -0.0002392768 -0.4012329170
-0.2414375066 -0.0336889519 -0.4162235810
-0.1831324715 0.0555494076 -0.4245453476
-0.2465859701 0.0478198097 -0.3724228564
-0.2365548573 -0.0009818080 -0.4578337941
-0.1452557875 -0.0076901985 -0.4446041156
-0.2630091906 -0.0093141804 -0.3595137298
-0.1812794977 -0.0068051528 -0.4011425815
-0.2654401819 -0.0098473837 -0.3607353915
-0.1790359250 0.0225333210 -0.3626078044
-0.2642358316 -0.0099363935 -0.4382416130
-0.2642538900 0.0454751260 -0.3994673647
-0.2793785561 -0.0123566254 -0.4214999368
-0.1538340551 0.0554479098 -0.3894359292
-0.0862464760 0.1493942953 -0.3091561043
-0.1604502416 0.0298458397 -0.4676497560
-0.1385149547 0.0026511264 -0.4579870618
-0.1303394377 -0.0139057306 -0.4485450726
-0.2930473387 -0.0340505876 -0.3980598152
-0.1864261803 -0.0478190368 -0.4546511865
-0.1423340736 0.0351403108 -0.4188609403
-0.2149100734 -0.0090288528 -0.3773063490
-0.1397556225 -0.0000575137 -0.4394933817
-0.2589482803 0.0504826661 -0.3723221056
-0.2767950891 -0.0249916146 -0.3929281766
-0.1644501994 0.0323606662 -0.4600971602
-0.1118900308 0.0059741812 -0.4096464850
-0.1230899362 0.0274799427 -0.4042268121
-0.2037409820 -0.0065369763 -0.4647208351
-0.1909148958 0.0003072006 -0.4585790114
-0.1758640071 0.0429900290 -0.4447431059
-0.2630854873 -0.0274719385 -0.3962212221
-0.1352264816 0.0004912072 -0.4561594285
-0.2059541215 -0.0239760087 -0.3854988654
-0.2236204501 -0.0158532247 -0.4660273596
-0.1848075972 0.0454201572 -0.3961480531
-0.1916673296 0.0453968026 -0.3947405526
-0.1394858771 -0.0140340706 -0.4666314023
-0.1535394501 -0.0050252924 -0.3922543971
-0.1881280470 -0.0079383148 -0.4652546864
-0.2880491207 -0.0006953290 -0.3766122837
-0.2081702900 0.0331912662 -0.4335328216
-0.2536714764 -0.0325354646 -0.4374600957
-0.2359337915 0.0370170508 -0.3694946277
-0.1973306736 -0.0122551220 -0.3589192356
-0.1767200440 0.0536542618 -0.3801567313
-0.2968858350 0.0008224759 -0.3776372356
-0.2337977987 -0.0022065557 -0.3542235193
-0.2491504753 0.0223798755 -0.4028007417
-0.1549373790 -0.0393931037 -0.4889214992
-0.1421429565 0.0555729390 -0.4286307318
-0.1391915555 0.0518044532 -0.3927768124
-0.1589593628 0.0535904949 -0.3865696359
-0.2290543089 0.0575764755 -0.3823409907
-0.1362503480 0.0455763784 -0.3942175071
-0.2022746043 0.0000152689 -0.3514811265
-0.1899603972 -0.0156034427 -0.3622447322
-0.2239602652 0.0121720878 -0.3489743365
-0.2295973586 0.0565339651 -0.3939016994
-0.2915520246 -0.0511407850 -0.4273278167
-0.2721618466 0.0287151543 -0.3487175283
-0.2550439774 0.0380307452 -0.4005933348
-0.2055648387 0.0149685394 -0.4596131463
-0.2262035084 0.0463549476 -0.3698705946
-0.1331838166 0.0431114494 -0.4066036810
-0.2519300208 -0.0334973825 -0.4493556766
-0.2602133253 0.0597558743 -0.4192188844
-0.1801740769 0.0130641751 -0.4204691709
-0.2073832411 -0.0366118654 -0.4444409460
-0.2042978089 0.0357807391 -0.4481856761
-0.2445594935 0.0194573392 -0.4380494971
-0.1809634903 -0.0060367929 -0.3644884087
-0.2468699569 0.0098177990 -0.3448791260
-0.1792137874 0.0365469819 -0.3700623473
-0.1555679152 -0.0021602719 -0.3584030767
-0.1336807353 0.0093477585 -0.4223668157
-0.1790952350 0.0305302188 -0.3662737115
-0.1484746798 0.0475526539 -0.3815206562
-0.2012985740 -0.0675888326 -0.4887175012
-0.2251372821 0.0134372913 -0.3906042175
-0.2287563367 -0.0316138411 -0.3679052104
-0.2310295100 0.0536730236 -0.3973767446
-0.2642089354 0.0206530680 -0.3440714320
-0.2441813204 0.0228411669 -0.3471778889
-0.2439664522 -0.0187123148 -0.4259331479
-0.1885034023 -0.0584101135 -0.4502092459
-0.1564007941 0.0349101601 -0.3694333329
-0.1617630457 -0.0312662312 -0.4392218249
-0.2915796117 0.0011863418 -0.4229823000
-0.2265051969 -0.0055324418 -0.3860502744
-0.1414425199 0.0161487764 -0.4577742839
-0.2145606684 -0.0359320010 -0.4438913489
-0.1743864132 -0.0093138422 -0.3736259425
-0.2031505373 -0.0092596810 -0.3664217778
-0.1477619593 -0.0213774225 -0.4592943386
-0.2125376811 0.0152062489 -0.4546668987
-0.2043506685 -0.0068827764 -0.3769411053
-0.1823463338 0.0673542929 -0.4459460966
-0.1527424723 0.2328225065 -0.4680364699
-0.2106856950 -0.0485499311 -0.4486263028
-0.2665681363 -0.0274656496 -0.3950784741
-0.1645710637 0.0005082102 -0.3726940297
-0.2847976154 -0.0060516677 -0.4336158152
-0.1068145297 0.2001118986 -0.3589432478
-0.1672466530 0.0319292243 -0.4686255503
-0.1761197201 0.0468840208 -0.3919601631
-0.1639429028 0.0518407396 -0.3871580189
-0.2278440076 0.0251241776 -0.4587365399
-0.2769719119 -0.0352871387 -0.3879777318
-0.1318748688 0.0068894470 -0.4630480624
-0.2532529280 -0.0390041210 -0.4175733370
-0.1563322882 0.0426853862 -0.4504137348
-0.1115016301 0.1941457291 -0.4020915622
-0.2228264577 0.0467114959 -0.4379379157
-0.1090659407 0.0122211224 -0.4043748580
-0.2769426568 -0.0108796595 -0.3854386789
-0.2638115719 0.0278768220 -0.4279075996
-0.2243135507 0.0448520640 -0.3760689989
-0.2509744390 -0.0391203295 -0.4200594763
-0.1451462140 -0.0059674917 -0.3776176240
-0.2267528825 -0.0077783709 -0.3691065434
-0.1636024115 -0.0429981936 -0.4192988898
-0.2733932652 -0.0126980163 -0.4353295601
-0.2244905888 -0.0241632520 -0.4537687427
-0.1426046295 0.2349594558 -0.4237666287
-0.2274550791 0.0147231930 -0.3865988923
-0.2062200440 0.0377970781 -0.4150286428
-0.1439439628 0.0030932153 -0.3843913525
-0.1495033966 -0.0213746269 -0.4316445329
-0.2090111842 0.0379981532 -0.3641320818
-0.2469742302 0.0370356181 -0.3567776079
-0.2687407741 -0.0200057357 -0.3615753193
-0.1629595298 0.0570538004 -0.4171846022
-0.2372189508 0.0398648753 -0.3771841122
-0.2464027846 0.0109351045 -0.3923704591
-0.1786591789 0.0329166529 -0.3627780860
-0.2948794937 0.0252360408 -0.3532329448
-0.1986863261 0.0378690357 -0.4069787226
-0.2071385558 0.0006847290 -0.3582920762
-0.2400638040 0.0212834546 -0.3414610491
-0.1298257366 0.0053830863 -0.4428646991
-0.2281156262 0.0040689631 -0.4506680029
-0.2219123938 0.0008471458 -0.3332561626
-0.2015465712 0.0387271233 -0.4149211633
-0.1245525941 0.0224622053 -0.4090316919
-0.2176617409 -0.0243884250 -0.3777965094
-0.2277442860 0.0387467486 -0.4352750503
-0.2517026781 0.0184290125 -0.3961362884
-0.2141488749 -0.0125839831 -0.3868264524
-0.2268458342 0.0335347141 -0.4261880097
-0.1244382703 -0.0144779314 -0.4854038126
-0.3013413478 -0.0045098012 -0.4201753365
-0.1952711087 -0.0556021396 -0.4530576624
-0.2312238030 -0.0161325880 -0.3352493419
-0.2339588543 -0.0499005429 -0.4421256672
-0.2967098659 -0.0058894809 -0.3875331012
-0.1754808531 0.0411884676 -0.4294417909
-0.1885809106 -0.0139187847 -0.4782907137
-0.1159382760 -0.0306754146 -0.5003960704
-0.1441852015 -0.0033373766 -0.3853891757
-0.2993903824 0.0218604024 -0.3898477615
-0.2821842476 0.0167870576 -0.4251772029
-0.1520833979 0.0219185526 -0.3653008313
-0.2846844339 0.0415836238 -0.3844275112
-0.1748424312 0.0324750310 -0.4215124599
-0.2310051193 -0.0053036393 -0.4664158471
-0.1524391081 0.0136283957 -0.4573462047
-0.1700135933 0.0378120216 -0.4579039561
-0.2233804924 -0.0168374790 -0.3668697023
-0.2513479509 0.0613617447 -0.3752093330
-0.2349301221 0.0548142287 -0.4436431379
-0.2108446951 0.0201036796 -0.4498216729
-0.1441891412 0.0599895938 -0.4265076655
-0.2461709529 0.0460524149 -0.3753058016
-0.2551850004 -0.0219875672 -0.4438190721
-0.2045061754 -0.0021449662 -0.3650590406
-0.3106886847 -0.0348968067 -0.3993364400
-0.2886676916 -0.0472491847 -0.4215336849
-0.1909545003 0.0034231858 -0.4516364510
-0.1140249760 -0.0002175945 -0.4058148228
-0.2084323264 0.0161535826 -0.3367549227
-0.1841521642 0.0251720807 -0.3616369872
-0.1331489052 -0.0181131637 -0.4374632747
-0.1570905676 0.2365618709 -0.4709098248
-0.1506612377 -0.0168037980 -0.3542816929
-0.1154917728 0.0179092792 -0.3854457735
-0.2093884387 0.0003822357 -0.3570913711
-0.2445864751 -0.0044573260 -0.3549888029
-0.1518579201 -0.0235986343 -0.4313691391
-0.2034388563 -0.0290916419 -0.4352396458
-0.2439731724 -0.0162552824 -0.3838534937
-0.2336832708 -0.0214514531 -0.3470492636
-0.2392531809 0.0643839580 -0.4283214294
-0.1537757900 -0.0350894088 -0.4107459982
-0.1931653387 -0.0443999546 -0.4554043387
-0.1104731492 -0.0019354373 -0.3847455307
-0.1254249386 0.0583841651 -0.3948388641
-0.1545749838 -0.0088591488 -0.4022158053
-0.2321259628 0.0337376314 -0.3602073325
-0.1996500667 0.0538281055 -0.4053064663
