-0.1125488435 0.0209006816 -0.4152634988
-0.2262505712 -0.0021314537 -0.3829074164
-0.1421172896 -0.0099485961 -0.3742613675
-0.1337773882 0.0431566348 -0.4280404376
-0.1895892086 0.0072537888 -0.3399115445
-0.1454229826 -0.0360051060 -0.4131969384
-0.1657796842 0.0066937590 -0.3855325923
-0.1343995255 0.0225114684 -0.3413152066
-0.1306025302 -0.0169814791 -0.3741380192
-0.1903132312 0.0426256362 -0.3667303472
-0.0905250777 0.0396470038 -0.4269034649
-0.1099425300 0.0147503975 -0.4677639390
-0.1205438289 0.0401049914 -0.4805010381
-0.1211290139 0.0397434161 -0.3755407073
-0.1083407799 0.0396497784 -0.4173449675
-0.2300730984 0.0112077467 -0.4158165263
-0.1697314192 -0.0127942991 -0.3696595220
-0.1885195193 -0.0108817735 -0.3541744973
-0.1209900424 -0.0202530328 -0.3849157880
-0.1144570921 -0.0440038666 -0.4371526047
-0.1650796658 0.0666700467 -0.3548935592
-0.1482038051 0.0520614721 -0.3483740091
-0.1423585564 0.0426996388 -0.3667995036
-0.1910920312 -0.0391631682 -0.3922149720
-0.1494650123 0.0308126796 -0.4793023327
-0.1699044802 0.0263933771 -0.4649232701
-0.1700433567 0.0355173163 -0.3277053982
-0.1065718882 -0.0282604985 -0.4440732068
-0.1888539234 -0.0229664080 -0.3802916543
-0.1586427056 0.0465442868 -0.3907368756
-0.1420779025 -0.0284195077 -0.3844987726
-0.1734465358 0.0386707393 -0.4384766500
-0.1377844986 -0.0313216805 -0.3747938861
-0.1603568196 0.0411832966 -0.3284662068
-0.1540205462 0.0100493513 -0.4677361668
-0.1786751234 0.0467551719 -0.3966821221
-0.1119188471 -0.0284616193 -0.4382175990
-0.1278871026 0.0564201853 -0.3730360336
-0.1713088575 0.0672639416 -0.3535290283
-0.1328223089 0.0292344067 -0.3503573462
-0.1765961443 0.0560773468 -0.3740844382
-0.1643046504 0.0012662763 -0.3908250547
-0.1570742679 0.0234224317 -0.3786909730
-0.1624967933 -0.0060804911 -0.3559168439
-0.1835717195 0.0132131568 -0.3538197231
-0.1401783956 -0.0326966894 -0.4677433202
-0.1806200352 0.0120917857 -0.4536993132
-0.0741757400 -0.0076121395 -0.4408968509
-0.0856165971 0.0464533872 -0.4562064003
-0.1066158955 0.0232305056 -0.4169872540
-0.1184748525 0.0071436240 -0.3602941010
-0.1920027720 0.0448089833 -0.4199936224
-0.1360591124 0.0472434108 -0.3829941581
-0.1641635161 0.0463730832 -0.3331006183
-0.1573208667 -0.0421475580 -0.4475769146
0.1337945156 -0.0008189698 -0.4213834201
-0.1143329446 -0.0352597282 -0.4789314049
-0.2206428287 0.0245142294 -0.3930865977
-0.1509233163 0.0569743830 -0.3455105793
-0.1395994789 0.0308733042 -0.4610413868
-0.0969160755 -0.0198016350 -0.3975239518
-0.1430164663 0.0269188012 -0.3355688526
-0.2309608536 0.0117876311 -0.3917930349
-0.2004098044 0.0134390318 -0.4210926327
-0.1437501056 0.0245627359 -0.3335784490
-0.1388571522 0.0271630836 -0.4439994550
-0.1943091991 -0.0185325641 -0.4119131302
-0.0814793559 0.0285029666 -0.4466170729
-0.1486647710 0.0294177912 -0.3792535539
-0.2298433484 -0.0169103571 -0.3986906344
-0.1242582406 0.0336001156 -0.4559223476
-0.1802048698 0.0448839763 -0.3365637790
-0.1383266136 0.0377117069 -0.3673617625
-0.1856411426 0.0435502588 -0.3744357578
-0.1225134758 -0.0390554194 -0.4280645947
-0.1530242168 0.0427472863 -0.3787972878
-0.0878626667 0.0001406521 -0.3981024325
-0.2020323656 0.0556611079 -0.3729605376
-0.0882022790 0.0022683211 -0.3968666716
-0.1845568043 0.0152435642 -0.4201298866
-0.1992631995 -0.0016386826 -0.4314160515
-0.1694687335 0.0276038781 -0.4339855709
-0.0761172772 -0.0183236282 -0.4130274661
-0.1217268537 -0.0206461250 -0.4030279397
-0.1963655069 0.0267659208 -0.3538681390
-0.1141600310 -0.0252508603 -0.3972000258
-0.1149853794 0.0155925655 -0.4171440435
-0.0755653982 -0.0276632618 -0.4077409172
-0.1751513796 0.0300683259 -0.3151768332
-0.1197601681 0.0424683871 -0.4449832426
-0.1597728456 0.0494203505 -0.3867029477
-0.1396376267 -0.0266232843 -0.3872328654
-0.1863376763 -0.0270718584 -0.3989420702
-0.1531570086 0.0246734883 -0.3804222411
-0.1271193244 0.0483491750 -0.4388626328
-0.1304500143 -0.0365925185 -0.4700042874
-0.1676578507 0.0090735073 -0.3805593844
-0.1206919786 -0.0336543989 -0.4059490020
-0.1377404898 0.0092007821 -0.3391757778
-0.2233278681 0.0045578596 -0.4043791520
-0.2142843395 0.0362328832 -0.3808273730
-0.1943828931 -0.0113766150 -0.4154014274
-0.2221612414 0.0118173897 -0.3579463606
-0.1114202195 -0.0093207149 -0.3622739999
-0.2133164581 0.0331700564 -0.3958648217
-0.1053830121 0.0247722738 -0.3852209770
-0.0848843791 -0.0175416386 -0.4359611354
-0.1247606074 0.0281778640 -0.4496428210
-0.1737284983 0.0297984561 -0.3302388997
-0.1728142310 0.0621026130 -0.3526507782
-0.1436450207 -0.0416943954 -0.4576893854
-0.2261852850 -0.0097869240 -0.3836585112
-0.1492592419 -0.0422748070 -0.4574606609
-0.1777110910 0.0043061260 -0.3477774156
-0.2141743923 0.0355076078 -0.3712713544
-0.1072221434 -0.0161747525 -0.3865940262
-0.2227983328 0.0141379124 -0.3869168933
-0.1382977635 0.0423279880 -0.3729585386
-0.1379017804 0.0170483612 -0.3396877875
-0.1600754358 -0.0289830232 -0.3692460949
-0.1546220426 0.0217019701 -0.4002520445
-0.1128310741 0.0338297172 -0.4382234803
-0.2240247635 0.0198243238 -0.3836335624
-0.1121837935 0.0145838214 -0.4816599281
-0.1429181274 -0.0088935150 -0.3679406128
-0.1255831444 -0.0034876612 -0.4245936630
-0.1330189107 0.0247398478 -0.4915732113
-0.1634036981 0.0486698977 -0.3334119425
-0.1317809123 -0.0118135105 -0.3763576959
-0.0388618014 0.2118756743 -0.5199418661
-0.1184158948 0.0374843405 -0.4512567867
-0.1326344152 0.0272391173 -0.4818668345
-0.1143317418 -0.0277818168 -0.4025128924
-0.0966981305 0.0413521111 -0.4466908936
-0.1127936426 0.0359712606 -0.4203908362
-0.1166954555 0.0116405620 -0.3631765924
-0.1349190350 -0.0239314387 -0.4072900197
-0.1677447736 0.0286857596 -0.3970996265
-0.1530807121 0.0696980683 -0.3655471006
-0.0946283862 0.0326730199 -0.4169343412
-0.1413813551 0.0506748500 -0.3919556806
-0.1617976948 -0.0099825044 -0.4829917628
-0.2108521610 0.0259682704 -0.3602822721
-0.1407962694 0.0530919941 -0.3921470296
-0.0730721866 -0.0124734782 -0.4429205167
-0.1265333775 -0.0288364944 -0.4785229576
-0.1653861679 0.0533599365 -0.4130466995
-0.1412888740 0.0198911324 -0.3334727166
-0.1522024732 0.0667606719 -0.3697061398
-0.1785114347 -0.0205357337 -0.3537993620
-0.1802454870 -0.0275638323 -0.4121840620
-0.1356348246 0.0457072295 -0.3825193644
-0.1288931866 -0.0410878107 -0.4319297559
-0.2137117821 0.0112644979 -0.3752242305
-0.1418852077 -0.0582638967 -0.4193809990
-0.1880493217 -0.0276738808 -0.4106606346
-0.1053701705 -0.0177540584 -0.3894131563
-0.0840851265 -0.0087191369 -0.3975008246
-0.1229000514 0.0179104492 -0.4202496120
-0.1364019534 0.0437181324 -0.3758837547
-0.1914901675 -0.0148775718 -0.3608642995
-0.1185831374 0.0095470364 -0.4283615394
-0.1114340978 0.0158626024 -0.4244018418
-0.1301670051 -0.0338792965 -0.4339298266
-0.2027231821 -0.0147474679 -0.4026547736
-0.1341251615 -0.0420395909 -0.4235802530
-0.1335931479 -0.0279258780 -0.4928622551
-0.2105666274 0.0018130663 -0.3594812436
-0.0984954719 0.0418456894 -0.4270715587
-0.0751355807 0.0125390778 -0.4599960784
-0.1558963697 0.0521941062 -0.3748970290
-0.1602859851 0.0419409406 -0.4164393610
-0.1409422417 0.0446697614 -0.3554065813
-0.1619105741 0.0410027502 -0.4130648682
-0.1413996578 0.0323473397 -0.3896368713
-0.1327390630 -0.0206843840 -0.3777458083
-0.1383833538 0.0400984884 -0.3940475297
-0.2245951397 0.0230476378 -0.4149922771
-0.2263855273 0.0128724491 -0.4274552827
-0.1794527866 0.0470638204 -0.4340038873
-0.1533300747 0.0571329857 -0.3452398707
-0.1135680083 0.0322512797 -0.3728994046
-0.0820675110 -0.0113787910 -0.4498308049
-0.1410608868 -0.0376948037 -0.4236016902
-0.1587181415 -0.0069028819 -0.3530513076
-0.1577438646 -0.0082180422 -0.3813283506
-0.0733547161 0.0011251079 -0.4035818534
-0.0946089313 0.0077914120 -0.3804383893
-0.2141018111 0.0370423121 -0.4002498569
-0.1064221688 0.0272676391 -0.3856738967
-0.2053419009 -0.0246706093 -0.3952847811
-0.1249243565 -0.0076241779 -0.4174833265
-0.1551049000 0.0180991424 -0.3830500498
-0.1645834277 0.0167152031 -0.4758013798
-0.0927357853 -0.0292287517 -0.4432153825
-0.1550294667 -0.0163909516 -0.3607802042
-0.1884056470 0.0475303669 -0.4236662291
-0.1120231192 0.0203433144 -0.4273758296
-0.1063681304 -0.0276054157 -0.3733525363
-0.1558492988 0.0428735172 -0.3917063996
-0.1774221945 0.0572455668 -0.3967614990
-0.1257834584 0.0284008402 -0.3529291153
-0.1259028148 -0.0002221890 -0.4160333295
-0.1782421303 0.0167428468 -0.3302286376
-0.1852401574 0.0103733737 -0.3378693834
-0.1092164782 -0.0428205760 -0.4590152756
-0.1674857027 0.0337496599 -0.3972451799
-0.1406715022 0.0465705668 -0.4635438837
-0.1383594007 0.0256113684 -0.4388748340
0.0262080400 0.0814171074 -0.2250508371
-0.1235581035 0.0543419293 -0.4614756942
-0.1317825166 0.0237754347 -0.4622563032
-0.1049476565 0.0358569122 -0.4401483727
-0.1090223149 0.0508017500 -0.4034544394
-0.1918633354 0.0558646050 -0.6264925691
-0.1659413167 -0.0009112207 -0.3420186288
-0.2001616961 -0.0072431596 -0.3767918680
-0.1059870389 0.0401545662 -0.4480009240
-0.1584633846 0.0517358975 -0.3842017015
-0.1564560661 0.0596032571 -0.3773642870
-0.1841401210 0.0623315647 -0.4017376130
-0.1426962590 -0.0208592967 -0.4742874756
-0.1357934747 0.0453653757 -0.3985023898
-0.2144109799 0.0231845425 -0.4144785889
-0.1644513209 -0.0404748596 -0.3869360640
-0.1921226736 0.0063305033 -0.4164492651
-0.1559187599 -0.0212020027 -0.3675149164
-0.2032654220 0.0173530328 -0.4202884025
-0.1944692600 0.0169318181 -0.4140744067
-0.1596564856 0.0436419099 -0.3288262172
-0.1236223074 -0.0127153103 -0.3703141162
-0.1274266649 0.0126638907 -0.4936753785
-0.1718532275 -0.0442205875 -0.3897405532
-0.1394731833 0.0420570629 -0.3547769493
-0.0972514776 -0.0548047393 -0.4254867225
-0.2163676620 0.0335990526 -0.3693885505
-0.2111112772 0.0029215723 -0.4071377297
-0.1206208716 0.0156991179 -0.4135661445
-0.1853092374 0.0085260567 -0.3564824124
-0.1217262483 -0.0116215596 -0.4272914858
-0.1642319794 0.0340176916 -0.4248233405
-0.1508222484 0.0015338345 -0.3820414106
-0.1291204880 -0.0249380655 -0.3849459997
-0.1020320944 0.0196526845 -0.4737130882
-0.1183114508 -0.0450983868 -0.4699031189
-0.1243452021 -0.0323946359 -0.4501843561
-0.1052537122 0.0444670799 -0.4379383887
-0.1660283846 -0.0111364744 -0.3437945455
-0.1394881659 -0.0378380537 -0.4741978082
-0.1733084457 0.0326486404 -0.3856545933
-0.1308308805 0.0446514789 -0.3826648567
-0.1496696323 -0.0213101081 -0.3640444192
-0.1309552652 0.0319529683 -0.3655983694
-0.2057403975 0.0064220193 -0.3691771529
-0.1627953420 0.0079524416 -0.4558553091
-0.0939058420 -0.0440563773 -0.4315436524
-0.1319291840 0.0341728915 -0.3649344556
-0.1836365569 -0.0334031952 -0.3967706542
-0.1827266672 0.0166500529 -0.4298535530
-0.1958806071 0.0217283864 -0.3479930805
-0.2041294874 0.0215223679 -0.4249608364
-0.1637438536 0.0599319001 -0.3520336184
-0.1287888649 -0.0341753529 -0.4114805231
-0.1294488387 -0.0360649718 -0.4428143486
-0.1856063167 -0.0491690531 -0.4153803355
-0.1252938765 0.0446027100 -0.3679982335
-0.1758089062 -0.0397557514 -0.4376134171
-0.0860526648 0.0001571270 -0.4024946874
-0.1131439801 0.0466548173 -0.4386813994
-0.1520458445 -0.0416791901 -0.3962173403
-0.1059760307 0.0034911592 -0.4807085662
-0.1370288414 0.0557178240 -0.4001652049
-0.0941049891 -0.0260425374 -0.4291715534
-0.1092988205 -0.0284032004 -0.4578452915
-0.0988024859 -0.0201787112 -0.3922204096
-0.1302505536 0.0179125731 -0.3477230718
-0.1996935291 0.0404940219 -0.3770622906
-0.1489614669 0.0586554226 -0.3603650854
-0.1432408469 0.0102160333 -0.4582846494
-0.1675048291 0.0637817772 -0.3872648216
-0.1202501528 0.0068141614 -0.4189066697
-0.2099325704 0.0419706331 -0.3742940216
-0.1828625872 -0.0104572265 -0.3514359764
-0.0943134235 0.0524192869 -0.4298104157
-0.0799002394 0.0314085632 -0.4157396682
-0.1259947138 -0.0226724826 -0.3962741928
-0.0843165437 0.0245029675 -0.4085648945
-0.1892091584 0.0588736362 -0.3469473214
-0.1033085876 -0.0093572222 -0.3771646389
-0.1460524682 0.0541469301 -0.3873274038
-0.1707470990 -0.0055145417 -0.3476638131
-0.2189369874 0.0203882965 -0.4122616148
-0.1463487148 -0.0019870551 -0.3380672932
-0.2197542021 0.0205178701 -0.3649634898
-0.0910074291 0.0424639761 -0.4256313736
-0.1178023330 -0.0112615133 -0.4196304207
-0.2175692215 0.0233899878 -0.3648365332
-0.0792828761 -0.0156172890 -0.3891690066
-0.1325754802 0.0098511432 -0.4232792177
-0.1713608101 0.0443780333 -0.3151378513
-0.1161289477 0.0106732417 -0.4836616520
-0.1474395205 0.0475164318 -0.3355488653
-0.1407368791 0.0282628204 -0.4691171583
-0.1479630395 0.0248298283 -0.4664786068
-0.1014939520 -0.0171112976 -0.4606866048
-0.1936643350 0.0087352109 -0.3422210051
-0.1446450135 0.0505676971 -0.4198853472
-0.1517103055 -0.0460090633 -0.4299481102
-0.1386702925 0.0197939379 -0.3385379982
-0.2223759122 0.0031754822 -0.3696046767
-0.2162053742 0.0161208296 -0.3993581515
-0.2236167083 0.0024594700 -0.3736896371
-0.1437829610 0.0053960130 -0.4741485748
-0.0986010574 0.0394136164 -0.4331530870
-0.2078626431 -0.0214074164 -0.4076943976
-0.1028451565 -0.0003083819 -0.4684538565
-0.2202217988 -0.0257751931 -0.3899869130
-0.1943413958 0.0019187167 -0.3647454065
-0.0830736681 -0.0058125326 -0.3949022091
-0.1107356325 0.0440597898 -0.4439218398
-0.1908438282 -0.0487104093 -0.4008653639
-0.1279341529 0.0436992126 -0.4048106255
-0.1387513772 -0.0335121943 -0.4535009222
-0.1276936703 -0.0200240341 -0.3997466209
-0.1380340674 0.0572210603 -0.4031064712
-0.2011355717 0.0172456890 -0.4151836403
-0.2104573839 -0.0071942942 -0.4077748672
-0.0924056818 0.0117325847 -0.3712052128
-0.1705298105 0.0367191798 -0.3971739884
-0.1478548912 -0.0314058784 -0.4425999949
-0.1064330397 0.0289659058 -0.3846547480
-0.1225097403 -0.0496854081 -0.4213466600
-0.0794484578 0.0100805372 -0.4481044651
-0.1097130359 -0.0183609272 -0.4681273625
-0.1134868884 0.0214203470 -0.3695413725
-0.1840947557 0.0058769083 -0.3512903557
-0.1036143500 0.0195277624 -0.3949197289
-0.1426424322 -0.0128941817 -0.3530209270
-0.1108249030 -0.0299659121 -0.3980064004
-0.0850840959 0.0386621172 -0.4228179946
-0.2262937518 0.0083881860 -0.4016654887
-0.0897388809 -0.0250837381 -0.3970422138
-0.1695757562 0.0275234309 -0.4038206510
-0.1272236394 -0.0526380079 -0.4622922963
-0.1146384063 -0.0430693184 -0.4501498524
-0.1150049995 0.0041686252 -0.3678781767
-0.1686496480 0.0315311063 -0.4017574315
-0.1253818586 0.0357355140 -0.4608323405
-0.1830921855 -0.0439417387 -0.4031802834
-0.2019764026 0.0108111543 -0.4113263444
-0.1052838899 0.0219445918 -0.3981540501
-0.1036919049 0.0043017729 -0.4695570415
-0.1145340182 0.0177084952 -0.4815756665
-0.1025443152 -0.0043837199 -0.4708762206
-0.1463629213 0.0072421890 -0.3329774460
-0.1095313568 0.0240935787 -0.4403166553
-0.1032458661 0.0316407839 -0.4131262352
-0.1262746434 0.0199786476 -0.4292290370
-0.1548306092 0.0244942826 -0.3831050796
-0.1255889715 -0.0373144988 -0.4830162535
-0.1361764421 0.0534307964 -0.3693454326
-0.1142009876 0.0419292061 -0.4129865015
-0.1057901621 -0.0005124611 -0.3775329165
-0.0880324573 0.0095573384 -0.3953541973
-0.1626955035 0.0057201220 -0.3860272069
-0.1635807591 0.0318027643 -0.3278626145
-0.2275835574 0.0269173104 -0.3746765852
-0.1726178145 -0.0148772660 -0.4376917722
-0.1273165121 0.0265076396 -0.4132415183
-0.0880786324 0.0117493689 -0.3950786770
-0.0880482817 0.0007431322 -0.4004050389
-0.1328277491 -0.0204101639 -0.3939186279
-0.2226729563 0.0234043741 -0.3904025801
-0.0987696785 0.0509480748 -0.4266023827
-0.1800698628 0.0455648206 -0.3476922087
-0.1432194496 -0.0406719970 -0.4438851759
-0.1083863142 0.0417119037 -0.4224407143
-0.1458312012 0.0366934496 -0.4098547880
-0.1082978650 -0.0222679799 -0.3829115172
-0.1049482613 -0.0548108567 -0.4162105128
-0.1935400838 -0.0117655513 -0.3700271303
-0.2258765605 -0.0040903823 -0.3778680153
-0.1097725659 -0.0423106121 -0.4468356456
-0.1995341885 0.0314561898 -0.4235242106
-0.2030791748 -0.0447744058 -0.4000875782
-0.1935350884 -0.0011193278 -0.3446979841
-0.2206946057 -0.0166543454 -0.3852164480
-0.1880403690 0.0389525704 -0.3673653004
-0.1421387817 0.0268649639 -0.3253439659
-0.0647421938 -0.0289338860 -0.4304419015
-0.1866627614 0.0124707489 -0.3520345291
-0.1814603872 -0.0283143878 -0.4343933180
-0.1000856009 0.0180140062 -0.3954339714
-0.2143896614 0.0011960350 -0.3582667941
-0.0912295433 -0.0174090059 -0.4471246327
-0.1795479000 -0.0204254390 -0.4330442083
-0.1324789667 0.0204167494 -0.4499414811
-0.1181326204 0.0285744261 -0.4409451624
-0.0921294827 -0.0189830854 -0.4495574971
-0.1513878588 -0.0045250883 -0.4889797157
-0.1619418134 0.0264752704 -0.4662936707
-0.1387524153 -0.0481281555 -0.4692483730
-0.1651066359 -0.0310350493 -0.4550678416
-0.1054168625 0.0306420950 -0.3789948790
-0.1303483922 0.0402205213 -0.4619952511
-0.1138982613 0.0302172413 -0.4321529711
-0.1067192949 0.0270085261 -0.3801345939
-0.1790010296 0.0251833188 -0.4452551168
-0.1190044037 -0.0094530497 -0.3680698628
-0.1335545637 0.0008124205 -0.4850545431
-0.1051603954 0.0222422374 -0.3840340013
-0.1142617314 -0.0127233330 -0.4241275513
-0.0920129743 0.0440320577 -0.4116933679
-0.1181378321 -0.0076127558 -0.3674025533
-0.0998405367 0.0418927260 -0.4319689572
-0.1457769341 0.0444707220 -0.3746436392
-0.1407938863 0.0523375092 -0.4002278736
-0.1009018989 0.0402491139 -0.4219324097
-0.1134724605 0.0417711337 -0.4148641265
-0.0857742820 -0.0053411034 -0.4001001287
-0.1712812386 0.0580208015 -0.3823466347
-0.1912245262 0.0853786602 -0.6204786896
-0.0846079267 0.0334788613 -0.4310842574
-0.0940639140 -0.0291505667 -0.3860654778
-0.1296423924 0.0403743568 -0.3679373507
-0.0560766377 0.0170270028 -0.4323736044
-0.1334235908 0.0047437532 -0.4300188295
-0.0772766788 -0.0355207844 -0.4186086670
-0.2186527339 0.0019728969 -0.3866493154
-0.1900581847 -0.0043368234 -0.3762760896
-0.2150749398 0.0001100196 -0.3952841002
-0.1189224069 0.0210530490 -0.4140409292
-0.1681087826 0.0325405790 -0.4229582583
-0.1949258383 -0.0315228326 -0.4163720561
-0.1503743700 -0.0516748949 -0.4232244590
-0.1074129205 0.0504112752 -0.3857020415
-0.1744299041 -0.0097299680 -0.3724907016
-0.2210449587 0.0130864741 -0.3517860244
-0.1227796083 -0.0551735347 -0.4176388748
-0.1034803768 -0.0004323875 -0.3803086258
-0.1068569776 0.0194192069 -0.4678979099
-0.2089016516 -0.0022904476 -0.3571562565
-0.1477068560 0.0352812368 -0.4051449994
-0.1025450500 0.0249258696 -0.4324404833
-0.1837368246 0.0461582793 -0.3717948127
-0.1269142653 0.0394524847 -0.4190826784
-0.1004839212 -0.0389677015 -0.4452059476
-0.1267969436 0.0243571877 -0.3505987719
-0.1551330430 0.0331078186 -0.3227643053
-0.1805372074 0.0251632537 -0.4203725622
-0.1577387424 0.0193467729 -0.4623163478
-0.2143994447 0.0295216430 -0.3839861257
-0.1628907005 -0.0111483932 -0.3412099180
-0.1905791618 0.0232584365 -0.4462043094
-0.1885485140 0.0195911399 -0.4141290243
-0.1080152852 0.0397477034 -0.4198436504
-0.0950021376 0.0437225157 -0.4309630457
-0.1745254626 0.0502224043 -0.4094291649
-0.1313037594 0.0512325469 -0.4071878895
-0.1239107495 0.0390527442 -0.3629480658
-0.1356209104 0.0094213013 -0.3406252268
-0.1710886875 0.0281591032 -0.4008981726
-0.1913113222 0.0629780716 -0.3956760513
-0.0989672265 -0.0269706789 -0.4544298745
-0.1828893966 0.0582473036 -0.3998976964
-0.1159822931 -0.0211113524 -0.3817616915
-0.2262450414 -0.0192935048 -0.4164689119
-0.0913398300 -0.0234859643 -0.4033797046
-0.1630039188 -0.0474332738 -0.4542044977
-0.1962001078 0.0038623466 -0.3727075854
-0.1859462116 0.0152114774 -0.4366788461
-0.1349353479 -0.0213465207 -0.4099424819
-0.1129105054 -0.0426861078 -0.4595193849
-0.1350383812 -0.0196819232 -0.4923713659
-0.1338829566 0.0071154505 -0.4905160031
-0.1708347967 0.0458654952 -0.4039534258
-0.1610214213 0.0589268491 -0.3453589539
-0.1259898855 -0.0534167697 -0.4174396661
-0.1150982957 -0.0260710318 -0.4194767108
-0.1552315056 0.0392979123 -0.3296185434
-0.1495045711 -0.0193561543 -0.3661818311
-0.1707823425 0.0323531835 -0.3287043352
-0.1454282324 -0.0049569117 -0.4921127880
-0.1825354248 0.0446256287 -0.3458048701
-0.1119484275 -0.0263745656 -0.4519459049
-0.1085431866 0.0049813197 -0.4250093335
-0.1860378961 0.0284265719 -0.3316880619
-0.1192529951 -0.0146248175 -0.3595856644
-0.1306490801 -0.0079696868 -0.4976697728
-0.1757553051 -0.0011223196 -0.3499890452
-0.1239746398 0.0373764346 -0.4676014607
-0.0937840497 0.0117950091 -0.3901512235
-0.0986701503 0.0423349258 -0.4252703770
-0.2111236345 0.0033201704 -0.3568997820
-0.1212342853 -0.0305434172 -0.3859034352
-0.1481642564 0.0399557167 -0.3323270380
-0.1281755846 0.0038134583 -0.3495236584
-0.1239889680 0.0465800368 -0.3833160144
-0.1075638915 0.0399504478 -0.3757826656
-0.1747133727 0.0453581394 -0.4013238802
-0.1514521896 0.0468445778 -0.4140626434
-0.0865338420 0.0509209530 -0.4216687898
-0.1837372534 0.0520682486 -0.3287020257
-0.0686778651 -0.0218902204 -0.4228909149
-0.1039410888 0.0509116453 -0.4311992814
-0.1184132119 0.0223909324 -0.3625534744
-0.1753066583 0.0542174868 -0.3496383169
-0.1548921200 -0.0252084702 -0.4715210736
-0.0978437369 0.0456563461 -0.4679918822
-0.1384144028 0.0360894230 -0.3276292345
-0.1684575686 0.0359732268 -0.3162073743
-0.1099691998 -0.0386346810 -0.4599533559
-0.1154762808 0.0192782965 -0.4276815164
-0.1025849638 -0.0150707064 -0.4732310503
-0.2343739933 0.0060629478 -0.4062646974
-0.1244234431 -0.0302984358 -0.3841312424
-0.1807701232 0.0568325411 -0.3730925005
-0.1578973557 0.0552223521 -0.4128534456
-0.1536575257 0.0294526063 -0.3285055017
-0.1118362791 -0.0382753359 -0.4022064205
-0.1315423013 0.0223889929 -0.4562266873
-0.1673495292 -0.0074500711 -0.3627068331
-0.0884802923 -0.0125997613 -0.4575362443
-0.0651602282 0.0176697511 -0.4173973050
-0.2012528441 -0.0197521565 -0.3987525900
-0.1663999794 0.0019475371 -0.3813632011
-0.1822427656 0.0078850186 -0.3363430311
-0.1583238385 0.0494135280 -0.3355373403
-0.0992642576 -0.0049525237 -0.4625128486
-0.0969032717 -0.0059805176 -0.4771486777
-0.1200748557 -0.0311123727 -0.4499056433
-0.1229511409 -0.0388572912 -0.4107822735
-0.1314278953 -0.0140943331 -0.4993585436
-0.1488569005 -0.0303152498 -0.3753325370
-0.1480849516 0.0590141474 -0.3582626822
-0.0848965279 -0.0269364372 -0.4662422328
-0.2150217878 0.0265983691 -0.3645677609
-0.1291089060 0.0202016126 -0.4821317983
-0.1518027533 -0.0106828762 -0.3739393065
-0.1064795164 0.0271086170 -0.3953014222
-0.1366291493 0.0095197717 -0.3388744295
-0.1033659920 0.0221333667 -0.4331303328
-0.1346040237 -0.0476861740 -0.4631928097
-0.1229694321 -0.0184440129 -0.3835663431
-0.1927920737 -0.0290988976 -0.4119308650
-0.0808955993 0.0047049286 -0.4006227340
-0.1029603314 0.0441980531 -0.4459198489
-0.0631593846 -0.0072961038 -0.4233730164
-0.1836659966 -0.0055282412 -0.3715825463
-0.1094144026 0.0340489817 -0.3981340150
-0.1450628558 0.0521170851 -0.3607516641
-0.1202881791 0.0195693937 -0.4849491712
-0.2192997427 0.0122414352 -0.3704457843
-0.2157597514 0.0006512719 -0.3756982878
-0.1908771359 -0.0232399697 -0.4121460479
-0.1282715400 -0.0377882877 -0.4274320524
-0.1116057875 -0.0044472965 -0.3711614030
-0.1948970330 0.0332911642 -0.3413530105
-0.1913549843 -0.0171351830 -0.4222024649
-0.2134103731 0.0075727122 -0.3597339089
-0.1266739874 0.0161144369 -0.4185085489
-0.1248289188 0.0271495431 -0.4306434737
-0.1070372555 -0.0049219967 -0.4874152093
-0.1875633324 0.0049720373 -0.4261478987
-0.1482257462 0.0267508271 -0.3308869313
-0.1797567962 -0.0078208230 -0.3668240296
-0.1594456772 -0.0165154250 -0.3710364859
-0.1157486331 0.0421744748 -0.4144351186
-0.1659960619 0.0385547778 -0.3262789246
-0.1384653825 0.0073687862 -0.3380237616
-0.1213159630 0.0251663160 -0.4232997260
-0.1019664137 0.0331230326 -0.4246381871
-0.0923786007 -0.0056213441 -0.3984735953
-0.2097091597 -0.0260670825 -0.4048723846
-0.1030550973 0.0186503430 -0.4592044901
-0.1996643923 0.0332335739 -0.3265027630
-0.2262970179 -0.0094344825 -0.3996332887
-0.1432527460 -0.0165351889 -0.3475839020
-0.0684454633 -0.0229776285 -0.4460922004
-0.1051531198 0.0273906591 -0.4796971598
-0.1306882830 0.0445975377 -0.3804776749
-0.1555057346 0.0333159036 -0.3852072911
-0.1738612650 -0.0351438205 -0.4255270993
-0.1719754285 0.0705819789 -0.3588950813
-0.1345842330 -0.0081958389 -0.3648019827
-0.1201534654 0.0144704963 -0.4795978469
-0.1522974521 0.0601851828 -0.3657868207
-0.1362426783 -0.0362985490 -0.3932038913
-0.1523376043 0.0338093482 -0.4735753362
-0.2035367683 0.0585339082 -0.4105380190
-0.1155559122 0.0229680038 -0.4198421587
-0.1560825362 0.0002102400 -0.3385509268
-0.0864644646 -0.0026443583 -0.3947874529
-0.2223647560 -0.0260067727 -0.3943733876
-0.1038020422 0.0194293862 -0.4007713532
-0.1334211236 -0.0385304750 -0.4203623513
-0.1054127997 -0.0329862875 -0.4147929468
-0.2199413190 0.0015035022 -0.3936761754
-0.1055419297 0.0298917229 -0.4105658782
-0.1778790137 0.0245851777 -0.4539013996
-0.1788365355 0.0247025750 -0.4261377545
-0.1055586947 0.0286263288 -0.4183057504
-0.1228017954 0.0478401937 -0.4241975221
-0.0618537851 0.0125125162 -0.4240798028
-0.1161266639 0.0472090569 -0.4500423176
-0.0738550365 0.0048642543 -0.4059542158
-0.1166933978 0.0462999251 -0.3953477606
-0.1248586439 -0.0197648218 -0.4192945092
-0.1653108549 0.0479442110 -0.4268033678
-0.1254027473 -0.0115270807 -0.3654030639
-0.1030423343 0.0409830697 -0.4245410264
-0.1981450941 0.0456054142 -0.3677841136
-0.1578839618 -0.0324461901 -0.3849978031
-0.1131276857 -0.0062059259 -0.3723157695
-0.2308386215 0.0158245600 -0.3907156041
-0.1418438440 0.0539233743 -0.4397192098
-0.0966094259 -0.0423038706 -0.4396367272
-0.0715406170 0.0216989990 -0.4116210538
-0.1075779387 0.0353081912 -0.4496942313
-0.1345701330 0.0374750277 -0.4693802798
-0.1836695315 -0.0092080594 -0.3466499077
-0.0823750250 0.0209223385 -0.4562279092
-0.1132572517 0.0419670992 -0.3874506637
-0.1721608722 0.0289916563 -0.3880756608
-0.1038255824 -0.0133079567 -0.3843619110
-0.1233929554 -0.0115494448 -0.3749952865
-0.1799653628 0.0560468064 -0.4075578867
-0.1260465423 0.0124074545 -0.4776947759
-0.1783875758 0.0373820379 -0.4382904783
-0.1293527958 0.0577476583 -0.3925075393
-0.1146438435 -0.0300037366 -0.4805782981
-0.1555010960 0.0504302554 -0.4130512861
-0.1170840197 -0.0212813850 -0.4885742606
-0.0858291596 0.0276204183 -0.4121332979
-0.1149333850 -0.0203661275 -0.4853376150
-0.1937280654 0.0395130693 -0.4139280320
-0.2218866474 0.0200948357 -0.3703176583
-0.1067966170 0.1863081356 -0.5670969756
-0.1037004739 0.0275539476 -0.4097571671
-0.1454693871 -0.0000367754 -0.3433311869
-0.2211672586 0.0231879053 -0.3755024521
-0.1120384704 -0.0225371663 -0.4586370555
-0.1400457280 -0.0047119873 -0.3548726607
-0.1615545310 0.1372210148 -0.6053823784
-0.1074332356 -0.0412330310 -0.4400544601
-0.1141740774 0.0102372199 -0.4284210529
-0.1287419848 -0.0310454976 -0.3931875090
-0.1889541753 0.0502242828 -0.3698645526
-0.1065678858 0.0349461609 -0.4344329419
-0.1498754307 0.0297025581 -0.4528192148
-0.1225968846 0.0444379501 -0.4423576051
-0.2048970861 0.0115234205 -0.3362215558
-0.1726245421 0.0234298430 -0.3279898476
-0.0940571813 -0.0273726074 -0.4596570154
-0.1093828310 -0.0003987684 -0.4790900760
-0.1811079555 0.0132819906 -0.4466181574
-0.1831136548 0.0587508455 -0.3650891404
-0.0994001022 0.0200203745 -0.4532304686
-0.1876044181 -0.0005644084 -0.3741673673
-0.0693840068 0.0109273433 -0.4073978912
-0.1619043251 0.0374285860 -0.4270094955
-0.1058075633 -0.0207970970 -0.4486773045
-0.1896251727 -0.0272495064 -0.3747026245
-0.2407505870 -0.0023168333 -0.4018670188
-0.1710309994 0.0460899500 -0.3801458039
-0.1508675863 0.0347090616 -0.3304831500
-0.2134949855 -0.0137271467 -0.3686141276
-0.2127715487 -0.0138058381 -0.4006754216
-0.2069530618 -0.0058853586 -0.3613995148
-0.1948294414 0.0151451711 -0.4305715779
-0.2193074023 0.0269924568 -0.3989461669
-0.2147043121 0.0068690267 -0.3585760764
-0.1788947816 -0.0065317250 -0.3423000284
-0.1553943020 -0.0181621127 -0.4844339741
-0.1209290098 0.0354820816 -0.4362353122
-0.1732705416 0.0218063396 -0.3324707874
-0.1886487430 0.0574674397 -0.3694017542
-0.1295378953 -0.0360129527 -0.3848539460
-0.0907860205 -0.0010432070 -0.3956138057
-0.1915545030 0.0409123170 -0.3578050151
-0.2033491072 -0.0265101601 -0.4077368116
-0.1303322239 -0.0440385123 -0.4381371122
-0.1677948000 0.0105610021 -0.3945830282
-0.1018173684 0.0078579428 -0.4582050633
-0.1869108243 -0.0310752790 -0.4216595871
-0.1586789640 0.0572697143 -0.3432533518
-0.1287410324 0.0045992294 -0.3452801003
-0.1516256775 0.0027497946 -0.3912562141
-0.1520849863 -0.0012416689 -0.3891005932
-0.1359587700 -0.0595821652 -0.4516601942
-0.1513521678 -0.0256972347 -0.3797189205
-0.1118687728 0.0393652024 -0.3850614288
-0.1535861335 -0.0397642200 -0.3903659264
-0.1587104349 0.0216475345 -0.3281129591
-0.1814565640 0.0256756266 -0.4418636618
-0.1228320752 -0.0058066590 -0.4910619517
-0.0981165363 0.0422882733 -0.4306048808
-0.1807093772 0.0485189297 -0.3859720562
-0.1580699678 0.0462490455 -0.3941958923
-0.1419267708 -0.0280476025 -0.3699578476
-0.1226867202 -0.0159348066 -0.3878533760
-0.1940098202 0.0021291777 -0.4365534210
-0.1944545935 0.0064680892 -0.3533729402
-0.1486414986 0.0272243672 -0.4489020693
-0.1456654374 0.0171455677 -0.4852771927
-0.1973626415 0.0441119226 -0.3271593246
-0.1658218503 0.0653547868 -0.3520839512
-0.1480035782 0.0504393019 -0.3453578055
-0.1661784396 0.0430251124 -0.3917249172
-0.1483069173 -0.0510557381 -0.4480052515
-0.0988308727 0.0451067322 -0.4000664967
-0.1509366955 0.0215366170 -0.3775788652
-0.1990964508 0.0128616520 -0.3533805809
-0.1656777217 0.0404123379 -0.4053891443
-0.1485807344 -0.0497738271 -0.4602629617
-0.1490963245 0.0239622915 -0.3964888243
-0.1253659036 -0.0197432348 -0.3719767645
-0.1433920233 0.0370688548 -0.3329891151
-0.1609486895 0.0336764159 -0.3273354252
-0.1880734461 -0.0060924860 -0.4196893158
-0.1267161429 -0.0144088801 -0.4876682587
-0.1485061774 0.0400445261 -0.4627003188
-0.0812123768 0.0021875307 -0.4002708434
-0.1495354843 0.0198919917 -0.4551062044
-0.1819825682 -0.0179724838 -0.4330165561
-0.0616950286 0.0063495879 -0.4191107809
-0.1000266548 -0.0195702189 -0.4524272873
-0.1042120917 0.0330739792 -0.3989311781
-0.1517580757 0.0614962995 -0.3628682047
-0.1232409301 -0.0108466842 -0.3680368771
-0.1435457571 0.0497464243 -0.4113535322
-0.1636552701 0.0057707266 -0.4503827787
-0.0905074124 0.0287788774 -0.4429435068
-0.0845193919 0.0508193410 -0.4285037047
-0.1523657157 -0.0380218692 -0.4410995081
-0.2359100096 0.0103505063 -0.4108067563
-0.1231889701 -0.0030361210 -0.3598213126
-0.1114895820 0.0425522544 -0.4626986955
-0.0876134136 -0.0202253089 -0.3908363513
-0.0851104939 -0.0155045483 -0.3962452695
-0.1125481760 0.0432143412 -0.4574597531
-0.1355442990 0.0518903457 -0.4056498284
-0.1284817687 -0.0464852099 -0.4208008499
-0.1323285179 0.0171097704 -0.3538677263
-0.1355034420 0.0489744968 -0.4042866284
-0.1553330534 -0.0146976076 -0.3878868698
-0.2256685910 0.0113352932 -0.3982270989
-0.1154083515 0.0378478266 -0.3797028244
-0.2200386838 0.0075653052 -0.3824710064
-0.1074060059 -0.0444776390 -0.4238653615
-0.1054561223 0.0496954969 -0.4380103047
-0.1830706215 0.0454319487 -0.3594948125
-0.1582779345 0.0294369632 -0.3936166726
-0.1177560993 0.0427811668 -0.3859296809
-0.1241699995 -0.0087449489 -0.4133386223
-0.0845119887 -0.0121683628 -0.3839269308
-0.1854936287 -0.0082302180 -0.3760489557
-0.1870980683 0.0078205637 -0.4248368775
-0.1124912370 -0.0267579656 -0.4701098185
-0.0886488865 0.0339320282 -0.4192182939
-0.0713587154 -0.0028493191 -0.4361391045
-0.0935329497 0.0213855151 -0.4021234214
-0.1599931181 -0.0054128508 -0.3842252578
-0.2354915824 -0.0103245502 -0.4048110566
-0.1183588721 0.0288421258 -0.3653427218
-0.2046704413 0.0444645942 -0.4108632424
-0.1661160466 0.0560248873 -0.3432978010
-0.2253973477 0.0146076811 -0.3902562573
-0.0795997148 0.0064927734 -0.4479248098
-0.1258205113 -0.0169687903 -0.3760044767
-0.1409174198 0.0269372921 -0.3398242427
-0.1265269584 -0.0430144067 -0.4535873341
-0.2034729696 0.0081343368 -0.3523838319
-0.0210353676 0.1021948855 -0.2154087803
-0.1211992300 0.0203234816 -0.4198817565
-0.0935677453 0.0468107026 -0.4417235762
-0.1415032941 -0.0169720771 -0.3599436452
-0.1460322078 -0.0234169914 -0.4666210219
-0.1038693413 0.0410007276 -0.4411992133
-0.1043192027 0.0527732008 -0.4337364331
-0.1976923128 0.0455006659 -0.4056371614
-0.0810059640 -0.0014623278 -0.3969955833
-0.1030279368 0.0096491883 -0.4709297009
-0.1330358323 -0.0150757209 -0.3786895703
-0.0933789940 0.0171694041 -0.4023475744
-0.1429086351 -0.0113198475 -0.3391747051
-0.2232220514 0.0166309295 -0.4145398274
-0.1028842143 -0.0372055629 -0.4496386506
-0.1439689966 0.0496012557 -0.3503003314
-0.1857042629 0.0838325316 -0.6184099568
-0.1231481289 0.0279156102 -0.3648826118
-0.1185500377 0.0418688212 -0.4646854268
-0.0937741370 0.0164250488 -0.3957337291
-0.1226976456 0.0322958781 -0.4666258706
-0.2085981408 0.0316307160 -0.4044228207
-0.0998758263 0.0222383024 -0.4571158700
-0.2160006222 0.0201327350 -0.3940859197
-0.1410850050 -0.0170445240 -0.3971485785
-0.1030000961 0.0235662105 -0.3990099379
-0.1658409402 0.0052145229 -0.3354345786
-0.0987475517 0.0273104250 -0.4100845608
-0.1435877538 -0.0199887992 -0.4071234198
-0.1455103614 0.0222762351 -0.3328566287
-0.1978887275 0.0450207924 -0.3812081168
-0.1405102045 0.0221221378 -0.4669185431
-0.1274220818 -0.0278335555 -0.3980913066
-0.1609560816 0.0243979469 -0.3275120534
-0.1580815196 0.0441220074 -0.4254872806
-0.1507656274 0.0144766718 -0.3312235710
-0.1280442071 0.0449860548 -0.4208926035
-0.1366202858 -0.0120633716 -0.4901759603
-0.1932452847 -0.0505721211 -0.4140076731
-0.1396642067 0.0537229256 -0.4153423692
-0.0986941685 0.0351962143 -0.3809619814
-0.1234212546 0.0369753514 -0.3727924536
-0.2139565595 0.0381443797 -0.4047151586
-0.1625748780 -0.0189933248 -0.4800732573
-0.1690870213 0.0468850941 -0.3932345439
-0.1411473196 0.0445058335 -0.3505481796
-0.2055437814 -0.0231987946 -0.3737161554
-0.1624059078 0.0163633994 -0.4565976859
-0.2141355477 0.0332764950 -0.4051573018
-0.1731971550 -0.0029858584 -0.4652956658
-0.1563232959 0.0225019136 -0.3284301288
-0.1284426633 0.0022455955 -0.3478137849
-0.1297806412 0.0571259649 -0.3887032852
-0.1195091628 0.0285969319 -0.3635539646
-0.1339934806 0.0272902641 -0.4167482224
-0.0700573622 -0.0101986952 -0.4337112365
-0.1883400553 0.0317405651 -0.3432438749
-0.1091969392 -0.0290991925 -0.4187331926
-0.0710682832 0.0039528090 -0.4583185721
-0.0641362555 0.0158397504 -0.4244747662
-0.2308117445 0.0052809410 -0.3832414052
-0.0750482589 0.0309501853 -0.4197794834
-0.0706346225 0.0049494498 -0.4062997167
-0.1616483298 -0.0197932294 -0.3558511856
-0.0757666267 0.0297067677 -0.4165730010
-0.2297503092 -0.0020695428 -0.3900459972
-0.0933218382 0.0321171519 -0.4324525972
-0.1087412050 -0.0300104725 -0.4082807977
-0.1876501942 0.0326588341 -0.3325445681
-0.1076719349 -0.0279449700 -0.4278723691
-0.1442608330 0.0317531976 -0.4453157900
-0.2100812872 0.0498330981 -0.3751702414
-0.0765179777 0.0303113696 -0.4305119332
-0.0629714549 0.0196248554 -0.4304255128
-0.1754808101 0.0043314572 -0.3443139044
-0.1872192656 0.0366376996 -0.3635038696
-0.1447527753 0.0439736625 -0.4238558474
-0.2046964492 -0.0400766256 -0.3919949325
-0.2317423329 -0.0050145818 -0.4097077858
-0.2006267209 0.0167215229 -0.3533888173
-0.2342673943 -0.0058673499 -0.3981556815
-0.0887034101 0.0019876304 -0.3949728825
-0.1259533368 -0.0316806060 -0.4756104672
-0.1319150118 0.0311806426 -0.3496112498
-0.2304003195 0.0026875360 -0.3719137707
-0.1887991996 0.0287542737 -0.3559610859
-0.1444085065 0.0162428333 -0.3268431853
-0.1468708804 0.0438364740 -0.3361069682
-0.1309447693 0.0299680870 -0.3505434881
-0.1507878651 0.0541047805 -0.3427817012
-0.0775370152 0.0150804084 -0.4097842000
-0.1407915925 0.0246398233 -0.3373842853
-0.1061768358 -0.0405193706 -0.4325016702
-0.1993418441 0.0211389574 -0.4292279464
-0.1100779021 -0.0257753032 -0.4822789496
-0.1157941175 0.0361798244 -0.4813369717
-0.0764364455 -0.0240933920 -0.3988555350
-0.2032271168 -0.0412889352 -0.3947901097
-0.1963970068 0.0236184255 -0.3311455250
-0.1554145660 -0.0351179199 -0.3871417765
-0.1635206068 0.0503654641 -0.3376125234
-0.1113765801 -0.0313670999 -0.4108900692
-0.1443371913 0.0401750246 -0.3953052436
-0.1134380079 -0.0051393020 -0.3705516872
-0.1401208171 0.0295381495 -0.4405910572
-0.1926649248 -0.0167869987 -0.3748695936
-0.1515423741 0.0163653139 -0.3772957144
-0.1519557010 0.0235309701 -0.3992506836
-0.1038682987 -0.0240206974 -0.3994726595
-0.1859473160 0.0691287166 -0.6225992648
-0.1289607799 0.0488302056 -0.3741585339
-0.1439689331 0.0542527689 -0.3828894291
-0.0831235181 -0.0203383126 -0.4405513008
-0.0980394617 -0.0146728076 -0.3755069942
-0.1405419449 -0.0384242653 -0.4040665345
-0.1436665049 0.0076803787 -0.4663997513
-0.1439570934 -0.0006972552 -0.3386539221
-0.1007684354 -0.0061264968 -0.3845213485
-0.1650500783 0.0307591556 -0.4527830651
-0.1035388349 0.0408317319 -0.4426126260
-0.1251470159 -0.0420634302 -0.4318507707
-0.1887786984 0.0552289523 -0.3657864034
-0.1563054859 -0.0159772572 -0.3906645606
-0.1362470239 0.0370455074 -0.3424692253
-0.1628866146 0.0454674053 -0.3324566881
-0.1960671490 0.0204471062 -0.3422609697
-0.1629967341 -0.0313992772 -0.4109966903
-0.1921124958 -0.0216563370 -0.3828492672
-0.1732229464 0.0331831924 -0.4509685759
-0.1498872730 0.0180665156 -0.4813671241
-0.1415557006 0.0281742904 -0.4447199837
-0.1505864719 0.0579319116 -0.3595848441
-0.1452899459 -0.0096060316 -0.3717370431
-0.2195103657 0.0238696313 -0.3686714187
-0.0949933400 0.0390979045 -0.4488081726
-0.0919133326 0.0445842402 -0.3940097287
-0.1079640235 0.0221085085 -0.3603872405
-0.1122003684 -0.0488720463 -0.4170890529
-0.1051200661 0.0202218850 -0.4226093650
-0.2208615347 0.0133646895 -0.3665870940
-0.1257064430 -0.0280062238 -0.4274395672
-0.0725520108 -0.0134739021 -0.4320864341
-0.1236442361 0.0465116704 -0.3848832727
-0.1277966181 0.0029169204 -0.4360963553
-0.1920913362 -0.0102167142 -0.3519522549
-0.1301192161 -0.0134729152 -0.3795446898
-0.1709298491 0.0658092275 -0.3652473986
-0.1759109024 0.0547099040 -0.3880690020
-0.1337990103 0.0126946625 -0.4764044553
-0.1223624674 -0.0177500596 -0.3733164330
-0.1258799483 -0.0317698243 -0.3968552356
-0.0883562185 0.0037984153 -0.3950881814
-0.2274983636 0.0203672223 -0.4062679355
-0.1083584510 0.0196446504 -0.3731575733
-0.1490818680 0.0437855159 -0.4001879684
-0.1062753930 -0.0369473152 -0.4028824844
-0.1130078830 0.0078306352 -0.4859409615
-0.0819205005 0.0108490590 -0.3953715248
-0.2251798917 0.0164204644 -0.3825700684
-0.1384817608 0.0236923821 -0.4353998949
-0.1409356797 0.0477644155 -0.4601648784
-0.0977700829 -0.0253292703 -0.4568835898
-0.1842245098 0.0574434631 -0.4035841164
-0.1910700602 0.0559399342 -0.3896018820
-0.1763312522 0.0079276221 -0.3414862121
-0.1078145101 -0.0279736759 -0.4516906688
-0.1415217221 0.0465420373 -0.3596668839
-0.0715281749 -0.0044214018 -0.4482173135
-0.0702539855 0.0283391023 -0.4254824304
-0.1302736659 0.0248487005 -0.3532192951
-0.0979722599 -0.0222868316 -0.4002581934
-0.0700827920 -0.0318824376 -0.4098760126
-0.1708533634 0.0412663139 -0.4298084853
-0.0911861131 0.0478734097 -0.4380720589
-0.2051155446 0.0357013609 -0.3708528738
-0.0956661874 0.0148818334 -0.3904916070
-0.1388225100 -0.0256220790 -0.3753890033
-0.2279255131 0.0008960043 -0.3873241115
-0.0731630009 0.0096138419 -0.4486968159
-0.1291422117 0.0372226804 -0.4149581703
-0.0856321201 0.0333508984 -0.4520353475
-0.1054427138 -0.0205805515 -0.4682898791
-0.1625305195 0.0621333065 -0.3672274594
-0.1637672113 -0.0139299110 -0.3552929453
-0.0914672200 0.0214276979 -0.4088138847
-0.1952980795 0.0363121404 -0.3705236812
-0.1115561848 -0.0005543143 -0.3704690032
-0.0909747614 -0.0075804728 -0.3937625341
-0.1185444377 -0.0400166864 -0.4376194637
-0.1911373592 0.0346213076 -0.4293403358
-0.0962052089 0.0275427651 -0.4099035918
-0.1644634467 -0.0295695150 -0.3752647266
-0.1060427546 -0.0162073091 -0.3871253096
-0.1838815253 0.0265334677 -0.3336751930
-0.1279333644 -0.0091270269 -0.3707415029
-0.1352537365 0.0461526460 -0.4512749710
-0.1231771640 -0.0366435342 -0.4789763317
-0.1671059959 -0.0378542802 -0.4356110110
-0.1858969919 -0.0377837742 -0.3879917193
-0.1886135124 -0.0097086632 -0.4228904026
-0.1836538871 0.0161767909 -0.3355626110
-0.1668639204 -0.0452587537 -0.4395983197
-0.1768256088 0.0097931355 -0.4536965874
-0.1895972167 0.0402648403 -0.3701888370
-0.1543954730 0.0455465927 -0.4412766366
-0.1809269412 0.0413013116 -0.4387558596
-0.1254133607 0.0306760973 -0.3557525259
-0.1523664563 -0.0018056195 -0.4804263152
-0.1831058832 -0.0365476627 -0.4316181921
-0.1716819820 0.0335303344 -0.4096519487
-0.0730285046 -0.0390758707 -0.4303910730
-0.1438558817 -0.0403650163 -0.4382627152
-0.0984567444 -0.0399045891 -0.4242897508
-0.1966411013 0.0976324608 -0.6228374138
-0.1065654607 -0.0232696568 -0.3909196949
-0.0899557553 -0.0403697478 -0.4051188341
-0.0983568952 -0.0298696189 -0.4526153586
-0.2150110462 0.0312130792 -0.3720510474
-0.1393131940 0.0267680624 -0.3375735870
-0.1478163659 -0.0065690531 -0.4758398077
-0.1891461593 0.0442743464 -0.3623116504
-0.1169897859 -0.0277415317 -0.3977514267
-0.1503241279 0.0015368089 -0.4814191572
-0.1225148546 0.0477277981 -0.4328327334
-0.1698959695 0.0412443247 -0.4075806728
-0.0704607676 -0.0329521199 -0.4388862987
-0.1154574925 0.0167755922 -0.4767840643
-0.1334056161 -0.0229621391 -0.3516313366
-0.1530083043 -0.0102610097 -0.3505244988
-0.1257042324 0.0317975705 -0.4510225016
-0.1556405096 0.0262102615 -0.4738208577
-0.2232469793 0.0209783423 -0.3949863047
-0.0985065185 0.0451661114 -0.4582113299
-0.1389363065 0.0122908048 -0.4763300129
-0.2226211847 0.0200284432 -0.4022541116
-0.0747347728 -0.0012895906 -0.4034251866
-0.1590576469 0.0405693996 -0.4353560739
-0.2070981575 0.0134944904 -0.3601684546
-0.1602909674 0.0241098880 -0.4613116423
-0.1744341852 0.0286526253 -0.4589960231
-0.1018556753 -0.0074712504 -0.3886499351
-0.1492295054 0.0562002654 -0.3699221643
-0.2256962926 -0.0218920518 -0.3926789833
-0.1974553495 0.0376976606 -0.3256003106
-0.1829527245 0.0507943204 -0.3237353561
-0.0688219190 -0.0245005181 -0.4261112253
-0.0920102575 0.0080593166 -0.4660287820
-0.1068441992 -0.0168192931 -0.4747840549
-0.2053175826 0.0375148809 -0.3998784962
-0.1641231311 -0.0340334841 -0.4164068425
-0.1194299700 -0.0463546115 -0.4664100060
-0.1238350646 -0.0320212257 -0.4565134515
-0.1196936174 -0.0335161049 -0.4436917291
-0.1013614826 0.0311055290 -0.4286477341
-0.1746776297 0.0172351390 -0.4557232353
-0.1656366801 0.0149225803 -0.3782379400
-0.1656609992 0.0173089067 -0.3854327698
-0.0983771475 0.0021091710 -0.3853417370
-0.1658213671 -0.0163998928 -0.3702597741
-0.1228296438 -0.0233327961 -0.3722305402
-0.1311934733 0.0193000790 -0.3432518222
-0.0714914186 0.0063110902 -0.4537200289
-0.2307081892 0.0023231232 -0.3804355217
-0.1392382302 0.0397147902 -0.3578737606
-0.0943845491 -0.0113735551 -0.4690539136
-0.1009798720 -0.0193845946 -0.3938614428
-0.1870919497 0.0000569825 -0.3649340491
-0.0731978358 0.0217715743 -0.4379547755
-0.1224719470 0.0302144701 -0.4432554515
-0.1243503511 0.0330099535 -0.3699514553
-0.1020707556 0.0278227508 -0.4304964513
-0.2005699782 0.0108884615 -0.4285531840
-0.1142971218 0.0439358735 -0.3897978143
-0.1772415361 -0.0061852528 -0.3560988362
-0.1831747353 -0.0263852329 -0.4312956793
-0.2297320072 0.0024490501 -0.3909756988
-0.1937176217 -0.0375698506 -0.3820925016
-0.1302509968 0.0112838542 -0.3480178635
-0.1699665430 0.0168904739 -0.3814818406
-0.1407619017 0.0217463285 -0.3372958514
-0.1461450818 0.0252854141 -0.4488161498
-0.0800029746 0.0172776711 -0.4092525272
-0.2209208731 0.0143126291 -0.3981410103
-0.1940447897 0.0432472202 -0.3576054073
-0.2169712026 0.0022129241 -0.3915304804
-0.1800990999 0.0632318184 -0.3808244169
-0.1420723927 -0.0230866386 -0.3672495401
-0.1929230964 0.0033121012 -0.3478499409
-0.1514008529 0.0499200635 -0.3379490525
-0.1748642923 0.0582833389 -0.4066989960
-0.1006091715 -0.0030278876 -0.3896839407
-0.1361266205 0.0255247769 -0.4844195113
-0.1359274640 0.0170417430 -0.4867166548
-0.1442419333 0.0030623541 -0.3432662267
-0.1702733787 0.0194920700 -0.3306729176
-0.2207713107 0.0222886896 -0.4204386851
-0.2074145086 -0.0127850482 -0.3627759409
-0.1306933983 -0.0025836891 -0.4185476823
-0.1868972679 0.0480822441 -0.3418017936
-0.1012627557 -0.0261021130 -0.4044397116
-0.1504064490 -0.0164953596 -0.3853477009
-0.1047057393 0.0248865436 -0.4209393717
-0.2220257431 0.0125220272 -0.3931550681
-0.0869208307 0.0095422075 -0.4591178848
-0.1164526662 -0.0237514698 -0.3774218444
-0.1671125504 0.0483394544 -0.3847465803
-0.1421531790 0.0250813794 -0.4733934972
-0.1258632733 0.0438258225 -0.4281151280
-0.0817133422 0.0172126454 -0.3966298444
-0.1842754535 -0.0002656228 -0.3300563669
-0.0721305416 -0.0034779261 -0.4524486782
-0.1421348192 0.0395673625 -0.4305202657
-0.0753543518 0.0302544640 -0.4401027228
-0.1234853467 0.0547106609 -0.3726482440
-0.1410334246 0.0469797884 -0.3776409028
-0.0715339464 -0.0073666800 -0.4229391073
-0.1685650201 0.0581345706 -0.3598039253
-0.1611109486 -0.0362113273 -0.3808538675
-0.0710256416 0.0078687684 -0.4065177561
-0.1546435792 -0.0109140379 -0.3728281018
-0.1247122540 0.0315171999 -0.4274851913
-0.0955653857 0.0389959358 -0.4210561384
-0.0896018386 0.0126319253 -0.4670476868
-0.1285606712 0.0293662481 -0.3635449682
-0.1639080340 0.0092200484 -0.3872759259
-0.1296654251 0.0461193257 -0.4257988313
-0.1273710285 -0.0511070702 -0.4101884876
-0.1534996881 0.0501305166 -0.3374807857
-0.1522977938 0.0160457929 -0.3261853644
-0.2020249487 -0.0030458605 -0.3724329431
-0.2333038873 -0.0000956745 -0.4016205783
-0.1671413267 -0.0277744086 -0.3953298671
-0.2002972405 -0.0030165801 -0.3461878126
-0.0984609488 0.0048096468 -0.3849859719
-0.1619761493 0.0271121589 -0.3221504058
-0.1280112813 -0.0263649261 -0.4020363565
-0.1066951268 0.0405078989 -0.4366983218
-0.0359813965 0.2059221556 -0.5230460459
-0.1602223666 0.0292907137 -0.3786179227
-0.1743418352 -0.0134818159 -0.3834459259
-0.1764916841 0.0137922127 -0.4560503330
-0.0987611407 0.0064545256 -0.4554721623
-0.1583960857 0.0192773784 -0.3286816425
-0.1114202611 0.0371987626 -0.4079550272
-0.2056556248 0.0402589878 -0.3787233635
-0.0981709622 -0.0130919309 -0.3841995433
-0.1115207323 -0.0418112140 -0.4099492754
-0.0779764321 0.0170187287 -0.4122520028
-0.1112334587 -0.0170363369 -0.4773204841
-0.1137438941 0.0192048571 -0.4348988008
-0.1400640940 -0.0139189698 -0.3649660928
-0.1110161065 0.0044773876 -0.3727080237
-0.0913412278 0.0270541987 -0.4097498323
-0.1173020858 0.0049504909 -0.4122305496
-0.1631424095 -0.0388127077 -0.4384813509
-0.1309135434 0.0022374157 -0.4869383215
-0.1503420770 0.0521633737 -0.3426360935
-0.1412642849 0.0246285254 -0.4941268058
-0.1407853019 0.0318555536 -0.3431715716
-0.1104525710 -0.0252807288 -0.4656473109
-0.1164918523 0.0402744407 -0.4712784418
-0.2080590610 -0.0183792404 -0.3687500390
-0.0955350301 -0.0108050956 -0.3848926181
-0.1260827027 0.0500006665 -0.3878351179
-0.1231049262 0.0019896912 -0.3548528477
-0.1791838270 0.0098741346 -0.3454101483
-0.2080209332 -0.0382910560 -0.3885727309
-0.2190073490 0.0109484599 -0.3982908587
-0.1161332652 0.0173485374 -0.3649744656
-0.1809681469 0.0537843729 -0.3360769217
-0.0989500373 -0.0023378963 -0.4583330460
-0.0891179307 0.0124098429 -0.4588957383
-0.1093757862 -0.0194420361 -0.3710539245
-0.1600432859 0.0099091550 -0.3955149997
-0.1212884759 0.0019593881 -0.3576361295
-0.1682948092 0.0551969602 -0.3830803484
-0.1210519296 0.0044721081 -0.3580198534
-0.0696422750 0.0241659535 -0.4403085416
-0.1448139217 0.0588905292 -0.3475525377
-0.1093461157 0.0313772203 -0.4047222303
-0.1458982194 0.0491723954 -0.3725035047
-0.1073554603 -0.0368784655 -0.4689864541
-0.1686048423 0.0527800762 -0.3407633175
-0.1414199393 0.0401938672 -0.3679828695
-0.1212411906 0.0073113743 -0.3574729247
-0.1616534572 -0.0081828361 -0.3373089946
-0.1803369145 0.0513164599 -0.3721642495
