-0.27342844 0.05368639 -0.42632052
-0.14429854 0.05080860 -0.38566121
-0.24396920 0.00219278 -0.46091649
-0.20379557 0.03830838 -0.36346182
-0.22358787 0.05283864 -0.43919113
-0.28554046 0.01397365 -0.43318373
-0.21453175 -0.00750702 -0.33637267
-0.14986263 -0.01612132 -0.46865606
-0.15738770 -0.03996772 -0.48023236
-0.09374175 0.14475946 -0.26371032
-0.24391735 -0.01212029 -0.37249947
-0.18264654 0.03424596 -0.46085632
-0.17219374 0.04346596 -0.38427347
-0.15164220 -0.03079878 -0.46995568
-0.27658856 -0.01951044 -0.36804107
-0.17820255 -0.00699038 -0.38457823
-0.27064598 0.02587261 -0.44074422
-0.28868583 -0.01029317 -0.42032084
-0.17688352 -0.01072337 -0.39502177
-0.29826772 -0.02265700 -0.41854161
-0.27999404 -0.03693545 -0.41391477
-0.30993074 -0.02601999 -0.40062198
-0.25396562 0.05575153 -0.37369239
-0.15812263 0.04778909 -0.43307880
-0.25243711 -0.01574633 -0.45946956
-0.14697911 0.01793531 -0.36735812
-0.21743590 -0.03482157 -0.42487490
-0.24330658 -0.03221875 -0.37099564
-0.28663909 -0.05093146 -0.43240678
-0.17388001 -0.02778527 -0.40991029
-0.25226313 0.02625862 -0.40550432
-0.17618500 0.01396932 -0.46976227
-0.24670696 -0.01342156 -0.37536103
-0.27239746 0.05546608 -0.40663880
-0.21117392 0.05007966 -0.44140217
-0.24926035 -0.03028879 -0.40393481
-0.14545733 0.05088693 -0.42551917
-0.14487609 -0.01224655 -0.42495620
-0.16534320 0.01752266 -0.36200565
-0.17699613 0.00325448 -0.46625122
-0.15930486 0.03179969 -0.36822072
-0.24678120 0.04225612 -0.36322090
-0.19101125 0.04475553 -0.38698873
-0.26269832 0.00745248 -0.44356948
-0.31280857 -0.03925403 -0.39671811
-0.24621405 0.00162211 -0.45884377
-0.16540974 0.03747707 -0.35465848
-0.20416625 -0.03573064 -0.40566063
-0.21484458 0.05539732 -0.43856463
-0.15950373 0.02190368 -0.47055411
-0.17659016 0.02956287 -0.46520936
-0.12679125 -0.00732045 -0.36780247
-0.19372897 0.03574073 -0.36389703
-0.27950594 0.02854091 -0.38249436
-0.27361187 -0.02078453 -0.35844427
-0.21207695 -0.00974192 -0.34677458
-0.27928668 -0.02018624 -0.37320322
-0.13018292 0.01441000 -0.36972216
-0.26590660 0.02358709 -0.42989880
-0.14763974 0.04283880 -0.44658604
-0.28333279 -0.01161366 -0.41669261
-0.24960613 -0.01646901 -0.45541197
-0.25424677 0.00527273 -0.44808167
-0.19807208 -0.01103004 -0.47284192
-0.13738401 0.02288640 -0.37277442
-0.14388421 -0.01559296 -0.44724500
-0.14615802 -0.02529310 -0.46718866
-0.17193231 0.19052325 -0.56386697
-0.16085315 -0.04214966 -0.46707600
-0.15423958 0.04507142 -0.37688309
-0.15940374 0.05824528 -0.42425218
-0.11835599 -0.00608060 -0.41591194
-0.29200768 -0.02771745 -0.38882479
-0.22555216 -0.01594441 -0.36962327
-0.20497857 -0.04891710 -0.44759578
-0.29801667 -0.02389876 -0.43107653
-0.30540940 -0.02824524 -0.44323406
-0.15119141 0.01508711 -0.36481640
-0.20877290 -0.02023682 -0.40203106
-0.28628191 0.04708190 -0.38631859
-0.17671157 0.02439936 -0.45143580
-0.18979803 0.06048103 -0.40307412
-0.25442174 -0.00056144 -0.33510917
-0.27700096 0.05066699 -0.38922945
-0.18216240 0.05625636 -0.42894328
-0.13091108 0.02247884 -0.43120494
-0.28164503 0.00467412 -0.44768316
-0.25631893 -0.03648084 -0.45449871
-0.10939585 0.00676813 -0.39170521
-0.25835425 -0.05888450 -0.44787315
-0.14305578 -0.01335478 -0.43215293
-0.30686378 -0.01340835 -0.44731438
-0.13370857 0.04179744 -0.37118888
-0.24024250 0.04533904 -0.38672575
-0.20651883 -0.02648732 -0.41353270
-0.20305103 0.05719430 -0.44116092
-0.28197277 -0.04779650 -0.42401344
-0.20250538 0.02487059 -0.44541773
-0.29978815 0.00351103 -0.40411782
-0.24096850 -0.02512855 -0.35962674
-0.24710569 0.02784140 -0.34999788
-0.20989376 0.06268700 -0.43344018
-0.24812944 -0.01471530 -0.46045244
-0.15366690 0.01377183 -0.46337184
-0.17541762 -0.02857983 -0.42646575
-0.13453615 -0.01198267 -0.45651135
-0.30740571 -0.01368621 -0.43075484
-0.13705888 -0.00915870 -0.46387017
-0.13649787 0.03525276 -0.38572246
-0.14085458 -0.01792352 -0.40304342
-0.18182565 0.02039911 -0.46571359
-0.14004233 -0.01089344 -0.41126156
-0.15948568 0.02824439 -0.46824157
-0.28825182 0.01645439 -0.43299508
-0.24298500 0.02107744 -0.42614910
-0.13193955 0.00513433 -0.48698387
-0.22911556 -0.03010578 -0.41413745
-0.21901585 -0.00657533 -0.35983834
-0.15581168 -0.01130081 -0.40612704
-0.17998996 -0.02675093 -0.42277688
-0.26228648 -0.04833588 -0.45198363
-0.13484088 0.02411519 -0.43312976
-0.24672225 0.03952526 -0.35983789
-0.18564712 0.01800011 -0.46479076
-0.29939964 -0.00107233 -0.41977036
-0.13567947 0.02893852 -0.42888522
-0.29744768 0.00813705 -0.45404255
-0.22892588 0.02441667 -0.35072893
-0.17342307 0.03591426 -0.45772645
-0.14061271 0.04866876 -0.38681027
-0.22781081 0.06125692 -0.44071949
-0.20108545 0.01068608 -0.45682469
-0.22844915 0.00064824 -0.35153604
-0.14881754 -0.00332500 -0.35273913
-0.22431388 -0.01839859 -0.44070256
-0.14635186 0.02743589 -0.43648335
-0.22851929 0.05267930 -0.40190813
-0.13242309 -0.01428040 -0.43527305
-0.25164825 -0.01734418 -0.38195929
-0.24392480 0.04466419 -0.37012228
-0.29842252 0.00219177 -0.42456123
-0.08833873 0.10941100 -0.24898769
-0.11231016 0.19963655 -0.39211446
-0.29057416 0.00711669 -0.43087739
-0.15033475 -0.03067428 -0.47891852
-0.16561595 -0.01392503 -0.35636950
-0.27376404 -0.05096125 -0.43200848
-0.13028076 0.02048899 -0.43228513
-0.19956483 -0.06461143 -0.48104349
-0.18316913 0.02976395 -0.45492849
-0.19911644 0.05862116 -0.42763534
-0.35369223 -0.00861706 -0.42550507
-0.29260001 0.01029061 -0.38113207
-0.26842082 -0.01874280 -0.37636355
-0.18966381 0.01148356 -0.46461776
-0.15768623 0.00291753 -0.36403701
-0.20710684 -0.00174168 -0.36207873
-0.25818795 0.04554299 -0.42827845
-0.18927220 -0.00477765 -0.37701494
-0.18188085 -0.03902992 -0.44475180
-0.19457762 0.03877605 -0.34887987
-0.14736719 -0.01632666 -0.47303030
-0.20409569 0.06161150 -0.38089424
-0.21371733 0.00948627 -0.46479881
-0.14868844 0.05144315 -0.44070238
-0.20620386 -0.05016458 -0.45238698
-0.18614073 0.04589378 -0.39621568
-0.15453056 0.00019606 -0.35878095
-0.20334372 0.06071996 -0.39772674
-0.14888406 0.04697401 -0.37856823
-0.29173711 0.02316308 -0.39376983
-0.29621208 -0.01296665 -0.39754346
-0.23918530 -0.03905098 -0.42549002
-0.15868692 0.05661590 -0.39205319
-0.27904454 0.00030337 -0.43773663
-0.25757858 -0.00939953 -0.35336882
-0.13472699 0.00298907 -0.45816678
-0.22270066 0.06360609 -0.44061992
-0.25199351 -0.03358199 -0.40941989
-0.14414915 0.02648446 -0.43904963
-0.21930008 0.05831101 -0.44092429
-0.19909818 0.02454061 -0.40907624
-0.14461465 -0.01672611 -0.45007041
-0.13056165 -0.01044443 -0.43227854
-0.19366616 0.00060051 -0.36338529
-0.17347267 -0.03386287 -0.38196221
-0.28444779 0.01196382 -0.39342946
-0.22636816 -0.01867256 -0.46455258
-0.16413906 0.06331128 -0.44149175
-0.16957697 0.04950578 -0.42525843
-0.27758241 0.03766143 -0.40436754
-0.17129372 0.01429078 -0.36103648
-0.18246701 0.01868395 -0.45362571
-0.19904466 -0.05053680 -0.45463479
-0.27997494 -0.01001653 -0.41360626
-0.17312129 0.05971785 -0.40481758
-0.14364615 -0.02480854 -0.42357889
-0.23314348 -0.01823007 -0.37834489
-0.17487313 0.00574789 -0.46429971
-0.12773576 0.03547433 -0.37837678
-0.27298132 -0.03020722 -0.37723562
-0.22828799 0.05967586 -0.42986512
-0.23510815 0.00192582 -0.45594716
-0.13698591 -0.01936843 -0.40165728
-0.20886585 -0.02284189 -0.40624699
-0.07839850 0.03230295 -0.17941512
-0.25743252 -0.02574183 -0.44210994
-0.24552363 -0.00501681 -0.44511163
-0.17448276 -0.00307982 -0.35687560
-0.22867064 -0.05239265 -0.44694909
-0.19843142 -0.04648383 -0.44966513
-0.20664096 -0.06493319 -0.46150941
-0.18873373 0.04692937 -0.39774185
-0.14767127 -0.00687595 -0.47007504
-0.26529932 0.04700764 -0.41478881
-0.24167714 -0.02936340 -0.40703455
-0.26313794 -0.02294703 -0.36465687
-0.14174387 0.01555967 -0.37013379
-0.15742184 -0.00731192 -0.36683884
-0.12240121 -0.02007699 -0.46826282
-0.15929097 0.05633784 -0.43397933
-0.16940795 0.03309136 -0.46025077
-0.21859249 -0.05707038 -0.45881072
-0.11509546 -0.00527782 -0.41325393
-0.26471284 0.03328901 -0.35063630
-0.22303745 -0.00850989 -0.37170425
-0.22993296 -0.00499841 -0.39503399
-0.27653366 -0.01400106 -0.43851131
-0.18589978 0.06109505 -0.44767317
-0.27118507 -0.04341972 -0.44254959
-0.28693140 0.03135867 -0.38308340
-0.13754466 0.02360054 -0.36261731
-0.23534499 -0.05910436 -0.45569858
0.00106324 0.07007086 -0.26772776
-0.14759934 -0.02909000 -0.47054750
-0.17305006 0.04276296 -0.44607687
-0.19032989 0.00294185 -0.45127901
-0.18683001 -0.01031673 -0.38997257
-0.16301486 -0.01392158 -0.40528676
-0.19878858 -0.02316305 -0.47168830
-0.26746377 0.05635228 -0.39135304
-0.18960036 -0.02898781 -0.37048209
-0.13040791 -0.01162711 -0.42064422
-0.23588715 -0.04243305 -0.43247789
-0.15324521 -0.00980443 -0.35942370
-0.17569555 0.01515734 -0.47908866
-0.26301283 0.01533540 -0.43985716
-0.14649472 -0.02067623 -0.46606079
-0.15201108 0.03691396 -0.42917609
-0.21745147 0.02415168 -0.44307184
-0.20319214 0.01607088 -0.46480399
-0.13189788 0.01797024 -0.43228087
-0.17130023 0.04289100 -0.43109190
-0.24331307 -0.03725136 -0.46262950
-0.27254269 0.03422587 -0.41881546
-0.19441119 -0.02684555 -0.47293329
-0.27304569 0.05494215 -0.39882758
-0.20159395 0.03697709 -0.36269683
-0.14961140 0.04448897 -0.37624425
-0.28877875 -0.02764012 -0.41339746
-0.15005566 -0.03375599 -0.42227337
-0.28172961 0.04803635 -0.39310163
-0.22066730 -0.03770208 -0.41715151
-0.27711102 0.04479558 -0.37721092
-0.24218054 0.02936642 -0.41658741
-0.27155820 -0.01712345 -0.36446893
-0.15440685 -0.03906084 -0.42988521
-0.27791756 0.04189265 -0.40547523
-0.13817130 -0.02615163 -0.43227023
-0.17543200 0.03016174 -0.44913411
-0.12950835 0.02521944 -0.36887792
-0.15354946 0.02553244 -0.36599553
-0.19496773 -0.02980178 -0.45378059
-0.29592299 -0.05060577 -0.42372686
-0.16055825 0.03131246 -0.45937669
-0.16292919 -0.02788349 -0.42537454
-0.27464929 0.05051531 -0.41064778
-0.15173681 0.04927504 -0.43438748
-0.14955436 -0.01832717 -0.36069036
-0.14080359 -0.02258523 -0.40608737
-0.18857346 -0.00692706 -0.34126699
-0.29388392 0.00116031 -0.39525065
-0.10781451 0.02876004 -0.38907808
-0.27982712 0.00384087 -0.35990691
-0.14892386 0.03648021 -0.42781708
-0.17207280 -0.03960822 -0.43470901
-0.10780256 0.02588950 -0.39077160
-0.11175419 0.01131191 -0.38440040
-0.14613122 0.05117913 -0.43043151
-0.23621823 -0.04100473 -0.46047264
-0.19293508 -0.04122019 -0.43890646
-0.20120512 0.05725171 -0.42543507
-0.18678164 -0.01931797 -0.36175370
-0.15250015 -0.03055617 -0.45870823
-0.20024574 0.05609281 -0.43519819
-0.26686209 -0.01117476 -0.43314177
-0.16621184 -0.03954548 -0.43008104
-0.13914913 0.05069160 -0.37551075
-0.16473362 0.06183980 -0.41989204
-0.20344460 0.06337138 -0.42867076
-0.13256611 0.00138158 -0.45651725
-0.20851482 0.04104559 -0.43848342
-0.26782733 0.00503035 -0.34780353
-0.20112918 0.02884781 -0.45712531
-0.23214763 0.05666820 -0.43575361
-0.22369334 0.00054344 -0.39340213
-0.24566044 -0.00098909 -0.45868191
-0.26791212 0.01713682 -0.43883306
-0.24971195 0.03790071 -0.41257653
-0.15617675 -0.00519957 -0.38944915
-0.20745188 0.05646739 -0.41001102
-0.11133580 0.03266302 -0.38403863
-0.16034698 0.06080228 -0.42966306
-0.21508956 0.04327717 -0.35710746
-0.11563402 -0.00363897 -0.39046642
-0.23384108 0.01669883 -0.41042373
-0.24638939 0.03510321 -0.35447302
-0.16001649 0.02239361 -0.36417919
-0.17914328 -0.03957175 -0.44177878
-0.21052638 0.05386344 -0.44145033
-0.19909640 0.00418595 -0.35118198
-0.18614279 -0.03041297 -0.42671418
-0.13089761 0.03640207 -0.37151483
-0.15003487 -0.02254400 -0.47236770
-0.19627057 0.01567603 -0.35593867
-0.21967119 0.01929565 -0.45375824
-0.26002222 0.05746689 -0.38943955
-0.22441286 0.02689323 -0.41436836
-0.29042816 -0.00274136 -0.44729257
-0.22307950 -0.02566663 -0.45996863
-0.27557170 -0.01775237 -0.36144739
-0.16194740 0.06154187 -0.39798093
-0.15010153 -0.03263446 -0.42575678
-0.24283135 0.03922567 -0.39959368
-0.23868604 -0.01220235 -0.37462038
-0.16792580 -0.03629938 -0.41522855
-0.17531994 -0.00899332 -0.37372956
-0.26267517 -0.01506350 -0.45307863
-0.20298058 0.05883120 -0.41705769
-0.14598335 -0.02780823 -0.42648083
-0.30565193 0.01519002 -0.43652067
-0.27235070 -0.04303323 -0.41966927
-0.13193080 0.01160747 -0.43182904
-0.19790655 0.02076339 -0.46775934
-0.24954647 0.02264349 -0.40328115
-0.19147347 0.04302099 -0.36470717
-0.29455152 -0.00185327 -0.42537111
-0.18226708 -0.05468862 -0.45756799
-0.17641188 -0.05234081 -0.46865147
-0.18201980 -0.02875372 -0.38140586
-0.19523446 0.04085413 -0.37007049
-0.16085419 0.05993821 -0.41202155
-0.25547162 -0.03416334 -0.45905453
-0.26234931 0.01821932 -0.44406226
-0.18583003 0.02691019 -0.45403528
-0.28952712 -0.00427943 -0.40645185
-0.18311895 -0.03658753 -0.44985390
-0.25462860 -0.03433133 -0.43152678
-0.29590857 0.00623402 -0.44153038
-0.28595832 0.05234478 -0.41146007
-0.17195348 0.00361763 -0.48496342
-0.18860929 -0.01972039 -0.40712637
-0.14014724 0.00628381 -0.42301172
-0.27116904 0.04286046 -0.40434977
-0.13057916 0.01605674 -0.43951219
-0.24223813 0.04194921 -0.34958476
-0.24966784 0.04649305 -0.36743635
-0.13432854 0.01073743 -0.45227098
-0.26848733 0.02521884 -0.44011101
-0.02351923 0.05545652 -0.24642685
-0.14489177 0.04367485 -0.36537936
-0.34304309 -0.00784896 -0.40693608
-0.14076160 0.04348987 -0.37908423
-0.19426547 -0.04747050 -0.45174631
-0.27637365 -0.02712586 -0.38956323
-0.29887834 0.00984386 -0.43166703
-0.27953422 0.01141697 -0.35603109
-0.28404832 -0.01804956 -0.39500961
-0.14413342 0.00135261 -0.46947107
-0.18318270 0.05897830 -0.44624501
-0.17000999 -0.02871054 -0.37239593
-0.14964446 0.00672450 -0.47100425
-0.29818326 0.00335135 -0.39504695
-0.26084340 -0.00941247 -0.35856494
-0.14944515 -0.00465309 -0.39965469
-0.15470913 0.01382942 -0.47016123
-0.26277700 -0.02808590 -0.39276633
-0.14867111 0.03345443 -0.43118209
-0.15684341 -0.00564635 -0.34817389
-0.30351740 -0.01945988 -0.42794675
-0.15481299 0.00275834 -0.47129971
-0.28373271 -0.01424607 -0.38877326
-0.28901550 0.01587822 -0.42480916
-0.17915702 0.04106380 -0.38673285
-0.24275976 0.01559512 -0.40864736
-0.15954280 0.04551794 -0.44359970
-0.11515089 0.01873124 -0.38057157
-0.13457048 0.04624453 -0.39932430
-0.18211029 -0.00811613 -0.38680238
-0.28848997 -0.00645879 -0.41316020
-0.26223245 -0.01756719 -0.36011964
-0.18025030 0.01279956 -0.47086212
-0.29660389 0.01035597 -0.44677398
-0.15380208 -0.00443093 -0.36140758
-0.15483546 -0.03412997 -0.45118779
-0.26802570 -0.01863507 -0.35696885
-0.22569135 0.03160276 -0.41190952
-0.30370492 -0.01549210 -0.42249623
-0.14029743 0.00519056 -0.40522623
-0.14529562 0.02158700 -0.45092586
-0.16886279 -0.04932042 -0.47567803
-0.28792706 0.01373527 -0.40308908
-0.14331114 0.05316531 -0.42155859
-0.26211241 0.05524241 -0.40224817
-0.28210956 -0.01222249 -0.42901781
-0.16400397 -0.05276937 -0.50399208
-0.17123893 0.02720197 -0.36448783
-0.16352862 -0.01056794 -0.39334199
-0.14555323 -0.01642888 -0.45359513
-0.19303659 -0.02502091 -0.36549699
-0.13240360 -0.01169551 -0.36152041
-0.13538057 0.00291474 -0.44235048
-0.18423295 -0.02337222 -0.47600529
-0.15021786 0.05166196 -0.42928708
-0.17573729 0.06158628 -0.40171739
-0.27603060 0.00544699 -0.44528857
-0.22273985 0.05745139 -0.39351976
-0.15096310 0.04196309 -0.36324057
-0.18745625 -0.00691318 -0.38257390
-0.17644659 -0.04793007 -0.45129511
-0.22913861 -0.06053401 -0.46050096
-0.17203693 -0.00702859 -0.34647131
-0.14046544 0.05577628 -0.39930609
-0.14156123 -0.00428938 -0.46099597
-0.19325417 -0.05223130 -0.45929229
-0.11754251 -0.00188674 -0.38377875
-0.27638394 -0.03428352 -0.38449979
-0.14356941 0.00657696 -0.46528324
-0.24231334 0.00308826 -0.34568116
-0.21510619 0.04257656 -0.43503144
-0.27829778 -0.03089520 -0.37249398
-0.15967417 0.01608481 -0.47272131
-0.11500590 -0.00027768 -0.38557708
-0.18654892 0.02590903 -0.46214437
-0.12652786 0.03354062 -0.40614566
-0.27620006 -0.05153665 -0.43225980
-0.14475662 0.05695315 -0.42113838
-0.13334815 -0.00258044 -0.36970928
-0.20636651 -0.03612157 -0.47114748
-0.29190135 0.00086139 -0.42216197
-0.15644233 -0.03487974 -0.43101597
-0.29598278 -0.04412929 -0.42938304
-0.23100975 -0.04000271 -0.42007610
-0.26631266 -0.01566838 -0.44926852
-0.22906679 0.03483139 -0.36966467
-0.24279666 0.04803462 -0.39059475
-0.13071838 0.01721883 -0.39487699
-0.29207578 -0.04924947 -0.44187242
-0.15729713 -0.03468188 -0.45798305
-0.20435193 -0.01613109 -0.39547032
-0.16309376 0.00031615 -0.37047654
-0.10401776 0.03007112 -0.39090666
-0.23457082 0.02076356 -0.33060932
-0.22595152 0.03349708 -0.36431056
-0.21221580 -0.05700537 -0.46159726
-0.17540272 0.02760703 -0.46523887
-0.17458372 0.00076574 -0.47063065
-0.28719860 -0.03092354 -0.41156682
-0.19291301 -0.02340701 -0.46963432
-0.28920639 0.00818376 -0.39947858
-0.19510977 0.06229557 -0.43654117
-0.11308443 -0.00444088 -0.40077761
-0.16821341 0.03407947 -0.36582723
-0.26467896 -0.04215247 -0.44725657
-0.12507883 -0.00436944 -0.42923898
-0.21094120 -0.00247171 -0.36155301
-0.21720731 0.03758263 -0.36748052
-0.15930927 0.00411872 -0.47512478
-0.14734295 0.01409675 -0.45813480
-0.23663147 0.02675553 -0.35089505
-0.21221772 0.03887955 -0.45041972
-0.28822637 0.02226395 -0.37794304
-0.17746687 0.04366991 -0.45225382
-0.27357996 -0.03292242 -0.43970752
-0.22467788 0.03161064 -0.41484189
-0.13630885 -0.01328217 -0.42391315
-0.25568607 -0.01373493 -0.35746896
-0.26399487 0.05778982 -0.39778027
-0.17218606 0.04849722 -0.42277476
-0.14218932 -0.00415591 -0.47471744
-0.13298789 0.01033517 -0.43462420
-0.13892639 0.04605796 -0.38125834
-0.15433751 -0.03413087 -0.47884026
-0.15383112 -0.00685109 -0.47190073
-0.14777428 0.02616600 -0.42873189
-0.17468648 -0.01974121 -0.39455196
-0.21679443 0.02869015 -0.45469999
-0.13712196 0.01138213 -0.35923961
-0.21774447 -0.03633808 -0.44409034
-0.20413509 -0.06011062 -0.46911952
-0.19453213 -0.03174695 -0.37903509
-0.17615657 -0.02539240 -0.47793028
-0.17020051 0.05519002 -0.42509690
-0.16024065 -0.00105898 -0.46472737
-0.26632240 -0.03656248 -0.40865359
-0.23617156 -0.01342132 -0.46322596
-0.17738633 0.05945103 -0.40423656
-0.29670468 -0.02909837 -0.41605034
-0.13318717 0.04928756 -0.39626104
-0.23107634 -0.01454225 -0.33943444
-0.24637344 0.04045626 -0.41402003
-0.28124350 0.05142380 -0.40505531
-0.18782911 -0.00429485 -0.45671162
-0.17804284 -0.02577594 -0.47590315
-0.15222929 0.05542594 -0.42543200
-0.22269458 0.03495788 -0.36754689
-0.15624186 0.06351686 -0.39848137
-0.08261102 -0.01445913 -0.39850074
-0.29541722 0.01275192 -0.42597491
-0.16859986 0.04173071 -0.35977170
-0.17437744 -0.00634821 -0.46389407
-0.26615381 -0.01549849 -0.35529891
-0.15593451 0.05011796 -0.38100296
-0.22367844 -0.03079843 -0.37323502
-0.14331433 0.00619842 -0.46059966
-0.19380622 -0.02892203 -0.37527791
-0.14591412 0.05550764 -0.39175802
-0.13721102 0.02970409 -0.42601031
-0.27465230 0.05788567 -0.41774049
-0.13096303 -0.01066851 -0.35997972
-0.21701305 -0.01201111 -0.33827716
-0.13304888 0.01096723 -0.42643297
-0.16860570 0.04041269 -0.44583541
-0.13876250 -0.01442796 -0.42112070
-0.19584657 0.02377599 -0.46336353
-0.21748056 0.03583933 -0.33869982
-0.17417118 -0.02190985 -0.47426629
-0.24535701 0.02763561 -0.40322605
-0.15674466 0.03536739 -0.45508760
-0.19407885 0.02284406 -0.35842124
-0.13345608 -0.01707187 -0.36924744
-0.20099606 -0.03583144 -0.39646617
-0.24898297 0.05001405 -0.35449725
-0.21437675 0.03961631 -0.36748910
-0.23739652 -0.00473721 -0.35743666
-0.25060546 -0.01661235 -0.34461495
-0.16370289 0.05691292 -0.44517457
-0.21922867 0.05086313 -0.44216380
-0.12780133 0.02057951 -0.39631617
-0.16369209 -0.04568820 -0.47160012
-0.24332355 0.03796669 -0.39470962
-0.21637422 -0.05191354 -0.44802028
-0.29710555 0.00433366 -0.40255228
-0.26909763 0.02194230 -0.33871162
-0.28367078 0.00487614 -0.37279290
-0.14958581 0.04454494 -0.44247103
-0.29435974 0.03151377 -0.41465509
-0.27167436 -0.01265824 -0.38086143
-0.27776554 -0.03516600 -0.43947411
-0.16846944 -0.03545795 -0.39838800
-0.15539816 -0.00397323 -0.34819233
-0.23427495 0.02701033 -0.39303923
-0.16468270 -0.00387463 -0.47538131
-0.14643070 -0.00238019 -0.36269113
-0.15011708 0.05964959 -0.40788627
-0.11640012 0.01508419 -0.38047865
-0.20198470 0.02885121 -0.44597375
-0.13559225 -0.00886671 -0.44581538
-0.16240701 0.00840236 -0.36243564
-0.15315358 -0.01215839 -0.47115335
-0.17336772 0.02125275 -0.47001398
-0.27908900 -0.05529060 -0.43616956
-0.27712235 -0.05789831 -0.44172585
-0.27444920 -0.05486109 -0.44518623
-0.13098121 0.01388269 -0.40457898
-0.25156501 -0.05262946 -0.44029802
-0.23966527 0.02920543 -0.40103462
-0.30385795 -0.02094916 -0.45112553
-0.14822784 -0.03166344 -0.38985094
-0.23610103 0.05128480 -0.44800538
-0.15035605 -0.00665844 -0.41279146
-0.14465931 0.00397996 -0.35927641
-0.14778343 0.04546264 -0.44087949
-0.19081083 -0.03080266 -0.39011040
-0.21439663 -0.03808041 -0.41374230
-0.08730192 0.02483031 -0.40826866
-0.21858683 0.04875343 -0.44345295
-0.28768280 0.01802989 -0.41750529
-0.17945544 0.04839144 -0.39638156
-0.16023776 -0.00741351 -0.36717936
-0.22724560 0.02947029 -0.42458823
-0.28759214 -0.01595585 -0.40305346
-0.12837328 -0.00982695 -0.49196169
-0.19445571 0.04657367 -0.38188770
-0.25037003 0.02695560 -0.34794915
-0.03886564 0.06075939 -0.21180008
-0.14904332 0.00704747 -0.35829529
-0.12224072 0.03158339 -0.37608749
-0.29017079 -0.00190420 -0.39607742
-0.17456301 0.00357112 -0.48059088
-0.25146782 0.00445135 -0.34500971
-0.17407116 0.03677978 -0.34981540
-0.25717124 0.03592370 -0.41958970
-0.14836350 0.02868575 -0.44269064
-0.19196874 0.03725442 -0.40839374
-0.17305551 0.01182142 -0.47765815
-0.30392873 -0.01793811 -0.43963969
-0.14869493 0.06076109 -0.40253589
-0.17559057 -0.00965232 -0.36962798
-0.20049687 0.02494714 -0.46389198
-0.13533174 -0.01216199 -0.44731772
-0.15413766 -0.03734679 -0.41516864
-0.19458242 0.00122909 -0.45938545
-0.14270918 0.03971710 -0.42414626
-0.14016052 -0.01257143 -0.39265800
-0.22593999 0.02678178 -0.35232234
-0.29349518 0.00466629 -0.38759091
-0.07438853 0.03010959 -0.18994343
-0.14059731 0.01199129 -0.37700027
-0.18905774 -0.05230614 -0.46057254
-0.21693839 0.00798869 -0.46853828
-0.24330243 0.01695406 -0.43393162
-0.16284537 -0.04055597 -0.43182978
-0.13031694 -0.01797816 -0.37419730
-0.25476095 -0.00668410 -0.35470006
-0.14050594 0.04502789 -0.37072051
-0.17871815 0.00155496 -0.46445772
-0.20661888 -0.02168267 -0.40460882
-0.16234535 0.05882069 -0.41863722
-0.29102504 -0.01853923 -0.37808135
-0.23141071 0.01899545 -0.34885123
-0.23428771 0.03376254 -0.35976642
-0.14050557 0.02328340 -0.42549685
-0.11399119 0.01828733 -0.38294804
-0.29901832 -0.04726540 -0.43259716
-0.14871147 -0.00439586 -0.41656199
-0.18625662 -0.00001769 -0.35374451
-0.19621404 -0.04115139 -0.43971527
-0.16196880 0.05891106 -0.39591858
-0.20936960 0.02893052 -0.35638964
-0.26300484 0.06032662 -0.40285808
-0.17362253 -0.03604615 -0.43896863
-0.24493784 -0.02002366 -0.43216461
-0.02645478 0.06232163 -0.23575303
-0.20726354 0.05995970 -0.44414395
-0.26140541 0.05523899 -0.36791620
-0.29519576 0.00201895 -0.45015481
-0.20020187 0.02622221 -0.35776520
-0.10567527 0.02532982 -0.39420816
-0.24574047 -0.01905482 -0.36582589
-0.30263937 -0.00189357 -0.45209962
-0.14567992 0.02539271 -0.35336083
-0.16474876 0.02334502 -0.45240667
-0.28365123 -0.04608729 -0.43702212
-0.14855228 0.05929687 -0.38774028
-0.18189493 -0.02893348 -0.42545962
-0.28612214 0.02318014 -0.36516559
-0.18897216 -0.01391555 -0.39666229
-0.29018706 -0.00432922 -0.42551884
-0.28941822 -0.01796106 -0.42590758
-0.15942022 0.02515950 -0.36530200
-0.17348458 -0.03952847 -0.41325104
-0.27404773 -0.01828015 -0.36722901
-0.28246707 0.02571253 -0.35292521
-0.28105944 -0.02554548 -0.41866460
-0.28607824 -0.02626203 -0.38070267
-0.21161702 0.05717686 -0.45326078
-0.27165884 0.03972074 -0.35893691
-0.19525361 0.06162707 -0.40102071
-0.14695376 -0.03195904 -0.41961989
-0.30042452 0.00276685 -0.44722629
-0.22709058 -0.00475531 -0.35835677
-0.12993035 -0.01960231 -0.38196415
-0.17196520 0.01846174 -0.46664259
-0.14373519 0.03212586 -0.43043917
-0.28558606 0.05285971 -0.41618779
-0.20618027 -0.05195191 -0.45515108
-0.29065913 -0.03336317 -0.39402592
-0.15693921 -0.03742321 -0.47792190
-0.17360774 -0.00662686 -0.34389034
-0.27538350 0.01549196 -0.43082991
-0.14047402 -0.00610721 -0.43516561
-0.16683264 -0.03939688 -0.45042419
-0.22883886 -0.06254654 -0.46552208
-0.21074940 0.01419718 -0.45527866
-0.16521196 -0.03864525 -0.41470739
-0.14300667 0.04301605 -0.42390999
-0.17634273 0.05486679 -0.40070480
-0.23166436 -0.02546231 -0.40477949
-0.14312544 0.05827584 -0.39409310
-0.19324452 0.00046938 -0.47029176
-0.28006285 0.02169769 -0.35091740
-0.20049219 0.04428846 -0.45462173
-0.24376659 -0.05071330 -0.44038001
-0.18839240 0.03151104 -0.46126294
-0.15496434 0.00015735 -0.46757135
-0.16741821 -0.04274745 -0.38632730
-0.12088567 -0.00584205 -0.42247656
-0.16030250 0.06698918 -0.44223264
-0.24764371 0.04951951 -0.38531503
-0.23845409 0.01565633 -0.45080402
-0.24367374 -0.04378333 -0.43161353
-0.28686437 0.02840186 -0.38133091
-0.27487060 -0.02382271 -0.42038733
-0.10380484 0.02936453 -0.40049556
-0.17312373 -0.01438879 -0.34973109
-0.21353182 -0.00318174 -0.36164448
-0.28572884 0.02663023 -0.35818160
-0.27747363 -0.03355304 -0.40142557
-0.12987003 0.03874554 -0.40025583
-0.28304297 -0.04346405 -0.42849693
-0.27909446 0.01543306 -0.34538528
-0.14302604 -0.00290279 -0.46811023
-0.28409183 -0.02188261 -0.43136904
-0.19320202 0.05308870 -0.42360762
-0.16695142 0.06263544 -0.43365836
-0.28298259 -0.03999047 -0.42596218
-0.28346002 -0.04015195 -0.42874497
-0.28936672 -0.02180506 -0.40284002
-0.28663829 -0.00939209 -0.41424447
-0.15349336 0.00287444 -0.37235081
-0.31321898 -0.04216913 -0.40027973
-0.27051863 0.04900425 -0.41185835
-0.28582758 -0.03426360 -0.39634347
-0.19903404 -0.00351775 -0.46889800
-0.23570596 -0.02028533 -0.37274694
-0.24370036 0.01334818 -0.34552410
-0.23792051 -0.02553346 -0.45815691
-0.27639851 0.03818537 -0.41499197
-0.22822431 0.01544464 -0.34633106
-0.26142713 0.02228917 -0.44196215
-0.20281392 0.01344121 -0.45700458
-0.16601221 0.02462499 -0.46551743
-0.19008438 -0.04257142 -0.44526589
-0.14615515 0.02916183 -0.44752574
-0.17122675 0.05612237 -0.42042896
-0.10942690 0.01858686 -0.38989735
-0.16788937 -0.01339008 -0.39647129
-0.21637949 0.01303682 -0.34955233
-0.23372042 -0.03399090 -0.46336496
-0.17489673 -0.01454392 -0.47208184
-0.14319119 0.02207730 -0.37118593
-0.21553335 -0.01228862 -0.46792197
-0.24128173 0.02620949 -0.39351395
-0.27419633 -0.01349986 -0.43669510
-0.15797237 0.06130347 -0.42929110
-0.15515576 -0.03504217 -0.48265466
-0.30759344 -0.01320275 -0.43463740
-0.19577803 0.00645126 -0.35639125
-0.20366557 0.05399382 -0.41277188
-0.17032069 0.04204495 -0.44775230
-0.25161502 0.03210159 -0.41252929
-0.22514090 -0.01635936 -0.39080673
-0.29451194 -0.01673581 -0.40209639
-0.27119410 -0.03675424 -0.44179848
-0.22323190 0.05473069 -0.41204712
-0.20325156 -0.05064375 -0.44126132
-0.25323218 0.05051439 -0.37505579
-0.12646148 0.01863652 -0.43074656
-0.21390039 0.06495752 -0.44236588
-0.25400370 0.04888415 -0.42674893
-0.14283687 0.02947161 -0.44346163
-0.29019022 0.01280176 -0.40589401
-0.17194460 -0.04299464 -0.44385520
-0.10749548 0.19596037 -0.36612511
-0.29345161 0.01010532 -0.42778414
-0.29173285 -0.00538274 -0.41702643
-0.18904787 -0.04489912 -0.42853072
-0.24288227 -0.01373413 -0.35954902
-0.11586212 -0.00742485 -0.41240180
-0.23158644 0.03873142 -0.37690061
-0.16518085 0.00542386 -0.36463976
-0.13481516 0.03266126 -0.37338793
-0.24837914 0.02380327 -0.40807357
-0.23130098 -0.05091304 -0.44397533
-0.29791734 -0.03154971 -0.42477325
-0.18378578 0.01867308 -0.44899333
-0.16945131 -0.03313507 -0.39362535
-0.18669915 0.00326064 -0.34443995
-0.14099985 -0.00072281 -0.43472761
-0.26548633 -0.05666832 -0.45464700
-0.26592416 -0.04597894 -0.44880715
-0.15093617 0.00278301 -0.37751183
-0.29674760 -0.00330832 -0.38483989
-0.16271320 -0.04145829 -0.44797760
-0.29054546 -0.04835153 -0.44381672
-0.16626021 -0.04712726 -0.47520497
-0.16260178 -0.03425334 -0.39131835
-0.19519038 -0.00747099 -0.35722193
-0.20669159 -0.00656570 -0.37489203
-0.12810750 0.02425575 -0.41254455
-0.27961937 0.01985492 -0.39812401
-0.15574612 -0.00827447 -0.34629840
-0.27512795 -0.01543104 -0.36188340
-0.20922649 0.01802081 -0.45272005
-0.13460477 -0.01900599 -0.42270076
-0.24516349 0.00167327 -0.44158629
-0.28322661 -0.02598099 -0.38420182
-0.28754243 0.05404016 -0.43018085
-0.14979619 -0.03341331 -0.40380609
-0.15898278 0.06834911 -0.44540191
-0.15589526 -0.03444627 -0.46553081
-0.16757837 0.00308328 -0.35710809
-0.18195349 -0.00639195 -0.37350461
-0.15245451 -0.00152178 -0.38402128
-0.27926767 -0.03198090 -0.40302143
-0.18839401 0.01631294 -0.35811517
-0.15797608 0.05930712 -0.43781015
-0.29636204 0.00977110 -0.44168857
-0.30289787 -0.00518471 -0.45032132
-0.14928773 0.01974485 -0.35521930
-0.23107384 0.02145667 -0.45410269
-0.26707438 0.04678511 -0.39604640
-0.27039209 -0.01780779 -0.36852080
-0.15730970 0.00677333 -0.36495069
-0.25662622 0.05461626 -0.42126298
-0.14028585 0.03155703 -0.43070531
-0.15923175 0.02000581 -0.46352604
-0.23043123 -0.03551664 -0.46526006
-0.15003714 0.06302202 -0.39171734
-0.21371193 -0.01971777 -0.46870622
-0.16571793 -0.00262478 -0.46690896
-0.28722602 0.00622641 -0.43146300
-0.30671003 -0.01603053 -0.42978755
-0.14152676 0.21657422 -0.46144688
-0.26994258 0.02908113 -0.43766111
-0.14058033 0.02928253 -0.43988404
-0.28932866 0.00037785 -0.37654600
-0.12392851 -0.00670421 -0.43006784
-0.29755899 0.00810382 -0.44475892
-0.14645764 -0.00859810 -0.42316449
-0.29573077 0.01190764 -0.43727171
-0.16549127 0.05889095 -0.41949266
-0.22865057 0.05982076 -0.43378067
-0.22854266 -0.02518390 -0.47073767
-0.28476495 0.04533400 -0.40390587
-0.27640104 0.03883718 -0.36293763
-0.17950015 -0.01617713 -0.40412217
-0.22442229 -0.00904197 -0.35354996
-0.28752974 -0.00533698 -0.36755273
-0.21912019 0.02274601 -0.35158592
-0.14503917 0.03930975 -0.36136165
-0.17280713 0.01949665 -0.46216235
-0.27892837 -0.04869585 -0.43866494
-0.21545868 -0.06049561 -0.46619809
-0.25872362 0.05646136 -0.41408578
-0.16270784 0.05300847 -0.43705815
-0.29875705 0.00093774 -0.41370246
-0.25746781 0.01444818 -0.34379458
-0.20888031 -0.01604710 -0.37644255
-0.24252342 0.00727880 -0.39834255
-0.17513953 0.03987382 -0.43681550
-0.18110731 -0.02052762 -0.41165212
-0.27282816 -0.03134461 -0.39253232
-0.26737130 -0.03934462 -0.41403309
-0.16298908 0.05929890 -0.42972451
-0.24031174 0.05065723 -0.40790817
-0.23734550 -0.03385714 -0.41766730
-0.18671651 -0.00657975 -0.47598478
-0.20940185 0.02006558 -0.45635709
-0.26995349 0.05441386 -0.38952348
-0.28370109 -0.01477927 -0.42716011
-0.15382394 0.06671925 -0.40504354
-0.27623168 -0.01614806 -0.43677801
-0.30417949 -0.02613667 -0.43991888
-0.29863113 -0.03240959 -0.40551305
-0.16937634 -0.00234180 -0.37721962
-0.20768142 -0.02796769 -0.45152822
-0.16232792 0.04834423 -0.43632418
-0.15485799 -0.00121011 -0.37836987
-0.29642811 -0.01913674 -0.41001567
-0.14497451 0.01605639 -0.45496276
-0.34689227 -0.00550255 -0.41636047
-0.14667371 0.05739594 -0.40472671
-0.16155854 0.03552167 -0.45827180
-0.20868401 0.06452680 -0.43248716
-0.24783203 0.04941267 -0.41147652
-0.17057173 0.02479008 -0.45270109
-0.26722792 0.02635487 -0.33848548
-0.15540895 0.01983832 -0.46821174
-0.28738207 0.05891300 -0.41738659
-0.19866070 -0.03883480 -0.41561908
-0.20263195 0.02406042 -0.44297159
-0.29711947 -0.02746843 -0.41935310
-0.27909902 0.02374024 -0.38637668
-0.20875776 -0.00819181 -0.37729633
-0.11962686 0.22011667 -0.36056739
-0.21974014 0.03532740 -0.34769338
-0.23643915 -0.00463087 -0.46174249
-0.29521507 -0.04421475 -0.43842572
-0.25081545 0.04016957 -0.40990463
-0.24490027 0.01958148 -0.40344092
-0.16711672 0.05109690 -0.38773230
-0.19548829 0.03419950 -0.45816693
-0.13382308 0.00378497 -0.36187071
-0.17652540 0.01738671 -0.47487271
-0.28608865 0.01526510 -0.38041246
-0.14610253 -0.01155783 -0.38997006
-0.16316333 -0.03238831 -0.38575354
-0.15740606 0.06767312 -0.44769767
-0.17943974 -0.02217518 -0.44660172
-0.13303569 0.03054272 -0.38874722
-0.22857308 -0.01478070 -0.34079745
-0.25403717 0.05376117 -0.39057770
-0.28723106 0.00382272 -0.36397582
-0.14819673 0.03844192 -0.43845326
-0.14620642 -0.01443463 -0.35641912
-0.25582907 -0.02438709 -0.43234646
-0.18710451 0.04100206 -0.37828889
-0.23126496 -0.01466081 -0.38291156
-0.21607691 0.02488774 -0.35335422
-0.20338461 0.01056818 -0.46538141
-0.03233415 0.06723476 -0.21027280
-0.28671855 -0.02359798 -0.40623859
-0.29487258 0.00980577 -0.41881514
-0.21944407 0.03551453 -0.44087255
-0.14566201 -0.00354898 -0.42412412
-0.21971655 -0.02769264 -0.47194648
-0.16089168 -0.03604410 -0.40098217
-0.14518450 -0.03030376 -0.48112038
-0.18256012 -0.01558785 -0.35458970
-0.18993063 0.03770814 -0.40897948
-0.15805802 -0.01014554 -0.34356818
-0.12669750 -0.00429070 -0.44001645
-0.25444645 -0.05689688 -0.44490397
-0.29475266 -0.02792846 -0.40724319
-0.26235491 0.05580135 -0.37693292
-0.21189788 -0.02981149 -0.41727155
-0.28497434 -0.02427444 -0.41363755
-0.17589803 0.01687992 -0.45469421
-0.14003751 0.05051962 -0.41531461
-0.16323489 -0.02186262 -0.47348380
-0.13519856 0.03920894 -0.37322143
-0.08366571 0.12499143 -0.28773090
-0.16474129 -0.03978000 -0.45047447
-0.19607568 0.05629797 -0.43700135
-0.27682960 0.01175703 -0.34621608
-0.30116722 0.02842834 -0.43915144
-0.19315688 0.06390425 -0.40381649
-0.28447282 0.01761810 -0.40052658
-0.19275393 0.01242230 -0.41009974
-0.21114661 -0.00444446 -0.45451581
-0.20109232 0.06329187 -0.42696315
-0.25269586 -0.00673289 -0.45407853
-0.27321094 0.01340856 -0.34264505
-0.18855995 -0.02706706 -0.42025188
-0.21087316 -0.03538563 -0.39767745
-0.26429409 -0.02615067 -0.37326002
-0.22053799 0.02027040 -0.45728016
-0.28792748 -0.05354344 -0.43785024
-0.25238952 0.04256632 -0.41990373
-0.29785529 -0.02994543 -0.43295464
-0.18011424 -0.03604400 -0.41502246
-0.18855843 0.01724645 -0.46558005
-0.19044949 -0.02745685 -0.36733517
-0.21738639 -0.03001572 -0.44877422
-0.26021278 0.04120860 -0.42234159
-0.29177767 0.00659449 -0.45042345
-0.18389715 0.03955183 -0.38528821
-0.27108037 -0.00609870 -0.37060156
-0.22669226 -0.03314696 -0.37597769
-0.18703564 0.00342708 -0.47783428
-0.12474570 0.02071035 -0.41416585
-0.27618766 -0.02454794 -0.36632285
-0.21354537 -0.02387208 -0.40774745
-0.14636354 0.02400550 -0.42892870
-0.29784572 -0.04827734 -0.43597707
-0.22916795 0.03670044 -0.37386966
-0.16643378 0.02938186 -0.46477160
-0.20975605 0.01266425 -0.46377507
-0.29402506 0.00504951 -0.37686962
-0.15450366 0.00997075 -0.46046290
-0.26058614 -0.03190561 -0.44799283
-0.25736547 0.04802924 -0.41025218
-0.27378651 -0.05005317 -0.44143233
-0.17153025 0.03991672 -0.37618971
-0.18835324 -0.01073149 -0.47497416
-0.17818564 0.03333500 -0.44623724
-0.15372668 0.05646991 -0.44372368
-0.22654042 0.00405283 -0.46003494
-0.21269682 0.00572339 -0.46726495
-0.26626971 -0.01983082 -0.36905265
-0.18546647 0.00011015 -0.46512249
-0.28710699 0.02592525 -0.37992567
-0.15164493 0.02460636 -0.36401942
-0.21288589 -0.03114305 -0.44955099
-0.29049611 -0.00111990 -0.42422333
-0.12811744 -0.01240059 -0.36364606
-0.12509787 -0.00751014 -0.50284284
-0.12194735 -0.00796302 -0.37119675
-0.24465616 0.02743958 -0.35025719
-0.17066333 0.00407824 -0.47647542
-0.13401601 0.03566896 -0.37443438
-0.13932021 -0.01395042 -0.47081530
-0.13551563 0.02668297 -0.42955020
-0.13831159 -0.00533800 -0.43945998
-0.14073148 0.02072948 -0.36336043
-0.19921032 0.01228305 -0.45805857
-0.28938803 0.00676243 -0.44658831
-0.14994913 -0.01161879 -0.35597414
-0.22903235 -0.01249169 -0.36306107
-0.25153911 -0.02156237 -0.46095932
-0.20005272 0.05681052 -0.43116173
-0.16289678 0.06093635 -0.40304700
-0.30266702 -0.00208374 -0.39561978
-0.13522696 0.00184181 -0.36757866
-0.17871174 -0.03916736 -0.41909868
-0.22861689 -0.03110105 -0.41607746
-0.18635844 0.02506414 -0.46749362
-0.13492061 0.01307724 -0.39295381
-0.24426608 0.02016299 -0.44954488
-0.13146996 0.04019950 -0.40435013
-0.13162994 -0.00009946 -0.44807550
-0.29793444 -0.02943823 -0.42710528
-0.12717265 0.02282889 -0.39849493
-0.20071122 -0.00441316 -0.36304125
-0.19320163 -0.02423611 -0.47515211
-0.24645194 -0.06266449 -0.45957601
-0.27728254 0.00032458 -0.37386638
-0.30229566 0.00173741 -0.44282675
-0.29582217 0.00372640 -0.41401294
-0.27686271 -0.02228991 -0.36603653
-0.26400551 -0.01399421 -0.44472674
-0.15904592 0.06483387 -0.44032466
-0.16999462 0.00850143 -0.36056104
-0.09024429 0.02054239 -0.40652868
-0.28180942 0.03562646 -0.37053934
-0.29393134 -0.01575968 -0.45008343
-0.29355168 -0.02446914 -0.44179535
-0.27266318 -0.01433892 -0.43902296
-0.16073216 -0.03945737 -0.44825393
-0.15823199 -0.02064031 -0.46516770
-0.15125363 0.05410070 -0.44005033
-0.13738611 0.04187642 -0.41223782
-0.24654178 -0.00325001 -0.45616153
-0.29738116 0.00141690 -0.40181354
-0.13668573 -0.01131547 -0.35288402
-0.14158432 -0.01413626 -0.44997901
-0.14890340 -0.00754621 -0.35166124
-0.19588505 0.02044974 -0.41569027
-0.15995002 -0.01616813 -0.35815468
-0.16216226 0.01350091 -0.36144602
-0.18543500 -0.01222997 -0.46728694
-0.23987521 -0.02326673 -0.35777932
-0.16998060 0.03384386 -0.46505946
-0.21737754 0.00924063 -0.34147811
-0.16106904 -0.00433432 -0.38359028
-0.17464237 0.04560946 -0.38911963
-0.22550219 -0.00314858 -0.38786247
-0.19261515 0.01112655 -0.46747842
-0.12996934 0.01554229 -0.36501551
-0.13342685 0.00912492 -0.44228286
-0.15513419 0.05913069 -0.42051402
-0.16284798 0.05383137 -0.38793039
-0.28564286 0.00924494 -0.42674947
-0.25015956 0.05086603 -0.35812658
-0.14831844 -0.03254315 -0.48192245
-0.23987269 0.04144935 -0.37463301
-0.29476616 0.01225744 -0.42976084
-0.26838833 0.05641037 -0.38104033
-0.14833078 0.05118234 -0.43214235
-0.18129455 -0.00713793 -0.37959215
-0.23414730 0.04501829 -0.38831833
-0.12525024 0.02170907 -0.39566416
-0.14440376 0.04158053 -0.43050662
-0.23130687 0.02651098 -0.43138739
-0.16130880 -0.04088245 -0.46387184
-0.28798929 0.02280500 -0.40636164
-0.27459806 -0.04357194 -0.44304568
-0.13614698 -0.02241039 -0.37527838
-0.28654748 -0.04488712 -0.43588009
-0.18183033 0.00527960 -0.46363071
-0.28027096 0.04854148 -0.40621552
-0.14830402 0.05795596 -0.39705697
-0.28484279 0.02147700 -0.36934134
-0.28707856 -0.03532414 -0.40903780
-0.18531799 0.02189378 -0.40039837
-0.26477617 -0.00724114 -0.35309553
-0.15083267 -0.00610707 -0.46426761
-0.20953754 -0.03660109 -0.42971456
-0.24556634 0.03910241 -0.40799519
-0.22711870 0.01859767 -0.46022296
-0.14019828 0.00407231 -0.36363533
-0.14693335 0.04703621 -0.37949932
-0.10607555 0.00826913 -0.38675132
-0.23323123 -0.00698844 -0.33042929
-0.28762695 0.01979162 -0.42159700
-0.17689317 -0.02754992 -0.45813704
-0.15888973 0.03263191 -0.46117082
-0.28584042 0.01211500 -0.44130453
-0.22898299 -0.05892582 -0.45745277
-0.26991615 -0.01162856 -0.38478279
-0.13801259 0.02713398 -0.41839340
-0.26973650 -0.05777793 -0.44697952
-0.13503189 0.00428275 -0.45494178
-0.17229609 0.03352555 -0.36697915
-0.15722638 0.06300754 -0.39355236
-0.15656942 0.03506617 -0.43220112
-0.29522645 -0.02771027 -0.43806344
-0.19567767 -0.03625860 -0.39711839
-0.30242014 0.01212729 -0.41878086
-0.17494857 -0.05084506 -0.47393572
-0.14355780 0.03917319 -0.37191403
-0.20324866 -0.00027845 -0.46891588
-0.14439693 -0.01041139 -0.35101685
-0.14701237 0.05405720 -0.38932499
-0.12435155 0.03739626 -0.37458423
-0.11329256 0.03632597 -0.38437575
-0.14933228 -0.02277772 -0.45097357
-0.19738366 -0.03476338 -0.39709750
-0.19675869 0.02686103 -0.46549559
-0.19418013 -0.04708941 -0.37572241
-0.15654537 0.03836812 -0.43189698
-0.08654565 0.14935279 -0.31330270
-0.20260371 0.01368969 -0.35370606
-0.29837182 0.00049971 -0.39569622
-0.28552693 0.03317755 -0.38249445
-0.17632030 -0.01230063 -0.35638183
-0.29599994 -0.00852860 -0.39303011
-0.29343778 0.00535444 -0.39481974
-0.25012687 -0.03374069 -0.38407168
-0.28209785 0.00107174 -0.43436262
-0.15508871 0.00224622 -0.34583807
-0.20182540 0.06277695 -0.41528359
-0.13667089 -0.02068468 -0.43247545
-0.16976421 0.04021347 -0.45608810
-0.18698274 0.05499575 -0.42613092
-0.15715121 -0.03679126 -0.46569905
-0.14080694 0.05203273 -0.40754825
-0.27613294 0.04974534 -0.39093718
-0.11503214 0.20645091 -0.38588411
-0.16928674 -0.04137992 -0.38681522
-0.27934113 0.02099350 -0.34682265
-0.25461537 -0.02346606 -0.45685419
-0.19747394 -0.04913056 -0.44222447
-0.26441786 -0.00836150 -0.44634545
-0.15321559 0.00181675 -0.36407042
-0.12576592 -0.00989431 -0.42129901
-0.17337158 0.00638241 -0.40237442
-0.18927646 0.04227568 -0.38468698
-0.28233051 0.00090653 -0.43890643
-0.17709143 -0.00039739 -0.36963257
-0.30092087 -0.00324582 -0.40742898
-0.27441445 -0.03073232 -0.43881917
-0.26725757 -0.05199444 -0.43555534
-0.28333890 -0.01804216 -0.40024635
-0.26666266 0.00245619 -0.34633628
-0.20091410 -0.00630040 -0.45322311
-0.28581154 -0.02768831 -0.41445181
-0.13280480 0.02645148 -0.42893034
-0.17247795 -0.04322990 -0.44672200
-0.25604099 -0.02567352 -0.45514932
-0.27867228 0.04535632 -0.41092321
-0.12647800 0.03449460 -0.36923161
-0.28353164 0.00439121 -0.35501605
-0.19370112 0.02728797 -0.44010222
-0.27729806 0.05116443 -0.39840385
-0.24617569 -0.00375158 -0.33755946
-0.26035315 0.02793159 -0.43827450
-0.17959511 0.05078074 -0.39951468
-0.16425216 0.06065779 -0.45589989
-0.17455183 -0.02249713 -0.36504474
-0.18043792 -0.02325098 -0.47734490
-0.27412930 0.03646755 -0.40881929
-0.27722934 0.04470460 -0.39083296
-0.15230821 -0.00179979 -0.36306757
-0.22680160 -0.03639532 -0.46946010
-0.26032141 -0.02202365 -0.45292625
-0.18394771 0.00209036 -0.48305577
-0.26622453 -0.04223327 -0.41994813
-0.27826959 -0.02604116 -0.43730769
-0.25331074 -0.01812808 -0.38298953
-0.21982282 0.01918956 -0.44949761
-0.28114888 -0.05235432 -0.43187293
-0.24251616 0.00842719 -0.45172226
-0.14423007 0.04510247 -0.43714195
-0.29729182 0.00995730 -0.43390328
-0.27723491 0.00938574 -0.44708723
-0.21034019 -0.03523232 -0.39425510
-0.15054461 0.06088243 -0.39573276
-0.18031180 0.00158347 -0.47901815
-0.25357220 0.03824582 -0.42199615
-0.08894076 0.15474480 -0.30160928
-0.15098591 0.02215449 -0.45541033
-0.27648327 -0.01258667 -0.38932744
-0.27844381 -0.01658840 -0.43540597
-0.15714011 -0.01679812 -0.47284555
-0.19362508 0.00687607 -0.35689151
-0.27473021 0.02471477 -0.43846691
-0.29882097 -0.02996924 -0.42923138
-0.18339983 -0.00633681 -0.47340992
-0.15305713 -0.03739709 -0.41930109
-0.29366487 0.01876570 -0.43785644
-0.14212964 0.00827173 -0.37979960
-0.20101812 0.06464282 -0.39365739
-0.26920772 0.02749470 -0.43971306
-0.19906172 -0.06259979 -0.47882423
-0.16458921 0.05888407 -0.44124675
-0.26714769 0.05604881 -0.38336921
-0.28412294 0.04515333 -0.40759254
-0.26623347 0.04018939 -0.41974008
-0.26348075 0.05293638 -0.42630085
-0.21098474 -0.03713179 -0.44558272
-0.20087309 0.06315443 -0.39899784
-0.14709996 0.01014350 -0.36964563
-0.19821498 -0.06445540 -0.48269877
-0.19108245 -0.00476930 -0.37434149
-0.22456756 0.05408392 -0.39544261
-0.20793077 0.02716100 -0.44305763
-0.24377885 -0.00932970 -0.33750373
-0.29230565 -0.01389898 -0.38254681
-0.23180079 0.04062249 -0.38068596
-0.23601955 -0.00608158 -0.44259650
-0.14689434 0.05425010 -0.42566240
-0.16908067 -0.02104891 -0.47522703
-0.20228411 0.00044927 -0.45295995
-0.11045856 -0.00356456 -0.39225623
-0.25188339 0.05065421 -0.37821093
-0.26388898 0.05461251 -0.39737520
-0.17811553 -0.03495499 -0.39364892
-0.25071189 -0.02038982 -0.36351672
-0.20608144 0.06299052 -0.43423593
-0.22198589 0.05543516 -0.43225282
-0.17800242 -0.01580663 -0.35693616
-0.21890923 -0.05127842 -0.42965817
-0.18255818 -0.01575685 -0.47514075
-0.13573213 0.00552188 -0.43876243
-0.24597743 -0.00621060 -0.44268483
-0.16689599 -0.00648701 -0.38743046
-0.16887967 -0.01195701 -0.34763443
-0.20458233 0.05865317 -0.42473927
-0.26311684 0.05778996 -0.39530316
-0.14770082 -0.02627869 -0.36943653
-0.22520965 0.03457911 -0.36820689
-0.14592665 0.02974335 -0.36820728
-0.16797604 0.02863445 -0.45186573
-0.18170196 0.01365612 -0.35850227
-0.21307980 -0.01265790 -0.34585202
-0.21681227 -0.00828882 -0.34963340
-0.22609043 0.05365992 -0.42141080
-0.27007991 -0.02182515 -0.44092780
-0.13897151 0.00658500 -0.39769518
-0.28756028 -0.02353237 -0.41503790
-0.26623437 -0.02329495 -0.36597428
-0.19137184 -0.04424740 -0.44728965
-0.28419730 0.02407399 -0.42163610
-0.28687295 0.02483544 -0.38629419
-0.27575117 0.00093335 -0.44034517
-0.13913518 0.02582413 -0.37328407
-0.23147100 0.03356891 -0.36295366
-0.19068068 -0.00427397 -0.47000840
-0.17389417 0.03805295 -0.43059480
-0.32009751 -0.03521485 -0.39563555
-0.29486045 0.01135768 -0.42328012
-0.26901919 0.01423100 -0.44803625
-0.13225389 -0.01782815 -0.41802025
-0.18150938 0.06016704 -0.39793804
-0.22617877 0.02751859 -0.39109021
-0.24091579 -0.03052767 -0.35939085
-0.20904216 -0.03890602 -0.43367571
-0.25616899 -0.06154665 -0.45325369
-0.25972682 -0.03802276 -0.44937950
-0.15600778 0.01612112 -0.47311631
-0.13235839 0.03598795 -0.38592952
-0.24354741 0.03674937 -0.35775173
-0.16148427 -0.00534094 -0.34380385
-0.14799367 -0.03529987 -0.48801437
-0.25528464 -0.03707442 -0.38994569
-0.26006883 -0.01460316 -0.35833132
-0.20746167 -0.05316655 -0.44335049
-0.29925409 0.00152258 -0.40865749
-0.19626260 -0.00544385 -0.46924692
-0.15158549 0.03726045 -0.37073162
-0.14177887 0.02800584 -0.37007272
-0.28353667 0.00364082 -0.43582153
-0.15478884 -0.03671777 -0.46304554
-0.23227340 0.00153181 -0.34938768
-0.13665530 0.02253577 -0.37766239
-0.24220158 0.02777119 -0.35050264
-0.15667902 0.06514245 -0.44100353
-0.28997698 0.00404134 -0.44423920
-0.19429770 -0.00702696 -0.38023353
-0.12628928 0.04324555 -0.39287406
-0.11302020 0.00313335 -0.41020843
-0.29452631 -0.00907806 -0.39122558
-0.19478457 -0.04484257 -0.43644869
-0.24433947 0.00008240 -0.34691074
-0.15191166 0.01835366 -0.35604748
-0.29957411 0.00582554 -0.44406283
-0.17893913 -0.03158650 -0.40446454
-0.28152150 -0.02878345 -0.43653986
-0.13495389 0.04315797 -0.40897968
-0.14358395 -0.01661199 -0.45189261
-0.13418002 -0.00214951 -0.44409448
-0.22401133 -0.01180422 -0.37894487
-0.29106268 0.00972584 -0.40179449
-0.18661219 0.03728345 -0.41175526
-0.25031155 -0.01998932 -0.45902252
-0.17672811 0.02244713 -0.44799256
-0.11348120 0.01377530 -0.38449299
-0.25267345 0.01285257 -0.45127845
-0.13632762 0.02754272 -0.37788689
-0.14367154 0.00806971 -0.37752369
-0.15398702 -0.00681578 -0.46324596
-0.15869814 0.03690247 -0.44360560
-0.19166943 0.03761319 -0.36764622
-0.14645971 0.02209445 -0.45357144
-0.14476547 0.02400268 -0.35487413
-0.28938979 0.01510205 -0.40381607
-0.13453928 0.03257914 -0.41399547
-0.16702709 -0.01496068 -0.39521426
-0.14675400 -0.00833340 -0.36054260
-0.17620489 -0.00822102 -0.40209645
-0.22493009 -0.03086828 -0.41688424
-0.24632084 -0.03718670 -0.39946598
-0.26055148 -0.01833676 -0.45569378
-0.13526058 0.02588681 -0.43586913
-0.18215939 -0.00471540 -0.47658315
-0.16463989 0.05552991 -0.43209723
-0.23595546 -0.03491549 -0.42035833
-0.24315867 -0.06271835 -0.46129602
-0.23082049 -0.02861244 -0.35802069
-0.18439104 -0.04607361 -0.43484917
-0.14812434 0.04003938 -0.36466831
-0.25689575 0.05828764 -0.37596893
-0.24706830 0.03726672 -0.35670924
-0.30049914 0.00166758 -0.41072544
-0.19551867 0.05448967 -0.42678797
-0.02920066 0.06352884 -0.22855978
-0.23974901 -0.02074175 -0.36056343
-0.30446360 -0.04044081 -0.43793181
-0.20480670 0.05791210 -0.44969961
-0.20273095 -0.01527216 -0.47425050
-0.25742054 0.05235894 -0.37534779
-0.13493226 0.03275193 -0.38606453
-0.20570496 0.05205581 -0.42976248
-0.27894950 0.03101689 -0.38759202
-0.16238286 0.04379844 -0.43216676
-0.22531007 -0.00863540 -0.38718936
-0.14382643 0.02012049 -0.36317554
-0.14317854 0.02543238 -0.43637365
-0.23607305 0.00461457 -0.45749903
-0.14322259 0.03557913 -0.37213793
-0.15746504 0.05365629 -0.37947053
-0.16531835 0.02003465 -0.46921057
-0.18930966 -0.00601655 -0.37999329
-0.24752985 -0.00119593 -0.46022213
-0.17855838 0.02516997 -0.42040634
-0.20389956 -0.03016445 -0.41900235
-0.17136741 -0.01609735 -0.46304700
-0.21515845 0.06436424 -0.43316239
-0.17583734 -0.01571060 -0.45936534
-0.18930121 0.02466508 -0.46447518
-0.19768025 0.03932091 -0.36607087
