0.0423255970 -0.0539945659 -0.4893558350
-0.0709516526 0.0043900325 -0.4865935712
0.0166842023 -0.0056341473 -0.4542216045
0.0287298450 -0.0643332574 -0.4701802518
-0.0725888947 -0.0351206780 -0.5374223927
-0.0784155080 -0.0227425073 -0.5312578110
0.0542434643 -0.0520532727 -0.4763505828
-0.0084791716 -0.0660167718 -0.4809357287
-0.0261506892 0.0016473217 -0.4714870581
-0.0001122098 0.0374172974 -0.5093709606
-0.0968737742 -0.0019887914 -0.5268608005
-0.0185635004 -0.0340040266 -0.4491185462
-0.0210554673 -0.0524445855 -0.4701046739
-0.0484779711 -0.0150035166 -0.4641253488
-0.0553289836 -0.0568791451 -0.4660422938
-0.0312861148 0.0117047989 -0.4795990330
-0.0282585341 -0.0240012656 -0.4495548193
0.0486563799 0.0089151826 -0.5438201565
0.0451284146 -0.0538586929 -0.4549658535
0.0006738339 -0.0082579634 -0.5143984760
0.0050688893 -0.0387177298 -0.5125450353
0.0607891310 -0.0382639900 -0.4874155652
0.0165771357 -0.0031264785 -0.4563972188
-0.0193303334 -0.0349586903 -0.5325603550
-0.0709514404 0.0121350851 -0.4917208499
0.0196500835 -0.0030641140 -0.4589577113
0.0582074977 -0.0393847840 -0.4668878052
0.0144483633 0.0118953616 -0.4669313437
-0.0508192018 -0.0226826232 -0.4593546901
-0.0349122345 0.0276715404 -0.4849329902
0.0018244022 0.0169802212 -0.4765634813
-0.0056601965 -0.0641083167 -0.5179765328
0.0301766556 -0.0361227941 -0.4489366015
-0.0507126953 -0.0212851213 -0.4594051379
0.0165994333 -0.0135666127 -0.4451253738
0.0134598799 -0.0606328265 -0.4712457716
-0.0276985312 0.0342619657 -0.4746378587
0.0463935244 0.0017265292 -0.4802536142
-0.0104426607 0.0400533665 -0.4970172371
0.0010908844 -0.0211881775 -0.4445105755
-0.0791881947 -0.0513243396 -0.4800584758
-0.0148595283 0.0292219091 -0.4889164865
-0.0491741810 -0.0729938865 -0.4916534468
-0.0051455125 0.0353255912 -0.4647688441
-0.0110506026 -0.0082749926 -0.4610827439
-0.0004966595 0.0141596024 -0.4722606898
-0.0226924026 0.0290236877 -0.5291525573
-0.0400109669 0.0186733520 -0.4869929391
0.0546302988 0.0167589922 -0.4865186754
-0.0633169295 -0.0081507238 -0.4745407813
-0.0011482882 -0.0584497571 -0.4679064639
-0.0412419686 -0.0106971140 -0.5081058926
-0.0258774969 -0.0326620462 -0.4474461076
-0.0262833457 0.0293640898 -0.4915026803
0.0413463790 -0.0818613517 -0.4870311114
-0.0308873202 -0.0137032056 -0.4601870092
-0.0899533209 -0.0492743191 -0.5056116110
-0.0385440676 0.0290752509 -0.4941829010
0.0216407319 0.0401850776 -0.4617822240
0.0042558261 -0.0712693193 -0.4843152635
0.0168110355 -0.0679506166 -0.4796184866
-0.0405236010 -0.0311950900 -0.4521939706
0.0068171326 -0.0569678543 -0.4745378657
-0.0313925677 -0.0113321625 -0.5264889158
0.0319097137 -0.0656630034 -0.4896132546
0.0666259426 0.0013546800 -0.4830363758
-0.0280954038 -0.0259454798 -0.5139491648
0.0638054438 -0.0102192552 -0.5011611937
0.0101994002 0.0411716787 -0.4933275432
0.0313973166 0.0394546874 -0.4900120497
0.0164495937 0.0222691491 -0.4762983082
-0.0863777146 -0.0327764556 -0.4728595239
0.0565627711 -0.0161997168 -0.4717298549
-0.0767001638 -0.0171241296 -0.4773126868
0.0070780624 0.0340796421 -0.4865656522
-0.0111093617 -0.0750278267 -0.4896084093
0.0395313893 0.0320906303 -0.5244715272
0.0307740144 0.0346131312 -0.4786023768
0.0342765641 -0.0606619629 -0.4678407187
0.0131026806 -0.0168395243 -0.4981826930
-0.0062845281 -0.0635070617 -0.4769826207
-0.0432041061 -0.0326812574 -0.4516436160
0.0391626637 -0.0308949346 -0.4491848666
0.0065407680 -0.0031945030 -0.4570591515
0.0370149203 -0.0306036497 -0.4466955066
0.0445760212 -0.0602764034 -0.4601083866
0.0754393995 -0.0279873119 -0.4528426161
0.0317380939 -0.0707301172 -0.4722960527
-0.0175995143 0.0386542740 -0.4941094291
-0.0581660811 0.0116803462 -0.4870459256
-0.0636602771 -0.0501653044 -0.4759946181
-0.0734095598 -0.0167768957 -0.5033601547
-0.0407830093 0.0140603583 -0.4842970224
-0.0606997392 -0.0253091035 -0.4586385884
-0.0116597699 0.0410716992 -0.5138490776
0.0624699779 -0.0115086893 -0.4723464847
0.0159930282 -0.0531259204 -0.4628490290
-0.0057822114 0.0364923644 -0.4926177438
-0.0411044358 -0.0486574424 -0.5169646682
0.0323543141 -0.0323457341 -0.4426506773
-0.0892419810 -0.0226425513 -0.4889107502
-0.0552346653 -0.0543020778 -0.4627197324
0.0581491783 0.0311456679 -0.5088102944
-0.0542456286 -0.0234945375 -0.5141294207
-0.0828083289 -0.0472765576 -0.4806863458
-0.0056393753 0.0393769485 -0.4968742284
0.0121389948 -0.0635224847 -0.4739095155
-0.0281991244 -0.0085130433 -0.4663823024
-0.0056950790 0.0350615809 -0.4942080478
0.0491213268 -0.0507380592 -0.4553019210
0.0322891187 0.0317059232 -0.4836562053
-0.0367538362 -0.0360313638 -0.5142206047
0.0237688820 0.0025248162 -0.4593779151
-0.0585018153 -0.0330641001 -0.4547603879
-0.0747993843 -0.0448936474 -0.4547889225
0.0176038210 -0.0471308810 -0.4725428284
-0.0033700248 -0.0030590530 -0.4613260672
-0.0154100758 -0.0079303509 -0.5510740933
-0.0556274396 0.0172199420 -0.4910564773
0.0335883371 -0.0170166100 -0.5275937368
0.0117857587 -0.0558492130 -0.4662713949
0.0060536423 0.0247912953 -0.4813722862
-0.0110880470 -0.0307753510 -0.4425085834
0.0341953206 -0.0134445063 -0.4471799158
-0.0032843669 -0.0402353193 -0.4480777120
0.0232286498 0.0098472780 -0.5306729458
0.0574535717 -0.0056184313 -0.4679897018
-0.0602015428 -0.0260681388 -0.4574172628
-0.0355773418 -0.0076272043 -0.4667628144
-0.0559835918 -0.0001490638 -0.4793547541
0.0522053291 -0.0176516841 -0.4610723257
-0.0645647560 0.0071105430 -0.5507319655
-0.0552764511 0.0371953942 -0.4922593067
-0.0508068629 0.0269039130 -0.4971771401
0.0117646347 0.0096498296 -0.4666010938
0.0200164115 -0.0020812473 -0.4491386420
-0.0514044088 -0.0176121359 -0.5037592353
-0.0230365822 0.0219013574 -0.4847251086
-0.0582212712 -0.0350716955 -0.4567331584
0.0010632058 0.0414179042 -0.4698673129
-0.0284813395 -0.0010679496 -0.4696007189
0.0180441859 -0.0035992806 -0.5344119237
0.0047776297 -0.0547737524 -0.4682795022
-0.0085871010 -0.0155075633 -0.4512483326
-0.0628677894 0.0146565034 -0.4912045100
0.0459266055 -0.0507114090 -0.5107224437
-0.0209479489 0.0118767420 -0.4783739575
0.0542945801 -0.0305853423 -0.4594803561
0.0429246738 -0.0194563996 -0.5295791349
0.0313837614 -0.0065388159 -0.4550823083
-0.0061407487 -0.0446055619 -0.4590126996
0.0040577221 0.0226587805 -0.4810292251
-0.0373985149 0.0253704702 -0.5304864960
0.0658039520 0.0011265521 -0.4768236902
-0.0732292999 -0.0284231676 -0.4595096958
0.0318435070 0.0342586320 -0.4840297295
0.0466355841 -0.0031869821 -0.4821845620
-0.0339395615 -0.0603864479 -0.4777859783
-0.0050015966 -0.0140039349 -0.4501715932
0.0449316560 -0.0300694153 -0.5194780097
0.0488639132 0.0316884842 -0.4769125818
-0.0454142727 0.0228669364 -0.4966289699
-0.0900815159 -0.0254569599 -0.4841479763
0.0228368170 -0.0032822090 -0.4571682058
0.0287270552 -0.0758237243 -0.4825731733
-0.0535504417 0.0167588405 -0.4914306132
-0.0249101751 -0.0315505023 -0.5341038569
0.0586931949 -0.0007220924 -0.4844692460
-0.0632455860 -0.0405274419 -0.4617809733
0.0026641039 -0.0561503839 -0.4950736249
-0.0812276037 -0.0231404553 -0.5015373751
-0.0076565725 -0.0803357865 -0.4854073729
-0.0890723090 -0.0046831936 -0.5282076506
-0.0825326892 -0.0419066184 -0.5273519748
-0.0542203061 0.0229989567 -0.4983507468
-0.0634292714 -0.0670921871 -0.5309272613
-0.0390807899 0.0261586941 -0.4685494530
-0.0129409290 -0.0425425521 -0.4576958098
0.0165713166 0.0253893025 -0.4589801948
0.0197184155 0.0086135223 -0.4648752643
-0.0130454065 -0.0137109286 -0.4549397594
0.0046398685 -0.0407093458 -0.4560779663
-0.0045010576 -0.0258111817 -0.5267376408
-0.0435206375 -0.0261071924 -0.4991833946
-0.0178450249 -0.0133430684 -0.4551948732
0.0689134926 0.0142813858 -0.4942912197
-0.0419867339 -0.0556468849 -0.4994388792
-0.0036683727 0.0264108616 -0.4840307566
-0.0360248555 -0.0637821627 -0.4819425403
-0.0630150365 -0.0280275422 -0.5538171509
0.0225071651 0.0285035978 -0.4576318716
0.0033081854 0.0337744222 -0.5213325541
-0.0275811448 0.0322312294 -0.4958091531
-0.0702489703 -0.0129271970 -0.4805482487
0.0525633890 0.0347634702 -0.5126946393
-0.0414658479 -0.0225933021 -0.4582684467
-0.0048935827 -0.0211256741 -0.4450967404
-0.0858998899 -0.0536726203 -0.5177137198
0.0119111266 0.0067901372 -0.4647232940
0.0619489123 -0.0303629350 -0.4658790066
-0.0423195628 -0.0532860717 -0.5281413997
-0.0307912202 -0.0240910177 -0.5323340696
0.0019963574 -0.0008870112 -0.4601847563
-0.0409121271 -0.0352501790 -0.4539257057
0.0104944747 -0.0538674602 -0.5002819008
0.0162353106 0.0039492180 -0.4592397569
0.0329200878 0.0305839049 -0.4592398771
-0.0132885979 -0.0500712197 -0.4651163090
-0.0461281395 -0.0137319540 -0.5206450260
-0.0458792560 -0.0440350063 -0.4659660757
0.0670586431 0.0121990975 -0.4947560612
0.0030662622 -0.0526721271 -0.4845884801
0.0385812212 0.0243946383 -0.4709370989
-0.0251186769 -0.0345988311 -0.4490161240
-0.0356392075 -0.0579024044 -0.4738591179
-0.0715172287 0.0353848068 -0.4909354561
0.0562772825 0.0220006946 -0.4915967882
-0.0251967520 -0.0025580391 -0.4686015698
0.0648563542 0.0216074282 -0.4882391238
0.0568874820 0.0215894069 -0.4934273552
0.0138461113 -0.0035973053 -0.5267449738
0.0470126562 -0.0060021748 -0.4814928184
0.0561659970 0.0208869536 -0.4889855766
-0.0032672965 0.0098279686 -0.4713086490
0.0218524076 -0.0592413433 -0.4704274237
-0.0561776088 0.0459707202 -0.4832411782
-0.0706600653 -0.0063770316 -0.5557729732
0.0331146904 -0.0123061932 -0.5151277979
-0.0853637664 -0.0224255493 -0.4846326106
-0.0447010623 -0.0222705664 -0.5221899114
-0.0911399701 -0.0396486564 -0.4774682882
-0.0474553524 0.0031008803 -0.4741666324
0.0576345372 0.0070974065 -0.4933330404
0.0467248228 0.0103376387 -0.5464069005
0.0705492408 -0.0180606534 -0.4535241567
0.0189263998 0.0115200839 -0.4690157805
-0.0592749220 -0.0746355049 -0.4933333294
-0.0270392671 0.0149560936 -0.5347384624
-0.0898098295 -0.0269171248 -0.5171359360
-0.0140178236 0.0426625966 -0.4977477632
-0.0260194553 0.0092073009 -0.4769027404
-0.0008587339 -0.0627772261 -0.4730001717
-0.0206330642 0.0391256664 -0.5077754432
0.0468812361 0.0283616348 -0.4823778751
0.0562939121 -0.0254735948 -0.5174219317
-0.0066541198 -0.0484810666 -0.5247364406
0.0527519814 -0.0348401715 -0.5040866234
-0.0494399797 -0.0661794265 -0.5033951650
-0.0183188967 -0.0129290160 -0.4573419008
-0.0349318219 -0.0123213556 -0.5153927934
-0.0019281817 0.0066358247 -0.5387582073
-0.0564957025 -0.0157438412 -0.4620996957
-0.0222134519 -0.0359080753 -0.5158251908
0.0398628954 0.0405785923 -0.5052577839
-0.0135683076 0.0121776845 -0.4771909857
-0.0899348511 0.0097027435 -0.5324595049
0.0101031869 0.0043350782 -0.4538324333
-0.0536555484 0.0199387919 -0.4940297429
0.0342478654 -0.0305473308 -0.4447105061
-0.0408901869 -0.0280308238 -0.4495132181
0.0292028069 -0.0432401519 -0.4569225387
-0.0411838164 -0.0210185596 -0.5214087321
0.0492964143 -0.0363338357 -0.4554597234
-0.0183617051 0.0247826194 -0.4796105758
0.0108002007 0.0072208968 -0.4688588822
-0.0660954647 -0.0435093480 -0.4662201665
-0.0144144536 -0.0631806119 -0.5095455267
0.0301239358 0.0353308587 -0.4535325038
-0.0826379778 0.0070174948 -0.5095431704
-0.0184999892 0.0045988341 -0.4715477067
0.0216032251 -0.0107334735 -0.4495505367
0.0013722821 -0.0142668285 -0.5004037109
0.0006162593 0.0145741459 -0.4643018500
0.0494375190 -0.0515657292 -0.4730985312
-0.0371019415 -0.0265804122 -0.5179895540
-0.0798173985 0.0029554820 -0.5047387298
-0.0556048050 -0.0221936391 -0.4626618363
-0.0446715453 -0.0006846935 -0.5479761375
0.0140763747 -0.0107653304 -0.4514779902
-0.0409999822 0.0142694310 -0.5272617982
0.0402239375 -0.0291225929 -0.4505695999
-0.0726333573 -0.0396026079 -0.4633384297
0.0075891365 -0.0116260526 -0.4978308269
-0.0108825985 -0.0484432950 -0.4638333310
0.0462063554 -0.0582304551 -0.4565176793
-0.0509845169 0.0064101693 -0.4817305903
-0.0877467018 -0.0111290023 -0.4904104208
-0.0380558735 0.0364512525 -0.4791886656
-0.0599500087 -0.0309345914 -0.5461882045
0.0515800666 0.0138786033 -0.4860710104
0.0526417649 -0.0130876847 -0.5077848652
0.0058692031 -0.0128842608 -0.4928352611
0.0275547890 0.0097709538 -0.4670771057
-0.0499336067 0.0313411278 -0.5240083303
0.0125338941 0.0128283789 -0.5303420946
-0.0870153291 -0.0510380864 -0.5046222141
-0.0435797391 -0.0657349612 -0.4837629160
0.0466449893 -0.0380525762 -0.4545942926
-0.0057825721 0.0434996308 -0.4830622913
0.0285919404 -0.0538898573 -0.4659300291
-0.0006502322 -0.0101672301 -0.4544481167
-0.0111526914 -0.0174401041 -0.4507170855
0.0193781215 0.0122915923 -0.5281721700
-0.0736566205 -0.0674945542 -0.5145180327
-0.0563241454 0.0230064813 -0.5368432864
0.0639642812 -0.0352504216 -0.4635212421
0.0195041500 0.0344118994 -0.4838761657
0.0090168430 -0.0479797415 -0.4599520497
0.0444259591 -0.0161836150 -0.4492637649
-0.0056302210 -0.0077921699 -0.4588357321
-0.0059127840 -0.0321494598 -0.5283937739
0.0613180810 -0.0440630363 -0.4655693341
0.0114545778 0.0377612457 -0.5017094251
-0.0632694412 -0.0635850049 -0.4868619395
-0.0418600636 -0.0567696358 -0.5036511255
0.0501684205 0.0351452195 -0.5237119925
-0.0428577707 0.0123312836 -0.4856454104
0.0519588610 -0.0589977573 -0.4658415763
0.0286246727 -0.0216648372 -0.4393488983
-0.0550861635 -0.0061835817 -0.4722075295
0.0194137784 -0.0420469931 -0.4387097517
-0.0234696155 0.0088778679 -0.4767709991
0.0138767343 -0.0380516451 -0.4516593651
-0.0087049471 -0.0181029783 -0.4537618063
-0.0578949476 0.0043139909 -0.4845019182
-0.0909005409 -0.0538125623 -0.5094895405
0.0392892414 0.0329009976 -0.4883401162
-0.0476315418 -0.0130935138 -0.5616674461
-0.0583738807 0.0294225390 -0.5140267350
0.0074300584 -0.0418622084 -0.4586105943
0.0381997072 -0.0559002738 -0.4634762083
0.0289821368 -0.0034305759 -0.4561293023
-0.0628508768 0.0344781795 -0.5173717605
0.0189398513 -0.0303721285 -0.4419844473
0.0460390720 -0.0259203034 -0.5205010514
-0.0548318296 -0.0683660835 -0.4988813733
-0.0083635071 0.0238869637 -0.4820081254
-0.0513012390 -0.0497583334 -0.4738733380
0.0217362385 0.0309064590 -0.4823537108
-0.0462941244 0.0058312633 -0.4775749919
-0.0898206363 -0.0340773572 -0.5124874946
-0.0504474283 0.0359517448 -0.5001273997
0.0020203331 0.0302028305 -0.4846272303
0.0209361910 -0.0440752438 -0.4459679059
-0.0636679955 -0.0008332430 -0.4807638114
-0.0404536946 -0.0134526487 -0.5107012796
-0.0003861736 0.0127026825 -0.4733268586
-0.0304675762 -0.0240971649 -0.4493220040
0.0461563691 -0.0151387988 -0.5319349659
-0.0489501633 -0.0172920529 -0.4633012543
-0.0225387563 0.0091968227 -0.4782762195
-0.0536055781 0.0098348203 -0.4792624022
0.0640072269 -0.0335063945 -0.4618549413
0.0238400899 0.0071101626 -0.4643769342
-0.0506008201 0.0190597074 -0.4914978226
-0.1029042604 -0.0361316601 -0.4949703872
-0.0342297293 -0.0154513358 -0.4608550668
-0.0307425153 -0.0561225626 -0.4798546559
-0.0331599810 -0.0132002884 -0.4618582953
-0.0427379197 -0.0305854089 -0.4494804877
0.0040324561 0.0173215210 -0.4758551613
-0.0839638119 -0.0733895087 -0.4976066096
0.0615418943 -0.0132266804 -0.4754653300
-0.0131112437 0.0266536026 -0.4891871850
-0.0533922168 -0.0222043496 -0.5516819729
0.0080875616 0.0533026807 -0.4859832942
-0.0373329475 0.0012100276 -0.4711664790
-0.0163147913 0.0361807711 -0.5036819372
0.0514749124 0.0293272570 -0.4967051616
0.0507641679 -0.0331743561 -0.4541356160
-0.0306590568 -0.0128788759 -0.4611457156
0.0084099176 -0.0237235702 -0.4436140732
0.0596070411 0.0199365280 -0.4916576472
-0.0159376343 -0.0612745301 -0.4788661871
0.0490695821 -0.0143570479 -0.5343413758
-0.0037296741 0.0150296015 -0.4769393223
-0.0053993742 0.0370784817 -0.4701656152
-0.0672382864 -0.0569373621 -0.5371145894
0.0593762637 -0.0283277830 -0.4911377910
-0.0102917171 -0.0138146556 -0.4590429864
-0.0899058286 -0.0242775712 -0.4842632353
0.0500076566 -0.0123335951 -0.4743214268
-0.0874538056 -0.0413038574 -0.5205232477
-0.0658762522 -0.0503259827 -0.5350470226
-0.0103790694 -0.0029953059 -0.4639019385
0.0186632015 -0.0060539609 -0.5383314267
0.0460472926 -0.0127847800 -0.5035168270
-0.0376162083 0.0020722756 -0.4755610802
0.0300019020 -0.0246887681 -0.5244683142
-0.0659111220 -0.0606211493 -0.4866923905
0.0611348713 -0.0330476088 -0.4682566437
0.0169080829 -0.0390438044 -0.4546500683
-0.0538111787 -0.0082220473 -0.4715208091
-0.0837067281 -0.0560092517 -0.5080036510
-0.0381993994 0.0014532840 -0.4743289241
0.0446948992 -0.0660150224 -0.4677945625
-0.0555204556 -0.0259652509 -0.5528839336
-0.0836488783 0.0155503719 -0.5159127148
-0.0310683182 -0.0340730876 -0.4512570949
-0.0531913172 -0.0552607914 -0.5274943302
-0.0561106131 -0.0181819354 -0.4661240863
-0.0081743019 0.0417432214 -0.5039244222
0.0187655972 -0.0413538579 -0.4484661284
-0.0887562346 -0.0547665442 -0.5212576080
-0.0106739990 -0.0448383910 -0.4536329931
0.0150384330 0.0168959131 -0.4541305115
0.0235351867 0.0064301526 -0.4580044461
-0.0865914235 -0.0619578874 -0.4914042875
0.0183435896 -0.0005305705 -0.5213248296
-0.0509254935 0.0060791303 -0.5450256391
-0.0130057465 -0.0083289828 -0.4572914732
-0.0664978086 -0.0408480010 -0.5334243556
-0.0558772440 -0.0692543215 -0.5241199923
0.0593218481 -0.0209029506 -0.4666411109
-0.0207121310 0.0054985758 -0.4597905911
-0.0605828307 -0.0557737849 -0.4818117883
0.0364729597 -0.0135178507 -0.4466834100
0.0264725662 -0.0156484287 -0.5015749146
-0.0803180745 -0.0185969357 -0.4909797657
0.0342698752 0.0216124292 -0.4749714460
0.0000005810 -0.0002321873 -0.4598563889
0.0649943763 -0.0406266688 -0.4693913034
-0.0154040169 -0.0164247642 -0.4522664096
-0.0158601651 -0.0289922890 -0.5272058125
0.0371702979 -0.0821468904 -0.4872048466
-0.0004547052 0.0270374028 -0.4862225766
-0.0955953463 0.0063022829 -0.5236798884
-0.0074211662 -0.0428459906 -0.4517568050
-0.0850199837 -0.0328079198 -0.5157434853
0.0016631251 -0.0109449867 -0.4518672028
0.0223285382 0.0158577771 -0.4702851616
-0.0402313234 -0.0446226723 -0.4436964013
-0.0872412113 -0.0338463208 -0.5184649961
-0.0027527611 -0.0341171332 -0.4358984001
0.0277486964 -0.0475621704 -0.5002280860
-0.0308904102 0.0343865426 -0.5198090823
-0.0109200253 -0.0035833718 -0.4597718549
0.0171030470 0.0315028447 -0.4839961404
0.0366283619 -0.0701561597 -0.4827003556
-0.0034662898 -0.0458482178 -0.4613877602
0.0338769533 -0.0336618601 -0.4478363072
-0.0064708510 -0.0698727098 -0.4861885731
-0.0363473406 -0.0555706684 -0.4742458123
-0.0595984126 -0.0536959211 -0.5373507261
-0.0290777282 0.0008366996 -0.5389771054
0.0194649412 -0.0073892444 -0.4408569801
-0.0080823454 -0.0149675301 -0.4569296960
0.0120370338 -0.0225506776 -0.5122356785
-0.0284223890 -0.0800253188 -0.4842045322
0.0661247873 0.0071494500 -0.4875757656
-0.0459187088 -0.0504917539 -0.5282107510
0.0667672219 0.0062447741 -0.4843089585
0.0036946873 -0.0579304325 -0.5187594959
-0.0390878029 -0.0605603215 -0.4791188795
-0.0451619730 0.0335923090 -0.4994491133
-0.0459385276 -0.0605966899 -0.4770176232
-0.0398652634 0.0267354325 -0.4655313938
-0.0233101416 -0.0012717857 -0.4664177901
-0.0360853187 -0.0286530076 -0.4497953905
0.0486706175 -0.0240818332 -0.4480460565
-0.0433154434 -0.0581965364 -0.4760288707
0.0039299826 -0.0636880396 -0.4738504199
0.0477516857 -0.0199172513 -0.5186734873
-0.0817960967 -0.0076692924 -0.5459635546
0.0191069024 0.0214154671 -0.4750395673
0.0470287960 0.0220460050 -0.4823869003
0.0180378806 -0.0580954480 -0.4923352626
-0.0657124039 -0.0420740308 -0.4509945735
0.0492749358 -0.0159553433 -0.5197851938
-0.0844164128 -0.0025662087 -0.4859431514
0.0571550218 -0.0276776528 -0.4650413184
-0.0904403992 -0.0126035026 -0.5141062141
-0.0215303735 -0.0582943950 -0.5142803234
0.0223996748 -0.0057464325 -0.5344637483
-0.0795252124 -0.0186293105 -0.5078988337
-0.0120842033 0.0437240174 -0.4934929427
-0.0845254742 -0.0562585396 -0.4865790890
-0.0711981235 -0.0155719505 -0.4713229268
0.0642292758 -0.0375312735 -0.4730832202
0.0089843200 -0.0548738813 -0.4624399225
-0.0458109489 -0.0112048280 -0.4674721085
0.0087421155 0.0406120457 -0.4925267398
0.0002450334 -0.0597342189 -0.5160869698
0.0440975521 0.0268150207 -0.4820410481
-0.0657653514 -0.0003438552 -0.4811812210
0.0259854959 -0.0327831713 -0.4426842272
0.0527282338 -0.0257234598 -0.4581267295
-0.0922911444 -0.0544619855 -0.5129143116
-0.0324989569 -0.0083766202 -0.4647828248
-0.0931954277 0.0155956828 -0.5117248448
-0.0825980464 -0.0659570684 -0.5008027806
0.0314951356 -0.0301734401 -0.4450309948
0.0065311064 0.0114496228 -0.4719617462
-0.0665428785 -0.0077331931 -0.5600519908
-0.0709766000 0.0244934802 -0.5388838366
0.0471078692 0.0356883290 -0.5178643629
-0.0217093431 -0.0555453531 -0.4741347821
0.0044572635 0.0017369236 -0.5388824495
0.0536921559 -0.0182794007 -0.4649068083
-0.0889308090 0.0135682590 -0.4900418537
0.0159211200 -0.0100187838 -0.5006857774
-0.0250076762 0.0067432509 -0.5385956760
-0.0424917942 -0.0146408575 -0.5251034528
-0.0488111778 -0.0631079834 -0.4798709787
-0.0134214803 -0.0005470103 -0.4657780107
0.0227296446 -0.0240253974 -0.4376672208
-0.0144131286 0.0227156581 -0.4749188421
0.0242474991 -0.0245301845 -0.5023655900
0.0098613215 -0.0046299443 -0.5366835629
-0.0239177125 0.0094068059 -0.4616808041
-0.0034446896 0.0211730948 -0.4797940762
-0.0480912278 -0.0302563036 -0.4497505923
-0.0233434923 0.0060317223 -0.4718941748
0.0575508486 -0.0382204636 -0.4820227482
0.0139869757 -0.0336823435 -0.5022328518
-0.0005799319 0.0396466949 -0.4942248952
-0.0387087976 0.0134746808 -0.5341393830
-0.0795521776 -0.0574941504 -0.4870550976
0.0242800840 0.0095556127 -0.4660819236
-0.0065079691 0.0161800095 -0.5354568902
-0.0521687499 0.0165184602 -0.4875551823
0.0138328691 -0.0023695889 -0.5014748017
0.0625200959 0.0031254726 -0.5182034279
0.0382979844 -0.0065834170 -0.4647917790
-0.0052615325 0.0215955364 -0.4800742531
-0.0577900404 -0.0160592426 -0.4641950426
0.0292332149 -0.0703883728 -0.4737431485
0.0390497054 0.0400367801 -0.4836217666
0.0172017959 -0.0030077887 -0.4528365911
0.0053649394 -0.0502493641 -0.4859618851
-0.0864082987 -0.0498840396 -0.5189872590
-0.0177828803 0.0065509587 -0.4593793873
-0.0681071002 0.0044312395 -0.4865402067
-0.0781242282 0.0173226498 -0.4761340418
-0.0220980386 -0.0151634330 -0.5220108795
0.0039724075 -0.0387806449 -0.4479312250
0.0516640035 -0.0206080933 -0.5011006907
0.0131587390 -0.0218478310 -0.5083368640
0.0367658118 0.0213093660 -0.4750928411
-0.0830020149 0.0155746579 -0.5303802495
-0.0395123068 -0.0529959737 -0.4593767367
-0.0350379987 0.0100180151 -0.4664181624
0.0042161545 -0.0676745408 -0.4738517110
0.0089129908 0.0392282195 -0.4894804358
-0.0008141747 0.0064805621 -0.4670317725
-0.0852914868 -0.0051430728 -0.5179954365
0.0392161497 -0.0534037488 -0.4603396072
0.0220067781 -0.0276191649 -0.4442862257
0.0006182967 0.0003508339 -0.4947334211
0.0098318662 -0.0108758916 -0.4506397247
0.0053139621 0.0295801322 -0.4769027117
-0.0309191979 -0.0207416911 -0.4545321204
-0.0685034662 -0.0635590962 -0.4729046065
-0.0365016131 0.0005163697 -0.5365415032
-0.0535123243 -0.0523323544 -0.4774561913
-0.0014099879 -0.0390722608 -0.5170240447
-0.0423749858 -0.0322977770 -0.4501733402
-0.0625856665 0.0205840114 -0.5411296678
-0.0300970874 -0.0282880843 -0.5214342648
-0.0332385147 0.0113202599 -0.4796191985
-0.0511592307 -0.0474982344 -0.4703869815
0.0226375305 0.0445555085 -0.4936154085
0.0544317675 -0.0007496179 -0.4862169127
-0.0557333182 0.0246419656 -0.4960944145
0.0522270174 -0.0527935105 -0.4881127016
0.0548223891 -0.0000484270 -0.4845923525
-0.0553445373 0.0246097770 -0.4984692226
-0.0158766761 -0.0531570554 -0.5236339603
0.0364021513 0.0143629078 -0.4751635318
-0.0407937382 -0.0006282982 -0.4734996642
0.0039294963 0.0266222275 -0.4842995339
0.0096212388 -0.0728974158 -0.4808119646
-0.0341564802 0.0403579293 -0.4789942454
-0.0544730252 -0.0286968233 -0.5290212886
-0.0463616424 -0.0012746927 -0.4580426589
0.0225826908 -0.0189949990 -0.5136045873
0.0592257524 -0.0074173919 -0.5219816437
-0.0240774422 0.0031486767 -0.4599941899
-0.0886014941 -0.0458603931 -0.4719338785
0.0220480904 -0.0016834895 -0.4548869294
-0.0827736672 -0.0157399746 -0.5335887505
-0.0781388368 -0.0212855297 -0.4676541080
-0.0405342004 0.0292784554 -0.4950158339
0.0421267664 -0.0303921979 -0.4520810470
-0.0007637144 0.0242732491 -0.4820364871
-0.0520921126 -0.0047217314 -0.4760614038
0.0272186418 -0.0647066677 -0.4887860131
0.0139568737 0.0415164972 -0.4918335315
-0.0332597952 -0.0202582039 -0.5159666566
0.0149558296 0.0430204861 -0.4942838367
-0.0529451365 0.0191126014 -0.4913505449
-0.0156957508 -0.0331157578 -0.5285020917
0.0081620530 -0.0390881786 -0.5116203542
-0.0894314706 -0.0308689170 -0.4796809203
-0.0028462850 -0.0183396023 -0.4472589344
0.0558291418 -0.0431636393 -0.4590805835
-0.0549417298 -0.0709499247 -0.5084657571
0.0228940816 -0.0179985656 -0.5083865687
0.0464504676 -0.0565019099 -0.4815873987
0.0162735112 -0.0293140719 -0.4339427695
0.0066377225 -0.0282110713 -0.4419436076
-0.0202482548 -0.0699515182 -0.4840729146
0.0173087190 -0.0145323118 -0.5027746134
0.0559029499 -0.0167702304 -0.4893859789
-0.0512365896 -0.0671039082 -0.4848573102
0.0697923170 0.0063932627 -0.5017699966
-0.0481958733 -0.0698836941 -0.5065817961
0.0243109144 -0.0096958140 -0.4443109494
0.0274761284 0.0170969495 -0.4713428290
-0.0583205935 -0.0455735314 -0.4692784286
0.0267251482 0.0019488548 -0.4542484465
0.0336684848 -0.0661563473 -0.4702525361
-0.0178592849 0.0191780790 -0.4732970096
-0.0186091653 0.0048183300 -0.4763286099
0.0491645902 0.0206075787 -0.5355573785
-0.0422853001 -0.0240415719 -0.5330585873
-0.0192825468 -0.0751472398 -0.4918163027
-0.0243084276 0.0403235373 -0.4948169419
-0.0551245523 -0.0328461232 -0.5296644939
0.0243627369 -0.0234071214 -0.4395776396
-0.0377529369 -0.0108670306 -0.4641994532
-0.0000265198 0.0251400922 -0.4636033113
-0.0018549397 -0.0774966633 -0.4836518821
-0.0361112062 -0.0175778699 -0.4587972745
0.0348633603 0.0200803037 -0.4494547513
-0.0584998291 0.0321450669 -0.4803289850
-0.0436427373 -0.0226472039 -0.5266473658
0.0215699651 -0.0168221967 -0.4423408960
-0.0635665479 0.0265205297 -0.5009555222
-0.0310579411 -0.0505929638 -0.4691557463
0.0548116522 -0.0059066969 -0.4652782455
0.0428884988 0.0102925673 -0.5406621145
0.0440233308 0.0011644838 -0.4797295944
0.0285060380 0.0442845066 -0.4745670178
0.0071961832 -0.0012889715 -0.4567013719
-0.0151851088 0.0354730143 -0.5088695885
0.0042238754 0.0115836186 -0.4695340026
0.0088159474 -0.0521517208 -0.5050516029
-0.0382453069 -0.0052292561 -0.4710911582
-0.0263419402 0.0192489616 -0.4846969089
0.0082636545 -0.0544819277 -0.5148504455
-0.0116046304 -0.0201218942 -0.4491858979
0.0167528616 0.0343387515 -0.4865277162
-0.0951441094 -0.0297773565 -0.5058248253
0.0193104993 0.0481937679 -0.4901487407
-0.0580941465 0.0167697355 -0.4913783340
-0.0778234711 -0.0539089404 -0.4718783178
0.0488610446 0.0259483827 -0.5252472153
-0.0435344029 0.0201738565 -0.5342046699
-0.0364660506 -0.0534003491 -0.5022094663
-0.0058580689 0.0219063135 -0.4820805871
-0.0034903195 -0.0680217159 -0.4813924842
-0.0483389245 0.0277125570 -0.4992745040
0.0089484143 0.0122177139 -0.4718460934
-0.0315292883 0.0220683977 -0.4889362276
-0.0893463793 0.0028843883 -0.5074069143
-0.0339622364 -0.0156423206 -0.5234152440
0.0049937665 -0.0012196163 -0.4500345687
0.0367905233 -0.0477755734 -0.4571775135
0.0250168281 0.0424761046 -0.4838079002
-0.0113628792 -0.0412957677 -0.4574770137
0.0304364801 -0.0547127186 -0.4869135100
0.0039780796 -0.0536068771 -0.4631299052
-0.0423213061 -0.0630659991 -0.4904921609
0.0319774313 0.0190582363 -0.4749798921
0.0181235907 -0.0033257855 -0.5395868742
0.0203011286 -0.0713742378 -0.4690492235
0.0494923513 0.0286878889 -0.4916237314
-0.0775142866 0.0039387816 -0.4752032187
-0.0016820960 -0.0140339250 -0.5007416195
-0.0625357414 0.0142834242 -0.4884661110
-0.0080006757 -0.0157245509 -0.4537591478
-0.0065847856 -0.0643985814 -0.5070902051
0.0119506375 -0.0575872470 -0.4646393143
0.0490818238 0.0078751110 -0.5370152651
-0.0692781520 -0.0574673025 -0.4863144386
-0.0630493082 0.0220791073 -0.4951045168
-0.0286322274 -0.0107093379 -0.4638878674
-0.0593202198 -0.0427175463 -0.4488132260
-0.0086791976 0.0036518446 -0.4663990041
-0.0249559281 -0.0404725477 -0.5140048613
-0.0534731557 -0.0379375982 -0.4590564990
-0.0080879068 0.0059101896 -0.4670585808
-0.0665105584 -0.0553318003 -0.4834301074
0.0214108596 -0.0784434111 -0.4818707226
-0.0477440469 -0.0412802584 -0.4630147219
-0.0583429304 -0.0516612102 -0.4738675530
-0.0232017714 -0.0423824512 -0.4409590016
-0.0363053891 -0.0562456932 -0.5031233928
0.0243696798 0.0126297734 -0.4686731952
0.0483968608 0.0258912173 -0.5308550585
0.0189899580 -0.0819146491 -0.4881639592
-0.0050466688 -0.0081479154 -0.4487924408
0.0564789101 0.0285511483 -0.5076074004
-0.0628851448 -0.0431215086 -0.5392242824
-0.0052390937 0.0121932099 -0.4735794391
0.0505138441 -0.0054867858 -0.4974496219
-0.0834654188 0.0307313311 -0.5169356269
0.0236853112 -0.0707074621 -0.4753906023
-0.0479267858 0.0170226709 -0.4741181121
-0.0561840273 0.0171751324 -0.4902628064
-0.0869617178 -0.0548736496 -0.4847165408
-0.0522329959 0.0436749079 -0.4948362920
-0.0057808114 0.0408017210 -0.5088860453
0.0114375121 -0.0313083670 -0.5186796914
0.0563499522 -0.0055352189 -0.5089317975
-0.0259137925 0.0397573618 -0.4694083253
-0.0354214500 -0.0362375043 -0.4535481796
-0.0115033162 -0.0141914842 -0.5503128483
-0.0233710856 0.0389991949 -0.5013704446
-0.0248570740 -0.0040905480 -0.4649503529
0.0613326090 0.0162510142 -0.4898792852
-0.0478412021 -0.0095183261 -0.4540273986
0.0362171791 -0.0602531023 -0.4686696827
-0.0021994712 -0.0498974371 -0.5213303809
-0.0393012570 -0.0066458816 -0.4586154711
-0.0351265922 0.0314236490 -0.4714945635
0.0263939556 -0.0178590324 -0.4411148801
-0.0354784047 0.0314114169 -0.4943427786
-0.0621324780 -0.0594123827 -0.5372744803
-0.0761314390 0.0318754620 -0.4868095865
-0.0028745525 0.0287755970 -0.4906381816
-0.0264302851 0.0269967403 -0.5303745775
-0.0259594910 0.0398782204 -0.5060903787
-0.0786563489 0.0017205204 -0.5459195266
-0.0055020563 -0.0162214206 -0.4524357031
0.0224657180 0.0147388665 -0.4527182231
-0.0093737734 -0.0384951313 -0.5270680656
-0.0042129823 -0.0339662653 -0.4487837419
0.0637867295 -0.0398259153 -0.4766875611
0.0055088090 -0.0496460949 -0.5064690624
-0.0582879196 0.0086928179 -0.4825942578
0.0504488624 -0.0183699595 -0.5149352358
-0.0562323341 0.0358595659 -0.5061419874
-0.0206667120 -0.0376691105 -0.4524277609
0.0046669760 -0.0034952651 -0.4570507590
-0.0412500298 -0.0086440116 -0.4673080384
0.0535257785 -0.0149068344 -0.5031972849
0.0370095640 -0.0030691399 -0.4770551591
-0.0282058955 -0.0029163561 -0.4689249240
-0.0352027931 0.0365037073 -0.4976875847
-0.0792745530 0.0242955970 -0.4761845914
-0.0553625489 0.0022920284 -0.5535207286
-0.0759972216 -0.0033578811 -0.4707443459
0.0559127423 0.0179553785 -0.5270645425
0.0245083576 0.0133219000 -0.4664671151
0.0467630062 -0.0273034195 -0.5161659002
0.0426703029 -0.0823934644 -0.4835811171
0.0043777016 -0.0358047283 -0.4489255799
-0.0080897391 0.0219587002 -0.4817838870
0.0465562360 -0.0128477182 -0.4587643543
0.0113295689 -0.0631026409 -0.4725351018
-0.0053910907 0.0391797088 -0.4944318532
0.0111366007 -0.0024277943 -0.4588980526
-0.0030072210 -0.0253303684 -0.4419198472
0.0345888617 -0.0184000689 -0.4420669683
0.0566158070 -0.0109093932 -0.4748074548
-0.0482958949 -0.0194155146 -0.4599031454
0.0488469612 -0.0059654677 -0.5115865684
0.0166220697 -0.0464179975 -0.4901056964
0.0625301341 -0.0287630859 -0.4642856198
0.0521709710 0.0299244779 -0.5191084683
0.0121491246 -0.0131005915 -0.4489098564
0.0519907351 0.0240822560 -0.5319654218
0.0456026620 -0.0204014590 -0.5264745681
-0.0200811932 0.0330398612 -0.4716633245
-0.0509190337 -0.0308565303 -0.4514814642
-0.0305895761 -0.0580673080 -0.4761862968
-0.0328964643 -0.0205478666 -0.5110761988
0.0504893815 -0.0158164202 -0.4983977617
-0.0239415906 -0.0402532316 -0.5217591069
-0.0393312149 -0.0266078521 -0.5236486915
-0.0313705493 -0.0553953143 -0.4765372335
-0.0120818244 -0.0136967468 -0.5455571108
0.0289712680 -0.0266389039 -0.4333805492
-0.0044423931 0.0379283587 -0.4925749142
0.0565987745 -0.0254855645 -0.4610609427
0.0170729439 -0.0232363972 -0.4394557521
0.0573006092 -0.0035142913 -0.4815389649
-0.0027654785 0.0121509922 -0.4682575894
-0.0432220191 -0.0229133872 -0.4566448257
-0.0336354999 -0.0167418368 -0.4566915261
-0.0536169738 -0.0726562428 -0.5213787777
-0.0328028808 -0.0155237307 -0.4598355830
0.0513187286 -0.0483189813 -0.4585180464
0.0523994602 -0.0487040915 -0.4576410800
-0.0207685868 -0.0437363698 -0.4466159911
-0.0767208997 0.0236792282 -0.5105761693
0.0691569432 -0.0243312954 -0.4681839922
0.0568322065 -0.0218256013 -0.4858551070
-0.0261125843 0.0243595430 -0.4911185568
0.0138927333 -0.0704844005 -0.4742544743
-0.0736172554 0.0315683278 -0.4828773389
-0.0118604528 -0.0652919252 -0.5129126422
0.0346104194 0.0017112791 -0.5434086796
-0.0208563884 0.0377533543 -0.5165172750
0.0464822395 0.0269175913 -0.4823698407
0.0653417337 0.0118219064 -0.4977748993
0.0641435945 0.0069486665 -0.4893391398
-0.0358660340 -0.0488352765 -0.4548011141
0.0567620829 0.0296087691 -0.5087005760
-0.0485653302 0.0221704858 -0.4939831027
0.0318469496 0.0044893127 -0.4735059270
0.0510181795 -0.0743234931 -0.4917609238
0.0135274715 0.0397282798 -0.5121960869
0.0364988283 0.0015051312 -0.4742649460
0.0418084535 -0.0499150427 -0.5123059803
-0.0533377834 0.0039070883 -0.4774474840
0.0613354555 0.0036131317 -0.5089004844
-0.0233918942 -0.0559111821 -0.4742024916
0.0410507271 -0.0344954211 -0.5231537689
0.0447189249 -0.0614831173 -0.4667134545
0.0367353760 -0.0224710581 -0.4451307456
0.0448420051 -0.0623116104 -0.4901558514
0.0124757497 0.0273867380 -0.4610546052
-0.0176373813 0.0212953258 -0.4827777445
-0.0611731453 0.0373957750 -0.4914073489
0.0032491749 -0.0779838121 -0.4811671623
-0.0737198136 -0.0484875320 -0.4609547944
-0.0384434353 -0.0129180284 -0.4638377573
0.0360789200 -0.0668799201 -0.4763915745
0.0735019063 -0.0329104890 -0.4649038531
-0.0031928607 -0.0507356021 -0.4657026381
-0.0435415363 -0.0111022447 -0.4647118045
-0.0535293304 -0.0427533569 -0.4645795287
-0.0768104922 0.0181834257 -0.5013414355
-0.0940593052 -0.0423980522 -0.5100734952
0.0495226444 0.0217275976 -0.4809299583
-0.0176806934 0.0365319935 -0.5166288165
-0.0872342573 -0.0299066138 -0.4929696071
0.0591226814 -0.0088035269 -0.5118146485
-0.0454339268 0.0388119620 -0.5077430976
0.0436064303 -0.0595772501 -0.4736114022
0.0208137487 -0.0028182833 -0.5255640660
-0.1227711667 0.0158859500 -0.5226168918
0.0413186779 0.0064483959 -0.4787232604
-0.0619374499 -0.0732266333 -0.5015500982
0.0513573356 0.0241845005 -0.4841341128
-0.0182061169 -0.0344565972 -0.4387843223
-0.0375624940 -0.0473117633 -0.4506071586
0.0557866357 -0.0101131359 -0.4759033918
-0.0482790735 -0.0180355525 -0.4620864158
-0.0660326635 -0.0462200894 -0.4698491472
0.0064574190 0.0385409428 -0.4897854204
-0.0048134257 -0.0180743802 -0.4472807646
-0.0903806435 -0.0093030841 -0.5007119082
-0.0055418730 -0.0103132593 -0.4603517445
-0.0410993219 -0.0337930211 -0.4537243223
0.0167359864 0.0361430678 -0.5185669943
0.0492857558 -0.0130674418 -0.5012173525
-0.0393764615 -0.0387995331 -0.4414394697
-0.0439007003 -0.0251181201 -0.4542046833
-0.0391398841 -0.0284034493 -0.5089738759
-0.0857240525 -0.0004871107 -0.5180768868
0.0492534812 -0.0563677819 -0.4609170207
0.0519747677 0.0347801708 -0.5068674997
-0.0183167596 0.0365688912 -0.4944386134
0.0065690642 -0.0849230627 -0.4916595965
-0.0734433496 0.0115038323 -0.5452270099
-0.0563337398 0.0092819975 -0.4844830866
0.0530684782 -0.0453343785 -0.5131243484
0.0019213223 -0.0752763656 -0.4906864052
0.0362920441 -0.0211061869 -0.4451823061
0.0213937875 0.0270959536 -0.4749246108
-0.0067548116 -0.0728830980 -0.4978172485
0.0694897014 -0.0152567702 -0.4937573665
0.0179639314 0.0464095154 -0.4876316238
0.0141914027 0.0176371934 -0.4745964684
-0.0734156950 -0.0255232804 -0.4623599604
-0.0280742302 0.0165085104 -0.4819611950
-0.0082472017 0.0200283848 -0.4815114913
-0.0836966338 -0.0132745597 -0.4942579534
-0.0743239507 0.0121991963 -0.5487916973
0.0219091613 -0.0637702654 -0.4748177801
0.0573970059 0.0173274218 -0.4938701376
0.0185741697 -0.0461347262 -0.4616545550
-0.0137944419 -0.0683689111 -0.4846084154
-0.0189152991 -0.0540707526 -0.4719321065
0.0067864478 -0.0109791843 -0.4521855873
-0.0159647524 -0.0625070467 -0.4926750743
-0.0203673109 -0.0168675909 -0.5168934713
-0.0482826262 -0.0529834108 -0.4745597347
-0.0556526736 0.0241663706 -0.5281609036
-0.0886484085 -0.0648194424 -0.5031864996
0.0237179901 0.0388923474 -0.4886204302
-0.0562173607 -0.0229841949 -0.5263871525
-0.0612882814 0.0324239661 -0.5197752426
0.0630195583 -0.0139949136 -0.4644190394
0.0157490484 -0.0354576893 -0.4476571679
-0.0889778386 0.0030285945 -0.5346886859
0.0616159789 -0.0310137016 -0.4618848462
0.0646610250 -0.0025334608 -0.4981369587
0.0287488486 0.0075277074 -0.5353809863
-0.0152582875 -0.0288007516 -0.4488498746
-0.0839740255 0.0103125536 -0.5124398178
-0.0481817146 -0.0077409983 -0.4709186512
0.0342129903 0.0241308092 -0.4771245409
-0.0580286971 -0.0086290696 -0.4720545113
-0.0701526420 -0.0675976418 -0.4832426893
-0.0871879635 0.0131147770 -0.5332016098
0.0470073335 -0.0094458654 -0.5262790560
-0.0541997963 -0.0270091059 -0.5321006041
-0.0111208022 0.0375734319 -0.4712840229
0.0496180682 -0.0103137772 -0.5250963098
0.0612192946 -0.0350640900 -0.4637055695
-0.0184163469 0.0265017986 -0.4898473209
-0.0404655880 -0.0509693068 -0.4727299043
-0.0006512223 -0.0203710484 -0.4490078708
0.0399470034 -0.0001444042 -0.5444057456
0.0270100250 -0.0301788478 -0.4421018308
-0.0135855926 0.0299750006 -0.5332575947
-0.0533338319 0.0018105914 -0.4793542891
-0.0012910767 -0.0586223878 -0.4698207732
-0.0360025975 0.0270524034 -0.4981742863
-0.0703707442 0.0358270988 -0.5080355582
-0.0852549089 -0.0630636119 -0.4974070928
-0.0088841093 -0.0607442235 -0.4808987208
0.0553821559 -0.0200192291 -0.5030801811
-0.0243633784 0.0383919724 -0.4786320722
-0.0236358497 -0.0252640548 -0.4489543526
-0.0791909847 -0.0167298707 -0.4819812346
-0.0287034477 -0.0138037402 -0.4600550041
0.0012256285 -0.0534067465 -0.4645044328
-0.0240706895 0.0246626431 -0.5276550656
-0.0405658987 -0.0331908766 -0.4521188129
-0.0654667606 0.0364750412 -0.5024814161
-0.0811833797 -0.0261441506 -0.4707630018
-0.0335164723 -0.0432973175 -0.4624999842
0.0024644076 -0.0532228870 -0.4628327844
0.0008578935 0.0378166221 -0.4860980663
-0.0284111345 -0.0151263116 -0.4583378334
-0.0333852868 -0.0454366224 -0.4640578176
-0.0504460165 -0.0053101047 -0.4736729646
-0.0213659494 0.0341564725 -0.4936622638
0.0186244172 -0.0640940546 -0.4770819366
-0.0058730516 0.0039031082 -0.4640640816
-0.0457077474 -0.0000890485 -0.4745418000
0.0213739823 0.0436689479 -0.4874372642
-0.0486072396 0.0103283375 -0.4860321206
0.0038683817 -0.0047141621 -0.5536722902
0.0598828033 -0.0297468537 -0.5013922986
0.0415912899 -0.0208284755 -0.4468402539
-0.0427726234 -0.0434153692 -0.4626252401
0.0045853732 -0.0079112567 -0.4524196682
0.0095240998 -0.0204505150 -0.4422101225
-0.0358144612 0.0268639596 -0.4922351757
-0.0474943700 0.0220137792 -0.4752177215
-0.0458683264 0.0023112277 -0.5408008247
-0.0206786288 0.0171372249 -0.4818719510
0.0591190352 0.0270541204 -0.5040250608
-0.0209461372 -0.0504636865 -0.4690322828
-0.0396562618 -0.0619765266 -0.4764327112
-0.0182558787 -0.0304092100 -0.4449997316
0.0353792384 0.0374015160 -0.4930659235
-0.0929649567 -0.0293705698 -0.5164277547
0.0068183309 0.0043198506 -0.4512319355
-0.0478670971 -0.0202268983 -0.5201875600
-0.0918118529 0.0197969594 -0.5119638451
0.0502905663 0.0422523541 -0.4901250352
0.0590884537 -0.0354781635 -0.4631765187
-0.0902061493 0.0053302361 -0.5226096192
-0.0384297967 -0.0526922396 -0.4738782716
0.0021344388 -0.0239355124 -0.4426065633
-0.0221598114 0.0405439755 -0.4708296032
0.0439344209 0.0311615414 -0.4870855228
0.0139111898 0.0196574625 -0.4764806792
-0.0350696154 -0.0275982677 -0.5014571452
0.0124488544 -0.0155784823 -0.5135838702
-0.0532032597 -0.0494789239 -0.4739697097
-0.0240229261 -0.0530196889 -0.4645195178
-0.0502095596 -0.0197421177 -0.4637589641
0.0014207459 -0.0121810195 -0.5468920261
0.0099614263 0.0446675107 -0.4834839979
-0.0244982891 0.0113453395 -0.5419881308
0.0369514386 0.0389837209 -0.4635467167
-0.0144516558 -0.0212299533 -0.5311003276
0.0663492829 -0.0304753799 -0.4640513062
0.0391207334 -0.0010800994 -0.4561517649
0.0452600908 0.0059552206 -0.4741249387
0.0187637895 -0.0341806786 -0.4465679177
0.0243274097 0.0420045969 -0.4871781830
-0.0907336161 0.0167242385 -0.4894886718
-0.0316599093 -0.0779363315 -0.4964862533
0.0583512991 0.0285434229 -0.5036114577
-0.0579421279 -0.0388822840 -0.4612693587
0.0415835183 -0.0160172173 -0.5326795288
-0.0900068620 -0.0461244273 -0.4962715035
-0.0482939966 -0.0259934831 -0.4517966509
-0.0110846976 0.0483414881 -0.4920731026
-0.0225436538 0.0112295225 -0.4769074673
-0.0034247701 0.0245294524 -0.4825871890
0.0580618370 -0.0339053556 -0.4952700418
-0.0684141965 -0.0610734149 -0.4779539855
-0.0406010920 -0.0232139462 -0.4539691990
-0.0715783370 0.0072483464 -0.4912216621
0.0120765358 -0.0176625596 -0.4440125532
-0.0461361353 -0.0763908709 -0.4881590041
0.0413714534 -0.0086671541 -0.4813927231
0.0191717338 -0.0433875258 -0.4586930807
-0.0186644306 0.0023298738 -0.4715016650
0.0084370744 -0.0147645322 -0.5133743571
0.0026744812 -0.0060615902 -0.5077796902
-0.0181423565 0.0025417657 -0.4736292691
0.0534134025 0.0017554451 -0.4852529065
-0.0560642045 0.0217195722 -0.4988221717
-0.0001434144 0.0097657917 -0.4670521255
-0.0312377273 -0.0252473007 -0.4513771714
-0.0424846994 -0.0308538890 -0.5105984236
-0.0307659334 -0.0259914543 -0.4495553869
-0.0009959896 0.0089536040 -0.4698093644
-0.0556116643 0.0039723680 -0.4788846143
-0.0214539405 0.0200965871 -0.5349522809
-0.0002098177 -0.0561844930 -0.4988613810
-0.0212349652 -0.0350096928 -0.5279355263
-0.0644537668 -0.0449520226 -0.5352737948
-0.0480615792 0.0094878311 -0.4833557152
-0.0070487990 0.0078911504 -0.4580305657
-0.0773896055 -0.0541489760 -0.4817123913
0.0211637051 0.0095887843 -0.4600449519
-0.0723262587 -0.0078239749 -0.4900759268
0.0105743191 0.0064964745 -0.5359196222
0.0566954254 0.0229453121 -0.5280161286
0.0469711233 0.0291639458 -0.4868659770
-0.0657029203 -0.0033574125 -0.4768381909
-0.0369488746 0.0373191349 -0.5009497106
-0.0014911620 -0.0460573976 -0.4637260349
0.0132847880 -0.0072756854 -0.5298885324
0.0166057626 -0.0010615627 -0.5057773070
0.0019377944 0.0039491130 -0.4637836163
-0.0830053875 -0.0229900153 -0.4745551711
-0.0308336961 -0.0305104592 -0.4496294309
-0.0794864625 0.0211796150 -0.5006882409
0.0010203132 0.0082547468 -0.5354529966
0.0542841240 -0.0008750107 -0.4827626697
0.0293726006 0.0345441427 -0.4840151067
-0.0307167474 -0.0582558280 -0.5083176925
-0.0377968200 -0.0667698460 -0.4799714849
0.0658407630 0.0166971880 -0.4951595200
0.0396544937 0.0387866502 -0.4949170837
-0.0850887899 -0.0527381877 -0.5222655387
-0.0860426912 -0.0463725246 -0.5152307723
-0.0433687639 -0.0617290901 -0.4771014679
0.0265673657 -0.0532499330 -0.4727388315
0.0495529249 -0.0214631725 -0.4559573680
0.0383301504 0.0416886245 -0.4936682356
-0.0232989484 -0.0596861353 -0.4764957954
-0.0934015821 -0.0135062461 -0.5127457196
0.0565550829 0.0061031953 -0.5296757332
0.0394931061 0.0424237322 -0.4867879155
-0.0581191001 -0.0025383788 -0.4760359690
0.0144947333 -0.0405798138 -0.4545176856
0.0436579682 -0.0634425965 -0.4614894686
-0.0271577273 0.0020391533 -0.4598751064
0.0048401629 0.0415837158 -0.5004188037
-0.0907983526 0.0024131918 -0.5255320062
-0.0212170554 0.0068581223 -0.4738834524
0.0085717249 0.0112458169 -0.4687741030
-0.0091568884 -0.0777168346 -0.4895655143
0.0367202406 -0.0152996412 -0.4442987667
-0.0496115353 -0.0709781401 -0.4866236814
-0.0011051107 -0.0690058135 -0.4822973632
0.0222212395 -0.0906677069 -0.4908676922
-0.0145862028 0.0210349335 -0.5347376961
0.0145611914 -0.0708601278 -0.4775817786
-0.0361007540 -0.0496379441 -0.4605240780
-0.0366799856 -0.0581755567 -0.5184850341
0.0568630173 0.0260051867 -0.5021896944
0.0566965635 0.0237824119 -0.4968665561
-0.0270497880 -0.0342168740 -0.5158777957
0.0139676480 -0.0057692822 -0.4539692387
-0.0039410215 0.0196005851 -0.4790105175
0.0094083737 -0.0285454652 -0.5104195773
-0.0278704297 -0.0424043386 -0.4598009721
0.0161115711 -0.0190922450 -0.4394652629
-0.0161428624 -0.0459390953 -0.4626067100
-0.0845850837 0.0030305628 -0.4835929911
-0.0311217462 -0.0178427565 -0.5237573655
0.0388361619 -0.0070993007 -0.4595045842
0.0278510860 0.0453768529 -0.4968595967
0.0062431504 -0.0469906889 -0.4746324557
-0.0747997052 -0.0069645719 -0.5502708062
0.0112208501 0.0390333347 -0.4871799797
0.0087240688 -0.0056791325 -0.4544940968
0.0263664623 0.0341844201 -0.4842708573
0.0322142057 0.0168659408 -0.4759871215
0.0273072086 0.0428112932 -0.4929434657
0.0668832952 -0.0248296279 -0.4771810473
-0.0628767656 -0.0706122535 -0.5121375213
0.0337527213 0.0165842534 -0.4762113419
0.0064264226 -0.0519871462 -0.4716976648
-0.0856091558 0.0103133564 -0.4735023141
0.0498407763 -0.0545742473 -0.4875649865
0.0263309063 0.0290910193 -0.4797145586
-0.0230814346 -0.0475350384 -0.5261066603
0.0442663752 -0.0182294790 -0.4489648940
-0.0433528733 -0.0041363314 -0.5439879129
-0.0514497708 -0.0788421146 -0.4857827332
-0.0305232229 -0.0009330536 -0.4701022005
-0.0590688659 -0.0177970950 -0.4663772826
-0.0197843786 -0.0295050239 -0.5304298847
-0.0579716908 -0.0305180641 -0.4543702717
0.0068934061 -0.0175443839 -0.4487182617
0.0522275979 0.0019204203 -0.4851322625
-0.0746414253 0.0230341522 -0.5336391778
-0.0479663343 -0.0276705414 -0.4518547417
-0.0717869755 -0.0223288052 -0.4688130116
-0.0604053200 -0.0026487874 -0.4738608506
0.0141134987 -0.0474185084 -0.5010519797
-0.0608855663 -0.0030503143 -0.4767831836
-0.0650406234 -0.0144288472 -0.5604314307
-0.0362620559 -0.0637957551 -0.4889473213
0.0599487173 -0.0322062399 -0.4910623798
0.0119995212 -0.0458389678 -0.4602346263
-0.0580299820 -0.0236035436 -0.4576412927
-0.0076900346 -0.0055309404 -0.4599617337
0.0064969095 0.0188120320 -0.4748605294
0.0216891803 0.0223470423 -0.4764529169
0.0441912947 -0.0358552092 -0.4523431744
0.0443835948 -0.0358107276 -0.4530295134
-0.0224819031 -0.0282256855 -0.5222544417
0.0356957646 -0.0367311874 -0.5152051449
0.0401095468 -0.0219155522 -0.5262083601
-0.0753482716 -0.0729507064 -0.4992417633
-0.0355187203 0.0094305382 -0.4790534170
0.0353407684 0.0349732623 -0.4606325480
-0.0182814155 0.0228842228 -0.5332775174
0.0416207380 -0.0235696742 -0.4465359701
-0.0131771562 -0.0754779324 -0.4910805860
-0.0108204586 -0.0130591849 -0.4566459060
0.0223291957 0.0085773746 -0.4626535258
-0.0901249118 -0.0220953848 -0.4921395442
-0.0483499886 0.0146068505 -0.4864951805
-0.0141927073 -0.0727226515 -0.4896068790
0.0444169981 0.0213040951 -0.4693171942
0.0591896756 0.0246414672 -0.5021931976
-0.0443099401 0.0003411094 -0.4609443031
-0.0779130906 0.0092098953 -0.5462280280
0.0086151660 -0.0033656901 -0.4571243094
-0.0506491055 -0.0271384396 -0.4587445428
0.0116817481 -0.0012590423 -0.5366526488
-0.0129043158 -0.0127548421 -0.4563139140
0.0144279107 -0.0030958149 -0.4549296319
0.0491891588 -0.0373743198 -0.5205472346
-0.0689660324 0.0241416171 -0.5453320837
-0.0136338991 -0.0191757909 -0.5493427774
0.0304928527 -0.0393474663 -0.4397485093
-0.0441359796 0.0003131198 -0.4758103042
-0.0359378462 -0.0538044368 -0.4792233919
-0.0357340213 -0.0579078589 -0.4769095477
0.0093643094 -0.0307036380 -0.4444215372
0.0228734102 -0.0700141081 -0.4869544218
-0.0013389593 -0.0656351858 -0.4788253992
-0.0590864988 -0.0582595436 -0.4836838049
-0.0526238135 0.0021234323 -0.5483534066
0.0364322484 -0.0551494815 -0.5084337314
-0.0769484532 -0.0187960700 -0.4675983223
-0.0423470742 -0.0505369661 -0.4840041764
-0.0336371640 -0.0056358514 -0.4684962209
-0.0175818084 -0.0182422638 -0.5310312735
-0.0186088993 -0.0529197947 -0.4676713699
-0.0594428342 0.0309290556 -0.5007229504
-0.0403256478 -0.0087714560 -0.4648495984
0.0045051367 0.0400025061 -0.5135288637
0.0019585206 -0.0398554881 -0.4540603516
