-0.16292162 0.02651840 -0.46728137
-0.18117082 -0.00218345 -0.37189686
-0.18334867 -0.03693814 -0.39321166
-0.24243231 -0.01435717 -0.37781981
-0.28953218 -0.02113324 -0.38611406
-0.29781160 -0.00195583 -0.41627511
-0.29460853 -0.01328121 -0.37842211
-0.26141432 0.03678478 -0.42773938
-0.18228316 -0.01338126 -0.35998744
-0.19305460 0.02291306 -0.40515241
-0.20946898 0.00940939 -0.46761560
-0.14591458 0.03503767 -0.37096897
-0.17727165 0.02600770 -0.46802557
-0.27377921 -0.03973139 -0.41258210
-0.23736784 0.02128226 -0.43493336
-0.21766031 0.00830945 -0.33908966
-0.28803828 0.01829042 -0.41288310
-0.20338705 0.01711318 -0.44796875
-0.21427581 0.04306636 -0.43840882
-0.22694452 0.05552254 -0.43920851
-0.16389757 -0.02187725 -0.45874837
-0.22004005 -0.01689696 -0.46918681
-0.20893390 -0.01333946 -0.38966024
-0.14059731 -0.00051977 -0.46756643
-0.20642738 0.03171209 -0.43227559
-0.24932839 0.01128068 -0.33990267
-0.22648592 -0.02180921 -0.43667275
-0.28219160 -0.01050204 -0.36757511
-0.24825016 -0.02291493 -0.36706147
-0.16949520 0.06071774 -0.40876091
-0.18524802 -0.00465746 -0.36664161
-0.25375420 -0.01242570 -0.35455522
-0.28449672 0.02406504 -0.39504009
-0.25097540 0.04233352 -0.42190388
-0.25200617 0.02224853 -0.40127623
-0.13598581 -0.00096779 -0.43949306
-0.24612455 0.02112567 -0.39333710
-0.25822383 0.05632240 -0.39615735
-0.16555122 0.05361796 -0.39245561
-0.18768401 0.02671051 -0.41161644
-0.15430884 0.06743890 -0.41002923
-0.28424746 -0.01536215 -0.42135280
-0.21712545 -0.01293870 -0.44943514
-0.29537696 -0.00814233 -0.41036814
-0.22540820 0.03146302 -0.36450848
-0.19504184 0.03966931 -0.37068138
-0.20350698 -0.01852143 -0.35288265
-0.21577169 -0.01333382 -0.37483740
-0.17208534 -0.01712631 -0.38536036
-0.24000934 -0.04114672 -0.42123425
-0.28410810 0.01878566 -0.36608845
-0.27947274 0.05860512 -0.40649554
-0.22662185 -0.02770915 -0.44499072
-0.28139973 0.05593278 -0.41307279
-0.22265820 0.01177418 -0.45933166
-0.27020115 -0.00339009 -0.44740933
-0.28846657 -0.00899475 -0.41942641
-0.18734150 0.06161220 -0.39849669
-0.29356262 0.00012240 -0.39395174
-0.20156078 -0.00620420 -0.36667928
-0.23530321 0.03703031 -0.40557998
-0.15103921 0.05012847 -0.38204172
-0.28892449 -0.02679635 -0.40896073
-0.19398813 -0.00136469 -0.36663765
-0.22289982 0.03886680 -0.35965130
-0.24941625 -0.04367455 -0.41440335
-0.20816734 0.00913105 -0.46300927
-0.25861388 0.03899492 -0.40605196
-0.18775806 0.05053893 -0.41120616
-0.21508066 0.05088986 -0.42047042
-0.14979516 -0.03574695 -0.43877229
-0.26045901 0.05845051 -0.41415495
-0.21445681 0.06088455 -0.44198775
-0.24926040 -0.03629633 -0.41556817
-0.12868595 0.02189123 -0.42271167
-0.25250137 0.03052860 -0.42964754
-0.19922876 0.04960813 -0.38227111
-0.25339517 -0.00582984 -0.35307631
-0.25025085 0.02056493 -0.42553338
-0.24527355 0.03716791 -0.40081578
-0.15871412 -0.00408495 -0.37510806
-0.19577499 0.04654717 -0.38099244
-0.24403851 0.04004522 -0.36228496
-0.27686048 -0.04705406 -0.43554863
-0.18011288 -0.01877213 -0.36255282
-0.21107936 -0.02682405 -0.45105439
-0.20209885 -0.03265438 -0.38186997
-0.21439828 0.04708010 -0.37702945
-0.25130203 0.02616444 -0.44135088
-0.30020314 -0.01706578 -0.44181442
-0.27827212 0.01514881 -0.42956176
-0.16529417 0.06529734 -0.43638721
-0.22614396 -0.00186277 -0.46006456
-0.25832298 -0.00125023 -0.34990332
-0.27676022 0.04442813 -0.37741622
-0.17327949 0.01978357 -0.47366247
-0.17671061 0.04578605 -0.42246544
-0.17584197 -0.05214927 -0.46501440
-0.12663738 0.03275878 -0.39686313
-0.27491316 -0.00534075 -0.44727647
-0.17760256 0.04638642 -0.41143629
-0.16043964 -0.02750544 -0.44324222
-0.22613056 0.04055010 -0.41402674
-0.21271642 0.05738438 -0.37391698
-0.24662298 -0.03584432 -0.43917865
-0.27455828 0.02535434 -0.39639872
-0.17757094 -0.04020419 -0.44199875
-0.23346628 0.05163698 -0.39568385
-0.24625719 0.04776538 -0.38634798
-0.29482630 -0.01754848 -0.42440385
-0.19932149 0.01366788 -0.44812307
-0.13626403 -0.01998221 -0.37172842
-0.23317847 -0.04527511 -0.43607685
-0.19124396 -0.03709053 -0.39639983
-0.24702021 -0.01791147 -0.34906512
-0.23165178 -0.00816203 -0.32873645
-0.14471099 0.04758595 -0.37997210
-0.19981319 -0.03636873 -0.40624639
-0.26133707 -0.03599588 -0.43523696
-0.28618535 -0.00305231 -0.42375791
-0.22550419 -0.00639970 -0.38909039
-0.20535523 0.02489607 -0.46132880
-0.14104331 0.02736031 -0.41964528
-0.21678767 0.04278012 -0.41669974
-0.24031428 -0.02665644 -0.43120462
-0.17423786 0.03086429 -0.42796835
-0.27397805 -0.01874888 -0.37286294
-0.29634768 -0.03008157 -0.40768808
-0.15833589 0.02744707 -0.45447731
-0.14652185 -0.03211086 -0.38699591
-0.14471278 0.02808221 -0.42213362
-0.13477859 0.00358028 -0.36231449
-0.26988018 -0.00480676 -0.37941095
-0.28240114 -0.00276404 -0.42568079
-0.20799011 -0.03329063 -0.44632438
-0.19915457 -0.03645374 -0.39501020
-0.19706890 0.05217364 -0.42554277
-0.19541201 0.01127557 -0.44776729
-0.22005288 -0.00948848 -0.36432829
-0.27832472 0.05014557 -0.37502989
-0.12017128 0.02901046 -0.37414074
-0.15967262 0.04608975 -0.37841436
-0.20109721 -0.01224872 -0.37310997
-0.24317399 0.06121780 -0.38925740
-0.18632892 -0.03413986 -0.38470662
-0.13207468 -0.02324024 -0.38833365
-0.25441718 0.03994229 -0.40495393
-0.25309178 0.01857601 -0.43555972
-0.19198187 0.01252436 -0.35645956
-0.27825636 -0.01501890 -0.36776441
-0.13929226 -0.01506131 -0.47335076
-0.23499402 0.01415956 -0.41331270
-0.17344791 -0.00583161 -0.37150636
-0.18571724 0.03301689 -0.44498688
-0.22476840 0.02336261 -0.35043624
-0.21749341 0.05408761 -0.42081004
-0.23316704 0.04129349 -0.38242716
-0.25627571 0.02700971 -0.42308828
-0.24322581 -0.04077248 -0.42618853
-0.20356809 0.00592072 -0.46954101
-0.20764133 -0.01602516 -0.34582055
-0.24211177 -0.02460798 -0.35622165
-0.25859609 0.04672659 -0.36261317
-0.18806987 -0.02357241 -0.38816440
-0.21441990 0.03800099 -0.34787038
-0.16094986 0.05434741 -0.43681493
-0.23165101 -0.02989144 -0.44970679
-0.13415149 0.00817427 -0.45695868
-0.25750425 0.05445422 -0.35950124
-0.18087861 -0.00479775 -0.35455644
-0.15672624 0.00291484 -0.35587350
-0.27786565 0.01714204 -0.39275724
-0.13579115 0.03248800 -0.38397455
-0.23104441 0.03244910 -0.41846836
-0.20496418 -0.01640365 -0.47453842
-0.15414646 -0.00967381 -0.36211711
-0.22396637 0.04363428 -0.42106768
-0.14644106 0.06638229 -0.39792147
-0.28725451 0.03209566 -0.36101648
-0.23095270 -0.02006338 -0.46234304
-0.23067915 0.04717120 -0.38259685
-0.16272333 0.03138218 -0.44533738
-0.15763083 -0.03546191 -0.46552247
-0.14753076 -0.03444638 -0.43072385
-0.24715692 -0.04076028 -0.40142098
-0.17452475 -0.00379358 -0.36016011
-0.25812891 0.04869211 -0.42520940
-0.25970078 -0.01717220 -0.43853447
-0.18108226 0.05969342 -0.43598387
-0.16495278 -0.02536114 -0.42558920
-0.23584880 0.02257429 -0.39902785
-0.13143907 -0.01772387 -0.37762657
-0.16891645 0.02117009 -0.47361341
-0.26868564 0.05770069 -0.39431038
-0.23381539 -0.01956607 -0.43439499
-0.16613351 0.04692764 -0.38196754
-0.20709102 -0.01677364 -0.38200143
-0.16508782 -0.02274953 -0.36542946
-0.13346873 0.01494020 -0.39716586
-0.23585926 -0.03392176 -0.46475041
-0.17167230 -0.00268631 -0.47142866
-0.26988211 -0.02104197 -0.38215932
-0.24953879 -0.01577462 -0.43315238
-0.27160445 0.05780341 -0.41479659
-0.21234946 -0.03615292 -0.36677966
-0.27804303 -0.00402595 -0.42982274
-0.23983750 -0.02803463 -0.37230200
-0.22568199 0.01687283 -0.33524951
-0.28437415 0.00647762 -0.37197420
-0.20124209 0.05785644 -0.41448122
-0.13815370 0.00656788 -0.35801455
-0.25495005 0.03269283 -0.43408936
-0.21327123 -0.02003890 -0.45745811
-0.21445714 0.01422882 -0.35076734
-0.15944457 0.00713517 -0.35393873
-0.15225175 -0.01854647 -0.39713937
-0.23557343 0.01951113 -0.40213537
-0.22006173 0.03590734 -0.41108242
-0.16372450 0.02356682 -0.45114538
-0.19798571 -0.00495211 -0.44908950
-0.13309182 0.01720382 -0.43031454
-0.26727298 0.00776126 -0.34138533
-0.20455326 0.03598399 -0.36084449
-0.16624986 0.03847971 -0.36598563
-0.25035515 -0.05691908 -0.44618142
-0.22599845 0.05356775 -0.41026232
-0.14950983 0.06534065 -0.41174141
-0.14803490 -0.03138278 -0.47544277
-0.13485718 0.04673511 -0.39656544
-0.28326219 -0.00355863 -0.37832034
-0.28872353 -0.04228422 -0.44149885
-0.18436149 0.01282066 -0.46763945
-0.20632693 0.05169280 -0.43934351
-0.22146407 0.05280736 -0.44110546
-0.19325925 -0.03724459 -0.40747154
-0.28670913 0.02335405 -0.36382610
-0.28779465 -0.01393843 -0.39324424
-0.23107472 0.05096355 -0.40287611
-0.18386471 0.03460329 -0.41289809
-0.23748778 0.00477908 -0.34503537
-0.22526370 0.03748144 -0.43996915
-0.16266714 0.02679152 -0.36606842
-0.14251243 0.00463157 -0.42526314
-0.15745161 -0.00443140 -0.34713149
-0.28719053 0.01267505 -0.42727399
-0.14109415 -0.02334649 -0.41906223
-0.13937232 -0.01265905 -0.45533848
-0.29469377 -0.00447319 -0.40190768
-0.28144646 -0.04080385 -0.42552030
-0.28349036 -0.02442384 -0.36413670
-0.27705628 0.05491155 -0.42510191
-0.24230771 -0.00261032 -0.34154275
-0.21821958 0.01206879 -0.46267080
-0.16654888 -0.02320715 -0.47515780
-0.18244047 0.02858437 -0.41909796
-0.26635531 -0.05664145 -0.44232476
-0.22046547 0.02080160 -0.40367237
-0.11030272 0.03575702 -0.39993426
-0.24416953 -0.00427962 -0.34506479
-0.24870373 0.04287889 -0.39260089
-0.19741257 -0.05819967 -0.46951178
-0.22087550 -0.02373413 -0.37777394
-0.18211001 -0.03907746 -0.40294871
-0.24526203 0.02143249 -0.43233788
-0.22835848 -0.00103325 -0.34657487
-0.24035086 -0.01006046 -0.34269992
-0.19501504 0.05421703 -0.43843499
-0.29382852 -0.00969696 -0.44134694
-0.18750624 0.03043569 -0.43981853
-0.25386205 -0.00628046 -0.45259109
-0.24456948 0.01563905 -0.34604025
-0.25718495 -0.01077698 -0.34222877
-0.18183984 0.03000040 -0.36419189
-0.15262613 -0.03918582 -0.42550474
-0.28968427 -0.01588252 -0.37839180
-0.26561916 -0.02962684 -0.44286418
-0.28413567 0.04494348 -0.40664229
-0.11970082 0.01250299 -0.37790111
-0.26181844 -0.03026540 -0.43469784
-0.24804631 -0.01658770 -0.35708246
-0.19688186 0.02808394 -0.41035682
-0.21864854 -0.06705217 -0.47977638
-0.26996914 -0.03410317 -0.42811903
-0.16065326 -0.02891913 -0.47426009
-0.14901564 -0.01459333 -0.36546084
-0.17811602 -0.00207332 -0.40732142
-0.18213065 -0.04573332 -0.42842588
-0.23227851 -0.01551537 -0.35626930
-0.27981669 -0.02771587 -0.39900374
-0.15814140 -0.02705100 -0.38199794
-0.18335831 0.00204524 -0.47246292
-0.25017574 0.05470056 -0.37037629
-0.26663488 -0.00125196 -0.44499215
-0.25554383 0.04322784 -0.41178086
-0.23561612 -0.00258528 -0.38936213
-0.27677086 0.04249960 -0.40785709
-0.19212048 -0.02678292 -0.39318639
-0.28458357 0.00629983 -0.45152587
-0.18745120 0.00725900 -0.46021944
-0.22577262 -0.01259258 -0.35253018
-0.25429469 0.03756605 -0.39606899
-0.16460319 -0.00249303 -0.47595650
-0.23038252 0.04933871 -0.44390911
-0.17508532 -0.00844035 -0.39095211
-0.29036638 -0.05084694 -0.44876125
-0.19043832 0.05951220 -0.44026291
-0.27065286 0.00228993 -0.35536212
-0.27367955 0.05199175 -0.37537044
-0.15245557 -0.02287646 -0.47129419
-0.14728341 -0.01686168 -0.36834341
-0.20610492 0.03743118 -0.43748289
-0.14385554 0.02782229 -0.44408536
-0.17819312 -0.00602023 -0.47251326
-0.21876453 -0.00120781 -0.35613123
-0.24524201 -0.00488458 -0.35426188
-0.14613795 -0.01159214 -0.42365000
-0.14095230 -0.00338043 -0.41966456
-0.15248671 -0.03737561 -0.46543837
-0.25442371 -0.00077823 -0.45891130
-0.24703872 0.01432745 -0.43157575
-0.15110594 0.05949806 -0.39939961
-0.25335726 0.00286108 -0.44967681
-0.21597956 0.05462756 -0.39934894
-0.24364874 0.04200367 -0.39580211
-0.12347609 -0.00744649 -0.43169102
-0.28633863 -0.04128459 -0.43532601
-0.18023777 -0.05349392 -0.45891422
-0.19948789 -0.04013241 -0.43191868
-0.15412359 -0.03123175 -0.46461701
-0.15444458 0.04032161 -0.42806676
-0.20908803 -0.02023196 -0.46956816
-0.17108233 -0.03062974 -0.37406787
-0.23260987 -0.00931333 -0.37077874
-0.28336275 -0.04213596 -0.43193096
-0.27498108 0.02833276 -0.43720055
-0.15560156 0.05810289 -0.43598974
-0.15563861 -0.03430093 -0.47256529
-0.28940749 -0.03886855 -0.41870126
-0.15544529 -0.00300934 -0.35829195
-0.17473528 -0.03223177 -0.41611326
-0.26638290 0.03793092 -0.35555300
-0.21110880 -0.06387736 -0.47544742
-0.12527579 -0.01527736 -0.38877252
-0.22934729 -0.00724659 -0.34761235
-0.28105712 -0.04931837 -0.43671292
-0.22450964 -0.02260584 -0.35289603
-0.27588326 -0.00860769 -0.44464988
-0.29988763 0.00105726 -0.41030598
-0.28134939 -0.01936757 -0.43381956
-0.25820372 -0.02630650 -0.39402422
-0.27596194 0.05793920 -0.39975280
-0.23496008 -0.00269441 -0.39589664
-0.25339156 0.03278168 -0.39734864
-0.24223848 -0.06368420 -0.46312705
-0.19860114 -0.01065874 -0.38595209
-0.27919459 0.05043723 -0.41703504
-0.25855476 0.00897203 -0.44072559
-0.27999476 -0.01810149 -0.42497614
-0.15786660 -0.01084651 -0.34980714
-0.17433198 0.01938550 -0.36179876
-0.29555964 -0.00887677 -0.39160499
-0.27523929 0.03380726 -0.35580498
-0.25091022 -0.03479425 -0.45487130
-0.24946842 -0.03320225 -0.40973684
-0.29993647 -0.00344011 -0.44288284
-0.20602006 0.00252950 -0.46131885
-0.24128860 -0.00341099 -0.43584949
-0.13456012 0.00306448 -0.46060735
-0.23196502 0.04606610 -0.39334813
-0.20455869 0.02712492 -0.45233074
-0.27722514 0.02654304 -0.38611427
-0.28003049 0.04540850 -0.41222632
-0.19389802 -0.04201363 -0.41831404
-0.28974128 -0.03736235 -0.39142919
-0.22941428 0.04468547 -0.40321246
-0.19672361 0.04346961 -0.41056710
-0.14858440 0.02806300 -0.44735357
-0.24886075 0.00826938 -0.43913254
-0.27191544 -0.02334762 -0.39249727
-0.24952814 0.02726725 -0.41211134
-0.16893084 0.02346683 -0.45381343
-0.13704062 0.01008241 -0.40194973
-0.17951357 -0.01731697 -0.38781279
-0.21014903 0.05971897 -0.43376026
-0.27089435 -0.01510006 -0.37686709
-0.29955575 -0.02639181 -0.42834261
-0.23378497 -0.02414344 -0.45045274
-0.30248660 -0.00606038 -0.40877023
-0.27956238 0.02653642 -0.39597565
-0.22627327 -0.03869195 -0.40861848
-0.26061305 0.05167601 -0.39816082
-0.14175311 -0.00513657 -0.35094833
-0.28306821 -0.04838724 -0.43185279
-0.20633230 -0.04074559 -0.43697158
-0.13798314 0.00768751 -0.41783008
-0.18930665 0.02554469 -0.42968294
-0.16308880 0.05958270 -0.40241554
-0.22763096 0.04436373 -0.41897035
-0.23829922 0.02042828 -0.33410379
-0.22766480 0.01543545 -0.45050371
-0.25992197 -0.00254959 -0.44549844
-0.18153064 0.03313506 -0.40039560
-0.21091402 -0.03244206 -0.42278305
-0.28116602 -0.02743849 -0.38763803
-0.16754419 -0.04590432 -0.45954031
-0.18540442 -0.04541992 -0.43400154
-0.19692196 -0.00929557 -0.36180434
-0.18321437 0.00392110 -0.47807059
-0.25470623 0.01193903 -0.43985602
-0.23906447 0.01938428 -0.44578323
-0.16787747 0.01671691 -0.46535999
-0.13033646 -0.00916635 -0.41947380
-0.27233291 0.00871556 -0.43627024
-0.19057314 0.01194991 -0.46779564
-0.28563854 0.01231581 -0.36621144
-0.13207901 0.01603908 -0.45128977
-0.18218294 0.04258189 -0.39098060
-0.19787256 0.01508053 -0.46070361
-0.18860605 -0.04943704 -0.45743495
-0.25569275 0.06091836 -0.37001207
-0.23136982 0.03497115 -0.36934209
-0.24739400 0.04448117 -0.40301219
-0.28810561 0.00971767 -0.35431403
-0.28242177 -0.02960065 -0.41860080
-0.23907584 0.03936350 -0.36937276
-0.28672126 -0.02422963 -0.38353786
-0.17949834 0.03023694 -0.45654538
-0.19437535 0.02966730 -0.41870677
-0.18212354 -0.02611532 -0.36943424
-0.16515395 -0.01727964 -0.37950060
-0.21062361 -0.04878853 -0.44862965
-0.14799666 -0.03055142 -0.44887853
-0.24865034 -0.03094668 -0.36382085
-0.25477052 -0.03506016 -0.37908360
-0.20145217 0.02604318 -0.46391189
-0.12992199 -0.00205586 -0.45722914
-0.22949930 0.02197149 -0.41672203
-0.12947807 0.00765828 -0.46362266
-0.17987841 0.01987011 -0.41996101
-0.22179104 0.02034233 -0.39735422
-0.28869370 -0.03142092 -0.41687730
-0.18681788 0.05744777 -0.40452775
-0.23672397 0.03652057 -0.41064787
-0.13490131 -0.00680709 -0.43075716
-0.20420516 -0.02780057 -0.36436236
-0.21339062 -0.01702684 -0.37787795
-0.15352909 -0.00710123 -0.47166777
-0.26887390 0.01587400 -0.44577762
-0.28499854 0.02541616 -0.38003033
-0.19296169 0.00464996 -0.34757826
-0.25836587 0.04672656 -0.41788480
-0.16566870 -0.01096713 -0.39892063
-0.19904365 0.02471175 -0.35742986
-0.26100168 0.03894467 -0.42065203
-0.13682938 -0.00693037 -0.44271713
-0.27152213 -0.04053575 -0.42561474
-0.20370290 -0.03161858 -0.37849891
-0.15301614 -0.01135578 -0.38292122
-0.14585505 0.00946306 -0.46066076
-0.21187457 -0.01837066 -0.35342667
-0.14191514 0.00323384 -0.46430969
-0.21449636 0.02359423 -0.44748363
-0.21274400 0.00543667 -0.35093686
-0.26210690 -0.03513297 -0.45645601
-0.13190031 0.01564818 -0.43688378
-0.24104451 0.01047829 -0.34198150
-0.15711728 -0.04094724 -0.46389854
-0.26316643 -0.02237532 -0.36101753
-0.27445954 0.01432171 -0.43239206
-0.26384526 0.05054034 -0.41355398
-0.23579553 -0.00016754 -0.44157237
-0.27900368 -0.03474102 -0.41921180
-0.23372197 0.03309010 -0.35775062
-0.26481733 -0.03252152 -0.36502647
-0.15778364 0.00721309 -0.47846323
-0.15155312 -0.00829512 -0.37800154
-0.19360030 0.01673861 -0.40633851
-0.25173092 0.04508060 -0.36381322
-0.15189329 0.06856519 -0.40339231
-0.26625878 -0.01538573 -0.44101596
-0.17487350 -0.04880054 -0.45762417
-0.27699813 -0.04882781 -0.42757165
-0.23246928 0.04036460 -0.39862889
-0.21078137 -0.02895448 -0.37897483
-0.20399852 0.00509467 -0.45844188
-0.21612066 -0.04566395 -0.44102111
-0.18628681 0.01938195 -0.41531408
-0.28579208 0.03723961 -0.38446471
-0.13505737 0.03099664 -0.37554041
-0.17891696 0.03145347 -0.42443293
-0.24725726 -0.03100275 -0.44323125
-0.18843076 -0.04058662 -0.41736349
-0.16319673 -0.04166205 -0.46311265
-0.13628235 0.03809483 -0.38153285
-0.18886210 0.00810300 -0.41441321
-0.17827606 -0.04517289 -0.43968683
-0.24649793 0.01740483 -0.43797782
-0.16174439 -0.02977448 -0.45371467
-0.23858100 0.05061561 -0.42386368
-0.16846269 -0.00868781 -0.46176505
-0.18538098 -0.00035843 -0.36496192
-0.27359980 0.05052274 -0.41243219
-0.17850479 -0.01006384 -0.40089101
-0.27472907 -0.01948697 -0.38767898
-0.29363492 0.01329276 -0.37811357
-0.27991706 -0.02839269 -0.43501279
-0.22174375 -0.05434221 -0.45257881
-0.22498876 0.02741836 -0.39331409
-0.28384385 -0.02224328 -0.39866716
-0.15761983 -0.02446551 -0.38503239
-0.19150172 0.00131212 -0.45649028
-0.21111709 0.05492381 -0.43280673
-0.20492509 -0.04919213 -0.44093341
-0.16274203 0.02982795 -0.46963313
-0.17040072 0.00625656 -0.36293197
-0.29779637 -0.01665307 -0.40090534
-0.17377593 0.02468032 -0.41574129
-0.19102448 -0.00801150 -0.34346709
-0.28668860 0.01615303 -0.39376044
-0.27976841 -0.02803659 -0.41595930
-0.26617643 -0.01340077 -0.36980253
-0.28574881 -0.01565635 -0.38849235
-0.24372151 0.05257947 -0.42826322
-0.23311073 0.04923985 -0.36828852
-0.15335347 0.05418692 -0.37578329
-0.29484043 -0.01224098 -0.39508533
-0.16520531 -0.03398850 -0.37932390
-0.29268205 0.01507161 -0.40414011
-0.28882352 -0.01756039 -0.42962843
-0.14965178 -0.00167417 -0.38772857
-0.13880505 0.00621918 -0.45346886
-0.12536395 0.01628993 -0.41085020
-0.27650908 -0.04561360 -0.42246205
-0.14107907 0.04973412 -0.41257364
-0.21290730 0.01061037 -0.46442223
-0.25253895 -0.02972623 -0.40163901
-0.14354739 -0.02754210 -0.38895094
-0.22828220 -0.01446546 -0.35915774
-0.19107446 -0.01589935 -0.39918444
-0.30000722 -0.01162118 -0.40663889
-0.22209345 -0.06403562 -0.47347662
-0.29447514 -0.00230218 -0.43308103
-0.19050995 -0.01936436 -0.37396070
-0.19000188 0.06412566 -0.40163648
-0.18196753 0.01969721 -0.36068523
-0.27475852 -0.01197509 -0.42622945
-0.18756974 0.01419104 -0.40452036
-0.30029708 0.01324026 -0.39374039
-0.19049270 -0.02752854 -0.39700839
-0.28374106 0.01479759 -0.38442484
-0.28620401 0.02170238 -0.42548126
-0.20658232 0.00443084 -0.35400370
-0.22922613 -0.02663177 -0.40784141
-0.23621857 -0.00735363 -0.43906453
-0.15549302 0.01929764 -0.46916330
-0.17331342 0.01179653 -0.46115190
-0.24196859 -0.02599551 -0.46314183
-0.16308951 -0.01576325 -0.37325451
-0.12966301 0.03109203 -0.41638827
-0.18521081 -0.02029453 -0.47143257
-0.24225652 -0.01326378 -0.33858895
-0.17220630 -0.00119359 -0.47535995
-0.24079737 -0.06545709 -0.46745259
-0.15538366 -0.00757932 -0.39712924
-0.20663650 0.05892082 -0.44627151
-0.25219831 -0.01687881 -0.38058230
-0.13962185 -0.02247305 -0.40548620
-0.26641479 0.02546338 -0.33561242
-0.16079198 -0.02376927 -0.44948798
-0.20260213 0.06392545 -0.39168477
-0.23139971 0.01730365 -0.44017822
-0.29391325 -0.01866182 -0.37630081
-0.22734746 -0.00770500 -0.35661998
-0.17941526 0.03637058 -0.44169891
-0.25161606 0.02313273 -0.40626615
-0.27450007 -0.01784679 -0.39388427
-0.26787210 -0.01371398 -0.38987416
-0.14518858 -0.00116111 -0.39789909
-0.24848674 0.02977495 -0.34931982
-0.13410074 0.00506142 -0.44168156
-0.14827918 0.00849384 -0.36927748
-0.29845369 0.01123080 -0.42531651
-0.15398940 -0.02302558 -0.39497739
-0.15213561 0.01071102 -0.35434610
-0.12407020 0.02228301 -0.39471874
-0.24536613 -0.02405576 -0.39497712
-0.28040934 -0.00825160 -0.36466435
-0.24952951 0.03347147 -0.39965072
-0.28758913 -0.02909628 -0.43009618
-0.25441080 -0.01383270 -0.45852020
-0.27772248 -0.00476395 -0.38818350
-0.16011025 0.00231772 -0.46971187
-0.28584650 0.00072421 -0.35526699
-0.19601637 -0.00721440 -0.36975899
-0.12293937 -0.00653770 -0.44064602
-0.19980295 -0.03198799 -0.37887460
-0.28667888 0.01147307 -0.43435091
-0.15052922 -0.03367485 -0.40890032
-0.20832048 0.03281799 -0.42836058
-0.21553285 -0.01275794 -0.34887400
-0.30936036 -0.01538536 -0.42763230
-0.26509675 -0.04182969 -0.45291787
-0.18041950 -0.03187041 -0.43134269
-0.23765801 0.01467833 -0.38653773
-0.21889666 -0.03220788 -0.38025618
-0.17423452 0.00955090 -0.48202690
-0.17310604 -0.02584800 -0.42253640
-0.20971090 -0.03692757 -0.42706585
-0.24629323 -0.02967411 -0.40465036
-0.30143392 -0.04728958 -0.43619928
-0.16237037 0.06400549 -0.44910192
-0.14663698 0.03312813 -0.45117870
-0.24975188 0.01554159 -0.34582773
-0.15174581 0.02362290 -0.46076292
-0.27345648 0.02933975 -0.39194489
-0.27996388 0.02445963 -0.40063715
-0.20027392 0.06358329 -0.40274557
-0.20756051 0.05812413 -0.44260144
-0.23536468 -0.01786786 -0.46266204
-0.27399838 0.04484423 -0.41700155
-0.19591366 -0.05071238 -0.45578927
-0.26465863 -0.00819438 -0.37787944
-0.14469983 0.02976792 -0.42713481
-0.19562577 0.01881869 -0.35691875
-0.28843862 0.03536180 -0.39453804
-0.20785844 0.02087611 -0.45317352
-0.22390443 -0.03491661 -0.38654318
-0.19511896 -0.03497026 -0.38724750
-0.18216763 -0.04016803 -0.41043508
-0.25899038 -0.03797515 -0.38688916
-0.30333549 0.00036418 -0.39414075
-0.15598993 0.05172047 -0.45066801
-0.28949529 0.01106268 -0.39400950
-0.24459125 -0.00109065 -0.46490088
-0.23010613 0.03298416 -0.40355355
-0.23675686 -0.01245519 -0.46157408
-0.27871987 0.06078523 -0.42028835
-0.16524494 0.03849066 -0.45199704
-0.13091937 0.02021916 -0.37019154
-0.23696356 0.05494289 -0.43730369
-0.27210376 -0.03761891 -0.43988907
-0.25049919 0.05357926 -0.40191057
-0.16021079 0.06106606 -0.41979003
-0.14255053 0.00177522 -0.42812350
-0.18001342 -0.02692439 -0.40364337
-0.23026268 -0.03851340 -0.37972653
-0.13737701 -0.01171883 -0.39858589
-0.25900936 0.05131306 -0.37267110
-0.19072385 0.02382882 -0.43675998
-0.18807635 -0.01263819 -0.34831566
-0.13861287 0.05738092 -0.40426183
-0.18865766 0.02004200 -0.46064088
-0.24440160 0.02082970 -0.34358132
-0.15299998 0.05095613 -0.42694575
-0.23430641 0.05124034 -0.41215655
-0.24330688 0.04466622 -0.37226340
-0.19026050 0.01089385 -0.40613359
-0.22890870 0.02814994 -0.42845035
-0.30000189 -0.00226745 -0.38598517
-0.14462337 0.00876505 -0.37522632
-0.15242332 -0.01842353 -0.40639269
-0.20106511 0.03137032 -0.42348394
-0.19957599 0.01693791 -0.35489604
-0.28380162 0.00237925 -0.37686044
-0.25560346 -0.02691408 -0.43060678
-0.16200645 0.03648977 -0.46529222
-0.24380510 -0.00599627 -0.33992252
-0.15153791 0.02785577 -0.45143527
-0.25533974 0.05755334 -0.40252149
-0.27103329 -0.00674632 -0.35369980
-0.17698824 0.00211869 -0.46709892
-0.14014210 0.04102484 -0.43497968
-0.26493931 0.03597303 -0.42538095
-0.15841767 -0.00177023 -0.38043329
-0.12522230 0.02120888 -0.40179330
-0.18593031 -0.01158906 -0.45294634
-0.28612989 0.03163864 -0.40705550
-0.22300883 -0.03184066 -0.38054368
-0.24845548 0.04555823 -0.36671329
-0.29663199 0.01607483 -0.41440895
-0.10454369 0.03154358 -0.38956442
-0.25211757 -0.01978157 -0.34995306
-0.22595930 -0.04164625 -0.41882718
-0.27999267 -0.02330218 -0.39220241
-0.23898843 -0.04104118 -0.40824130
-0.13868828 -0.00289932 -0.42740098
-0.19254951 0.05440142 -0.44375810
-0.13261706 0.04169227 -0.39060292
-0.23222207 -0.03297873 -0.37077779
-0.13855213 -0.01286541 -0.37123317
-0.14747536 -0.02123824 -0.44205400
-0.17186910 -0.04275049 -0.42676872
-0.27214208 -0.01966177 -0.43130159
-0.16439965 -0.02012856 -0.39951080
-0.17156212 0.03648937 -0.36049128
-0.28236321 0.01413077 -0.42640144
-0.17785783 0.01974806 -0.45741883
-0.27276158 -0.01235983 -0.42211625
-0.15991595 -0.03674237 -0.40158388
-0.18486679 0.05404247 -0.42163172
-0.16874294 0.03544986 -0.45673186
-0.19433403 -0.02454359 -0.38031283
-0.26057824 0.01720463 -0.44594318
-0.20990491 -0.01521411 -0.39290389
-0.18410112 0.05344677 -0.38678214
-0.12659766 -0.00398016 -0.37259427
-0.16977531 -0.01143857 -0.35313463
-0.21568233 0.05572741 -0.43028316
-0.27551693 -0.01725014 -0.43079168
-0.15883952 0.05147926 -0.43198684
-0.26138222 -0.02324758 -0.43527085
-0.25502557 -0.02658849 -0.39609450
-0.19200641 0.02896664 -0.36123109
-0.22672693 0.05321119 -0.37094837
-0.21389465 0.00656146 -0.45471367
-0.17223963 0.03149540 -0.36584878
-0.13623822 -0.00717034 -0.36802521
-0.22506055 0.01680483 -0.40096846
-0.12647605 0.01697023 -0.40712503
-0.14410250 -0.02050134 -0.43938863
-0.22526529 0.05127819 -0.38147712
-0.18351577 0.04167854 -0.44947773
-0.23061404 0.05746239 -0.38057235
-0.29392919 0.00927970 -0.43257159
-0.20918688 -0.01007136 -0.45377117
-0.18159220 -0.01862866 -0.40807474
-0.15892753 0.04156094 -0.43028376
-0.25612757 0.03702116 -0.43246180
-0.27355555 -0.05228965 -0.43413565
-0.14294446 -0.01367221 -0.36622724
-0.27605408 0.03405249 -0.39207935
-0.23667720 0.05084456 -0.39846554
-0.28947386 -0.02724640 -0.41790166
-0.24948063 -0.00252200 -0.44664645
-0.13448420 -0.00729498 -0.38955021
-0.26781219 0.05278992 -0.38878477
-0.18994974 0.02754178 -0.46679485
-0.28906745 -0.03997684 -0.40991321
-0.21663344 0.03015288 -0.45296293
-0.23306665 -0.01138237 -0.35558885
-0.18967097 -0.02784263 -0.43844914
-0.24460478 0.02818911 -0.41830710
-0.17880075 0.03293442 -0.41559571
-0.25833008 0.02392450 -0.43282774
-0.24789256 0.03766124 -0.41546348
-0.14750646 -0.01020631 -0.39079356
-0.25100714 -0.04051854 -0.41582164
-0.21822275 -0.01526872 -0.39154342
-0.14739417 -0.02087418 -0.42818767
-0.26611528 -0.05002344 -0.43232492
-0.13937205 -0.00012417 -0.45588309
-0.23512091 -0.03926374 -0.39941132
-0.19640189 -0.03371863 -0.39848092
-0.14146662 0.03622277 -0.44002777
-0.28537026 0.05544962 -0.41859195
-0.22586986 0.04915735 -0.39327905
-0.26574770 0.06315064 -0.39462963
-0.18560936 -0.00552405 -0.37901786
-0.19960420 0.00597616 -0.46847481
-0.17503974 0.02816010 -0.44774342
-0.17860942 -0.03450455 -0.43616056
-0.28389701 0.00776897 -0.44639748
-0.16989908 0.03181732 -0.41600496
-0.15858343 -0.01710312 -0.36578345
-0.27877787 0.00008546 -0.37636530
-0.16934232 0.01747973 -0.36178690
-0.14602292 -0.02892341 -0.48100677
-0.18438397 -0.01798262 -0.36365315
-0.14644644 -0.02642190 -0.42004061
-0.22995357 0.01218695 -0.40187633
-0.23234339 0.05741040 -0.39272642
-0.26592916 -0.03223850 -0.40802523
-0.18765537 -0.03989638 -0.44137153
-0.23461135 0.01933347 -0.40644166
-0.19218521 0.01364013 -0.41626400
-0.27304798 -0.02722618 -0.41474688
-0.24766287 -0.00441641 -0.45639825
-0.22666261 0.04358601 -0.40050021
-0.15916717 -0.00986033 -0.46257427
-0.27565202 0.01313233 -0.35624909
-0.18618535 0.04220925 -0.39021707
-0.23281924 -0.02951083 -0.43237844
-0.24545921 0.04026161 -0.41293332
-0.21589445 0.04133558 -0.43455160
-0.18447016 0.03046899 -0.42758545
-0.29224312 -0.04236030 -0.43230489
-0.14842898 -0.02729438 -0.45652089
-0.28125989 0.04654732 -0.38072136
-0.22000968 0.06072703 -0.38601595
-0.10434272 0.03187422 -0.39684546
-0.29021922 -0.02161397 -0.39096576
-0.19288310 -0.03914867 -0.41168913
-0.26283184 -0.03685914 -0.44963667
-0.25247371 0.05378412 -0.40701303
-0.26892281 -0.02680513 -0.37679881
-0.23010086 0.03399773 -0.36532611
-0.15701361 0.06056170 -0.41179496
-0.22426550 -0.01620353 -0.36507177
-0.29579580 -0.00392629 -0.38617602
-0.23279880 -0.04115573 -0.43119925
-0.20958441 -0.00568898 -0.37034288
-0.27996147 0.03730375 -0.34818766
-0.28014478 0.02878720 -0.38459694
-0.29196876 -0.02472533 -0.40715617
-0.17105955 0.04445824 -0.41628844
-0.15446992 -0.01641340 -0.38315102
-0.18962754 -0.02118245 -0.45000133
-0.10711116 0.03204779 -0.39270401
-0.24613526 0.03530516 -0.34393346
-0.29110551 -0.01299738 -0.40003470
-0.20745629 0.02664371 -0.44886878
-0.24236965 -0.01964490 -0.34383330
-0.23350251 0.02773954 -0.40369597
-0.26089975 0.02724429 -0.34648380
-0.15497613 -0.02404915 -0.36718839
-0.19664191 -0.01805423 -0.45690262
-0.14310431 -0.02165888 -0.36978421
-0.21691915 -0.01731964 -0.39560783
-0.23518142 -0.00562924 -0.44696298
-0.29681587 -0.00279126 -0.37650004
-0.16787170 0.06049027 -0.43908891
-0.12236423 -0.00807453 -0.41864803
-0.17526749 -0.01109806 -0.37720317
-0.25355682 -0.04367336 -0.41552064
-0.17227057 -0.02515657 -0.41137847
-0.21023658 -0.05236761 -0.44517070
-0.22247180 -0.03421785 -0.42306742
-0.15326044 -0.03789718 -0.43235892
-0.16809687 -0.01531911 -0.35861519
-0.13071154 0.03764313 -0.41926083
-0.25413910 0.05418046 -0.38602132
-0.28323168 0.01293086 -0.39672095
-0.14211118 -0.00139965 -0.37735546
-0.26606387 0.05907834 -0.39664632
-0.27409524 0.03664314 -0.41855514
-0.17070964 -0.03573174 -0.45561045
-0.26109523 -0.00742648 -0.43972671
-0.24207531 -0.02687749 -0.40172923
-0.26972374 -0.01467397 -0.42880166
-0.19175774 0.01243914 -0.35227659
-0.15398063 -0.03614581 -0.45689592
-0.26195452 -0.01601925 -0.35196534
-0.25045714 -0.00051622 -0.33212915
-0.23297140 -0.02493958 -0.45627370
-0.28431031 0.00425941 -0.44200093
-0.13318621 0.03670483 -0.37521267
-0.19613510 -0.03966400 -0.42960361
-0.23119055 -0.00842220 -0.44959143
-0.16592428 -0.01480972 -0.36613622
-0.18489459 0.05507835 -0.40756878
-0.25718772 0.04332659 -0.43295729
-0.13609669 0.00720949 -0.43125015
-0.25259113 0.05707134 -0.42088780
-0.12988517 0.01379563 -0.41457191
-0.30109006 -0.01958630 -0.41948256
-0.13707170 -0.00796915 -0.46680593
-0.12274218 0.02576021 -0.41670898
-0.26655605 0.01234822 -0.34661061
-0.12855712 0.00446674 -0.45199424
-0.22531809 0.03540513 -0.42956898
-0.13199306 0.00333546 -0.44840220
-0.21464439 0.03058534 -0.43729302
-0.22384495 -0.01572692 -0.46487969
-0.26837057 -0.01045827 -0.38187367
-0.20886295 0.04431351 -0.37064928
-0.28339386 0.00846300 -0.35001832
-0.14060016 0.01500900 -0.45874196
-0.14755110 -0.01950648 -0.42066550
-0.24088994 0.00237052 -0.43625954
-0.25247389 0.06006237 -0.37945300
-0.29600045 0.01619800 -0.38766780
-0.26399696 -0.02362267 -0.38994706
-0.26402658 0.05862472 -0.41692916
-0.26677212 -0.04150248 -0.41791946
-0.26825273 0.00314658 -0.34649912
-0.23855333 -0.03087358 -0.36373448
-0.12799674 0.03425290 -0.40796193
-0.27860120 -0.01212465 -0.37628773
-0.27221137 -0.02704175 -0.39186409
-0.16602565 -0.00165190 -0.34493905
-0.22669111 -0.03714603 -0.39720544
-0.23574111 0.03396828 -0.39065519
-0.20423697 0.03353992 -0.41415060
-0.28466597 -0.03015268 -0.37152252
-0.19103183 0.02637535 -0.45268333
-0.21915674 -0.00637298 -0.46516114
-0.25126377 0.05095946 -0.38458866
-0.25605631 -0.02644549 -0.45485565
-0.24481277 -0.01265290 -0.35899216
-0.23816507 -0.02863852 -0.39599532
-0.23402123 0.01944365 -0.43234342
-0.24922469 -0.02594016 -0.45778173
-0.28654197 -0.02685648 -0.43499771
-0.16806923 0.03884297 -0.44474286
-0.29250777 0.01962698 -0.43171573
-0.24646287 -0.03051780 -0.38321564
-0.30516046 0.00014953 -0.39821112
-0.14545217 -0.01267820 -0.35149065
-0.19725001 0.03463031 -0.41761848
-0.26949936 0.00208634 -0.44971174
-0.21174562 -0.01735877 -0.39665672
-0.19599140 -0.01959782 -0.35861576
-0.23912972 0.03129635 -0.40621477
-0.22223362 -0.03072377 -0.41716540
-0.16691430 -0.02306321 -0.45642042
-0.20257418 0.00117702 -0.45515335
-0.15039511 0.03817686 -0.45235938
-0.16252564 -0.02386201 -0.46892640
-0.28839910 -0.01471168 -0.43212497
-0.19807592 -0.02453032 -0.38327596
-0.25280863 0.04164727 -0.42801535
-0.15819661 -0.00513160 -0.38669795
-0.24956033 0.02581735 -0.39726922
-0.19001471 0.04195862 -0.35528550
-0.12642018 -0.01130428 -0.41782242
-0.24927858 -0.01240251 -0.43476814
-0.23814899 0.02612518 -0.34961641
-0.25513169 -0.02099395 -0.36047044
-0.15243205 0.01187802 -0.46918881
-0.23060524 0.02709154 -0.39150038
-0.23838501 0.00348174 -0.45150828
-0.14925742 -0.02484778 -0.46070856
-0.23994309 -0.01350705 -0.36217183
-0.28596729 -0.03203268 -0.41192144
-0.24723522 -0.04263962 -0.43431151
-0.20352590 0.05851465 -0.41745985
-0.26987740 0.04607914 -0.42133668
-0.15840298 -0.00043073 -0.37304866
-0.28967831 0.00007349 -0.36402714
-0.17415850 0.04647066 -0.45298558
-0.16035917 0.00041614 -0.47793627
-0.12901403 0.02004929 -0.39550304
-0.19111192 -0.05560225 -0.46683612
-0.26129320 -0.03534328 -0.38239470
-0.13102022 -0.02103445 -0.39743477
-0.22403103 0.04185317 -0.40732792
-0.29293519 -0.02162759 -0.43435389
-0.14492074 0.02226247 -0.36995992
-0.22308916 0.01414837 -0.34188566
-0.17994304 0.06417285 -0.43624833
-0.14141637 0.00014511 -0.43996656
-0.22004372 0.03572336 -0.40731925
-0.18306990 -0.02107747 -0.45764199
-0.18611103 0.02791948 -0.45129618
-0.23491068 -0.00442971 -0.46577209
-0.24433035 0.03654219 -0.40560403
-0.26062429 0.04228397 -0.40325519
-0.17308079 -0.00129631 -0.37315762
-0.26700553 0.03623786 -0.41772550
-0.20307598 -0.01778840 -0.35879761
-0.21656534 0.03552829 -0.36393064
-0.22208175 0.04727115 -0.44133303
-0.22256455 0.04948778 -0.38677648
-0.24730477 -0.00842236 -0.44287407
-0.22091672 0.04559477 -0.41065150
-0.20692728 -0.03494021 -0.39300302
-0.27970308 -0.01150742 -0.39209151
-0.23037383 0.05626142 -0.44050321
-0.13960177 0.04747382 -0.37201720
-0.26510251 -0.04434094 -0.44636747
-0.24739207 0.04795926 -0.41244659
-0.27755818 -0.02137361 -0.43654558
-0.15701647 -0.00885178 -0.47192693
-0.19551539 0.03604037 -0.42954829
-0.25186488 -0.01311015 -0.37250882
-0.23236939 0.02509046 -0.40904933
-0.15790205 -0.03893108 -0.45899808
-0.27290380 0.01628422 -0.44498330
-0.17234021 0.02338334 -0.42092493
-0.22256908 -0.03353249 -0.44339457
-0.26840723 -0.01234474 -0.35573044
-0.22003792 0.04708045 -0.36384034
-0.12216735 -0.00873558 -0.40652382
-0.18211107 0.04583004 -0.41834927
-0.27565429 -0.03086434 -0.42746261
-0.15317076 -0.00668699 -0.36916947
-0.21515785 -0.01687136 -0.44554821
-0.29215059 0.03059693 -0.39462915
-0.25487617 -0.03454810 -0.40969872
-0.17822374 0.00627067 -0.41318762
-0.22830687 0.01500575 -0.40791118
-0.28319365 -0.00266199 -0.43434471
-0.17460628 -0.03881607 -0.41457260
-0.15399376 0.01134697 -0.45956489
-0.16763052 0.06147024 -0.42343906
-0.14089838 0.05229235 -0.42493573
-0.28637037 -0.05444892 -0.43301338
-0.17685805 0.03753592 -0.45758688
-0.22439969 0.05103873 -0.39737958
-0.21544302 0.05485314 -0.40999982
-0.27936447 -0.00515791 -0.42154467
-0.28193796 0.02894903 -0.37703359
-0.18985634 0.01932558 -0.46925020
-0.28202301 0.03054451 -0.37329221
-0.14380316 0.01772906 -0.36565417
-0.22993988 0.01922469 -0.38610837
-0.27009392 -0.01914371 -0.38655913
-0.28650901 -0.03738755 -0.38173479
-0.17454532 0.03052052 -0.36922592
-0.21897575 -0.00346913 -0.34484458
-0.23112705 0.05453893 -0.40467432
-0.27026173 0.02711345 -0.34853634
-0.16259137 0.02519431 -0.45477220
-0.28593031 -0.03931969 -0.41630259
-0.12656026 0.03014415 -0.41358668
-0.22316493 0.03577822 -0.41977438
-0.27644381 -0.03072952 -0.39663234
-0.24522586 0.03576063 -0.35620236
-0.13655299 -0.00042948 -0.44592774
-0.28968865 0.01701751 -0.42443669
-0.17863962 -0.01086854 -0.34385931
-0.16101789 0.03910059 -0.44098806
-0.28347477 -0.00635256 -0.38698366
-0.24818224 -0.02188468 -0.46262470
-0.22887760 -0.03558134 -0.44233674
-0.25698081 0.05256737 -0.36376745
-0.23816311 -0.02319829 -0.37637928
-0.16896549 -0.04897815 -0.46530473
-0.18847549 0.01333128 -0.35746413
-0.26630744 0.05168276 -0.38553727
-0.13457039 0.00432650 -0.45687547
-0.25045976 -0.01037152 -0.46285006
-0.24063285 0.04802964 -0.40133083
-0.13713652 -0.01885027 -0.44186053
-0.20460194 0.03923387 -0.42641664
-0.16825855 0.06170329 -0.40437964
-0.25586882 -0.00548103 -0.45593163
-0.23792508 0.01394854 -0.40524134
-0.16899565 0.01753233 -0.45659918
-0.20302518 0.02621586 -0.41393977
-0.23727576 0.00811263 -0.44873297
-0.14159507 0.00009094 -0.43221134
-0.21902318 0.02871376 -0.35381556
-0.25636441 0.03575296 -0.42506543
-0.27154127 0.03851207 -0.41485691
-0.12693045 0.03527779 -0.41408259
-0.25737762 -0.03413592 -0.46025497
-0.15750183 0.04960704 -0.43671164
-0.28988770 -0.04120426 -0.42898151
-0.13810980 0.04013215 -0.42842028
-0.26279312 -0.03582186 -0.41840521
-0.26125887 -0.04773647 -0.43079329
-0.27728838 0.00192270 -0.38472152
-0.25438073 -0.01930259 -0.45717281
-0.15013312 0.02923688 -0.45526394
-0.16949382 -0.01333707 -0.45917970
-0.24083488 -0.00521002 -0.46641856
-0.19148666 -0.00967404 -0.38686311
-0.16966514 0.01264603 -0.36107820
-0.18565306 0.05671183 -0.42800823
-0.22877911 -0.00282147 -0.38566768
-0.13030297 -0.01700998 -0.40435496
-0.20578569 -0.00354465 -0.36637795
-0.24495582 0.02260168 -0.45128375
-0.28808329 0.00583403 -0.35347724
-0.24221334 0.03206242 -0.39081484
-0.18719448 -0.05554606 -0.46838748
-0.29613090 -0.04957296 -0.43254954
-0.22794126 0.03800824 -0.37477019
-0.23665987 0.00443330 -0.33214554
-0.16486768 0.04140679 -0.43345135
-0.17875428 0.03140442 -0.40478000
-0.26904124 -0.01679587 -0.36036816
-0.29481006 -0.03818895 -0.42337874
-0.16427317 -0.00977621 -0.37481749
-0.26666835 -0.02800151 -0.43694770
-0.19104809 -0.02346174 -0.45541009
-0.23055147 0.03341948 -0.43541360
-0.28926563 0.02489041 -0.37576804
-0.18624689 0.04036520 -0.38449720
-0.23686859 0.00099161 -0.38444984
-0.15486681 -0.01846072 -0.37016326
-0.17091638 -0.00179467 -0.35847273
-0.17334090 0.04752007 -0.42260841
-0.26010978 0.05051605 -0.42966691
-0.14120005 -0.01521198 -0.41352981
-0.17288573 0.06093942 -0.43532461
-0.17281048 -0.01742271 -0.47562659
-0.26719952 0.03496996 -0.43294495
-0.14975379 0.02856066 -0.36817232
-0.30089518 -0.00174273 -0.39770585
-0.25269684 0.03877693 -0.42259073
-0.17089762 0.03088523 -0.42525041
-0.17020696 0.01784826 -0.41469121
-0.14744776 -0.02367218 -0.45035642
-0.19083266 0.05751831 -0.38927859
-0.25835773 -0.02836317 -0.43659997
-0.28212267 0.01745975 -0.42353418
-0.25317159 0.05359551 -0.35934642
-0.25167057 -0.02202307 -0.35368416
-0.25755328 0.05429780 -0.38322505
-0.25226215 0.02702787 -0.41647726
-0.29563734 -0.01059428 -0.43362200
-0.29753387 -0.00212694 -0.40924138
-0.26408577 0.05613046 -0.36945850
-0.17207605 -0.01913612 -0.39889342
-0.18700072 -0.01420652 -0.37442374
-0.24105868 -0.00587924 -0.33013573
-0.14828438 -0.00329396 -0.39390111
-0.25054610 -0.02591693 -0.44558564
-0.14861760 0.03949895 -0.44334880
-0.12970707 -0.00869759 -0.37586594
-0.28246567 -0.02553140 -0.39748806
-0.21670642 -0.02303340 -0.37693262
-0.29319718 0.03117289 -0.39096552
-0.14955291 -0.00763198 -0.42161193
-0.14658469 0.05178774 -0.43312123
-0.20162897 -0.00661736 -0.35544854
-0.25745293 0.05622151 -0.41370681
-0.17013438 -0.01004699 -0.36135647
-0.21072577 -0.01597071 -0.38778079
-0.28051335 0.01382544 -0.38709456
-0.18395281 -0.01825426 -0.37888825
-0.24521768 0.04372472 -0.36588299
-0.14653537 -0.00011875 -0.41052815
-0.24453641 -0.02131490 -0.34913537
-0.17445205 -0.00707359 -0.46132320
-0.21668272 -0.00212704 -0.33722198
-0.24633208 0.00467983 -0.34420854
-0.29334146 -0.02392178 -0.40153962
-0.20942429 0.02233679 -0.45746368
-0.13681464 0.00949573 -0.41423994
-0.20011508 0.05420034 -0.40276587
-0.21033037 -0.01064618 -0.34107378
-0.22994396 -0.02623825 -0.46400851
-0.16271304 -0.02002030 -0.46601415
-0.20314227 -0.04070945 -0.41708174
-0.18198693 -0.05711143 -0.47289005
-0.28986210 0.01753024 -0.43896788
-0.17378119 0.01250509 -0.41367233
-0.27787185 0.03841695 -0.39359614
-0.27255368 -0.03953927 -0.41871932
-0.21077713 -0.01294964 -0.37134486
-0.14921424 -0.01814102 -0.36029705
-0.18884443 0.03856099 -0.42790627
-0.20596859 -0.00727315 -0.35312968
-0.18699037 -0.01392074 -0.39698681
-0.21403615 -0.02968689 -0.41657731
-0.17930196 -0.00849213 -0.37440053
-0.26922950 -0.04805543 -0.45362440
-0.11776415 0.03544429 -0.37969694
-0.23917361 -0.06737715 -0.47249871
-0.18939334 -0.00833081 -0.35776627
-0.28437623 -0.03527810 -0.41040608
-0.12852891 0.04115758 -0.37009224
-0.18030265 0.00129813 -0.46078900
-0.15978315 0.04181542 -0.43734953
-0.19930187 0.04144225 -0.41856447
-0.20267627 -0.00013777 -0.46888506
-0.19006190 0.04069050 -0.37798098
-0.26714954 0.05733393 -0.42234936
-0.29124767 -0.01781562 -0.39646441
-0.20881994 0.03935495 -0.36510253
-0.13628511 -0.02128201 -0.43683881
-0.27450222 -0.02096055 -0.36552989
-0.22513825 0.02692801 -0.35561982
-0.20754980 -0.02608445 -0.38892996
-0.18901926 0.02649356 -0.41788152
-0.19649249 -0.02170002 -0.45640305
-0.20292598 0.03186880 -0.46264023
-0.18167466 -0.00993143 -0.39882606
-0.23327617 -0.01911446 -0.34791508
-0.26530915 0.01825894 -0.34325159
-0.23775978 0.00425667 -0.33708107
-0.23857738 -0.00708701 -0.34653738
-0.23157600 0.01319380 -0.45187005
-0.21151206 -0.03821314 -0.44377959
-0.27093947 -0.04526634 -0.43768927
-0.19217215 -0.01559980 -0.35798815
-0.23511091 0.02242540 -0.39332861
-0.14858769 -0.00488848 -0.46023405
-0.17910460 0.03744340 -0.37341836
-0.17543699 -0.03647569 -0.39385980
-0.13795802 -0.00528184 -0.45753026
-0.27125484 0.06148655 -0.40349436
-0.14149696 0.00289996 -0.40255910
-0.12936887 0.03395265 -0.36878225
-0.26314643 0.02881874 -0.44000512
-0.17525488 0.03003553 -0.40585500
-0.15020327 -0.01614584 -0.42127645
-0.16072068 0.05727677 -0.42038944
-0.13121907 0.01785947 -0.36650524
-0.27692467 0.02493943 -0.43832994
-0.26260814 0.01181419 -0.43677604
-0.25695926 0.00504195 -0.43762356
-0.26220733 -0.06286918 -0.45199442
-0.16385198 -0.03565104 -0.43688434
-0.23285621 0.05499360 -0.39851096
-0.21714628 -0.01156084 -0.35284159
-0.14367527 0.00130883 -0.39170367
-0.17186236 -0.03347135 -0.38412189
-0.26461643 0.03031516 -0.43479228
-0.13191628 0.02206922 -0.36690870
-0.16925165 -0.01355689 -0.36510545
-0.29436135 0.00163264 -0.38320836
-0.19670540 -0.01415716 -0.39445221
-0.25759473 0.04187362 -0.35846221
-0.23021245 0.00600671 -0.44876799
-0.15606581 0.04409576 -0.37592545
-0.20338936 0.05397518 -0.41049653
-0.16571051 0.03199134 -0.46972007
-0.25879395 0.00688986 -0.34290269
-0.24944772 0.05811112 -0.41703045
-0.23710223 0.05142469 -0.41453129
-0.22156364 0.05165159 -0.37230071
-0.20843495 0.00510634 -0.46526545
-0.17200641 -0.02941266 -0.42871726
-0.20305559 0.03285457 -0.43991980
-0.16975397 -0.02012548 -0.36176449
-0.29076397 0.00502250 -0.37617299
-0.19327426 -0.01546820 -0.35344988
-0.20705371 0.04519489 -0.41698003
-0.14623521 -0.00180552 -0.39064157
-0.24386595 -0.02944566 -0.43706250
-0.26946080 0.06083691 -0.40930063
-0.21825854 0.05465654 -0.41429636
-0.16065513 0.06145510 -0.40442565
-0.23816019 -0.03088450 -0.41137099
-0.25013179 -0.04394362 -0.42859116
-0.14290604 -0.00818294 -0.46795869
-0.28087696 -0.01552793 -0.42807516
-0.27668637 0.00001201 -0.43667594
-0.30069780 -0.04070567 -0.41699320
-0.25217709 -0.03338373 -0.43605408
-0.22389470 0.02946633 -0.45030114
-0.12239942 0.03120631 -0.40236616
-0.30622733 -0.04682048 -0.43597305
-0.28621888 -0.03539607 -0.41860136
-0.17447835 -0.03384390 -0.42004573
-0.29109001 -0.02411071 -0.37486422
-0.24368316 0.05099368 -0.37929040
-0.13123330 -0.01003691 -0.41338444
-0.20147796 -0.01419246 -0.34724513
-0.17516699 0.02764034 -0.36680800
-0.20608971 -0.00349792 -0.45265302
-0.18303587 0.00018008 -0.40672004
-0.17910819 -0.01593302 -0.45906466
-0.16613339 -0.01856263 -0.36852518
-0.19860913 -0.00794478 -0.35884422
-0.15575059 0.02323526 -0.36592570
-0.24912930 0.00659490 -0.43588358
-0.20730717 0.05898366 -0.41188073
-0.27092540 0.05519733 -0.38127840
-0.15673278 -0.02867189 -0.45075095
-0.15339419 -0.01201539 -0.42178610
-0.19213751 0.00761222 -0.35697287
-0.15269417 0.06179830 -0.40734574
-0.12818378 0.03747460 -0.37104666
-0.18348095 0.00324391 -0.39976335
-0.26654321 0.02186746 -0.34461761
-0.27811274 -0.01244746 -0.36422893
-0.12834205 0.01021646 -0.36756086
-0.17812727 -0.01199823 -0.34789297
-0.18749492 -0.00712506 -0.38228250
-0.15359926 -0.03384744 -0.40156624
-0.22364095 0.03214079 -0.41857487
-0.22153662 0.02412039 -0.45355570
-0.29375097 -0.03435187 -0.41013396
-0.23656107 0.04730658 -0.43890682
-0.13947397 0.02796647 -0.43920422
-0.23064251 -0.01438474 -0.34694350
-0.25377798 0.01254414 -0.45191860
-0.16442265 -0.03777272 -0.41642654
-0.27396613 0.04561764 -0.40467280
-0.15503725 0.06177361 -0.43062961
-0.21125470 -0.01250303 -0.34490967
-0.20566778 0.05117726 -0.41599694
-0.29359102 0.01333746 -0.39686924
-0.13928509 0.00822603 -0.38413781
-0.17428353 -0.01643524 -0.35623959
-0.15449335 -0.01495837 -0.41232648
-0.26332271 0.04974407 -0.40006307
-0.29082087 0.00743804 -0.42829889
-0.26139882 0.05261550 -0.38502842
-0.13895994 0.03793513 -0.37817633
-0.22857274 -0.02907588 -0.41272312
-0.24274245 0.01720443 -0.39027005
-0.26512808 0.00637045 -0.34660825
-0.14269511 -0.01544436 -0.43757564
-0.26792619 -0.06236764 -0.45133531
-0.28194457 -0.02838920 -0.36976379
-0.27236006 0.02415572 -0.43215933
-0.24109842 -0.03845327 -0.39344504
-0.28572729 -0.00311990 -0.41048771
-0.29120216 0.01455176 -0.41756216
-0.15742740 0.01442816 -0.45848408
-0.23434593 0.05845018 -0.38176596
-0.17414819 0.01442985 -0.47847953
-0.26372272 0.04188882 -0.41030115
-0.28525126 0.01410196 -0.42138255
-0.17348474 -0.01423307 -0.38198048
-0.16854756 0.04115589 -0.43579537
-0.14194629 0.04930056 -0.41856927
-0.19797906 -0.00720060 -0.36618435
-0.24789841 0.01519839 -0.39462292
-0.12368376 -0.01196051 -0.38688415
-0.18748717 -0.05190053 -0.46088108
-0.23740306 -0.02460871 -0.44996321
-0.24690810 0.02607521 -0.34524384
-0.18329722 0.03571896 -0.45862469
-0.13892469 0.01660194 -0.42452461
-0.14761107 -0.01904104 -0.39350483
-0.11622131 0.03275881 -0.40151933
-0.27896649 -0.03417640 -0.42281786
-0.27684921 0.02101152 -0.44049275
-0.13170123 -0.01649298 -0.37325343
-0.29459718 0.00231336 -0.42281082
-0.27328846 -0.00144891 -0.44726998
-0.23843153 -0.02885891 -0.45050463
-0.15812686 -0.03122343 -0.46834111
-0.18179032 0.00981382 -0.45851308
-0.27372903 0.02836273 -0.39835304
-0.14389840 0.05054245 -0.41522601
-0.12868242 -0.01290566 -0.42401031
-0.14840864 -0.02051019 -0.46194091
-0.18871993 0.04127711 -0.35982510
-0.18668634 0.03048643 -0.41824830
-0.15012625 -0.01479399 -0.38838923
-0.21727528 -0.02047102 -0.47028026
-0.28641841 -0.01107692 -0.38480195
-0.20347713 -0.03894518 -0.42816502
-0.14384493 -0.02706846 -0.42377135
-0.28649187 0.02012058 -0.41913825
-0.21445023 -0.04274542 -0.43717572
-0.29994321 -0.04905154 -0.43245488
-0.12943877 0.02238974 -0.41484484
-0.18169287 0.00560740 -0.36089072
-0.17748675 -0.00380465 -0.36930630
-0.18185800 -0.02815275 -0.42422971
-0.26611474 -0.02105380 -0.43486530
-0.18614012 0.01376449 -0.41251308
-0.14771295 0.00222309 -0.45981327
-0.24610239 -0.03968531 -0.41858506
-0.19325323 -0.01856593 -0.44901922
-0.17632568 0.02533371 -0.44508103
-0.13158742 -0.01053786 -0.44766584
-0.18398863 -0.00584045 -0.47574908
-0.18028218 0.03621393 -0.43715739
-0.18976398 -0.01419064 -0.46112183
-0.19136156 0.02892045 -0.46283859
-0.22106655 0.00382924 -0.35003605
-0.20867623 0.01673702 -0.46288294
-0.27907407 -0.00264686 -0.35813296
-0.26901385 0.04535301 -0.42828900
-0.17972110 -0.03039989 -0.37446555
-0.20401329 -0.03484993 -0.40552336
-0.28768104 -0.00228101 -0.39487711
-0.30239278 -0.00435028 -0.42203942
-0.29594761 -0.04905596 -0.43891647
-0.27063394 -0.05029142 -0.44122547
-0.17255829 0.03786148 -0.41335768
-0.19201380 -0.00894211 -0.45108196
