-0.09631370 0.00383683 -0.46442056
-0.13103235 0.03112898 -0.35377118
-0.07463797 0.01802151 -0.41245514
-0.11583524 0.02512602 -0.41589803
-0.09103927 0.01319426 -0.45438635
-0.12972426 0.03816413 -0.42592409
-0.20160818 0.02054738 -0.34850401
-0.06892074 -0.02388374 -0.42256331
-0.13939616 0.04831172 -0.38174739
-0.14108704 0.00002651 -0.34092662
-0.13386428 0.01074468 -0.34133917
-0.15500148 -0.00542133 -0.46563059
-0.17808026 0.03141959 -0.44351855
-0.19965529 0.05492923 -0.38178489
-0.14852615 -0.01571168 -0.36307314
-0.17870715 -0.01393233 -0.43615302
-0.14817536 -0.03744747 -0.46298864
-0.11752868 -0.02056352 -0.38921142
-0.12256301 0.02131529 -0.48161912
-0.07342969 0.03588897 -0.43397027
-0.18441439 0.05390124 -0.35730350
-0.07496804 0.03302705 -0.41949371
-0.10037269 -0.02506054 -0.44369349
-0.21714410 0.00653110 -0.36036104
-0.11357197 0.02191488 -0.47323853
-0.14988111 -0.03027922 -0.46647248
-0.12321062 0.01093346 -0.35337284
-0.15494880 0.05285794 -0.40202564
-0.07174921 0.00506379 -0.40719941
-0.15329012 -0.03105848 -0.39072406
-0.22844520 -0.01445826 -0.39453042
-0.15211144 0.06087779 -0.36727586
-0.21465212 0.03715688 -0.39792448
-0.08062951 -0.03839378 -0.44416550
-0.18717092 0.01139949 -0.43504521
-0.14176136 -0.03981066 -0.45195803
-0.06939851 0.00611657 -0.40747887
-0.13157716 -0.03667592 -0.43929371
-0.10177269 0.04273120 -0.42977652
-0.13484511 0.03340081 -0.46234408
-0.15722397 0.04759204 -0.39515331
-0.15102941 0.02102619 -0.45832598
-0.14692341 -0.02662203 -0.38135591
-0.18790632 0.03417429 -0.35388625
-0.12053093 0.00298668 -0.48925328
-0.14925525 -0.01747722 -0.47392386
-0.18883583 -0.03220148 -0.38286421
-0.07289351 -0.01224662 -0.44109893
-0.12280028 0.04477383 -0.42741895
-0.07240888 0.01963567 -0.41386107
-0.13399971 0.04680634 -0.43754908
-0.18701577 0.00354866 -0.35708997
-0.16787226 0.03308958 -0.32803163
-0.12526271 0.00508911 -0.35236058
-0.22651112 0.00495158 -0.37731463
-0.14823827 -0.01954798 -0.47491908
-0.15813223 0.03033895 -0.46346271
-0.19296840 0.01437576 -0.42966360
-0.17054784 0.03346173 -0.44409531
-0.17703599 -0.01042375 -0.35080728
-0.08832774 -0.02597014 -0.45444357
-0.19478449 -0.01524919 -0.36268407
-0.10397641 -0.03175933 -0.41218036
-0.08204156 -0.03304834 -0.45041969
-0.13596424 0.03322705 -0.46885517
-0.20211238 0.04369648 -0.36956796
-0.13723363 0.03374009 -0.42397848
-0.15800658 0.05671952 -0.38834640
-0.13911121 0.01249582 -0.47940895
-0.19160134 -0.01287053 -0.36043283
-0.19888404 0.04079588 -0.41396335
-0.13860145 0.03895152 -0.43146700
-0.08658700 -0.02554082 -0.42232269
-0.22026911 0.02198497 -0.40963215
-0.21085709 0.01655016 -0.35622895
-0.14898112 -0.00324581 -0.48127055
-0.13357393 0.00164889 -0.34407541
-0.18397641 0.00914402 -0.44252717
-0.10818215 0.01103462 -0.48143816
-0.11133735 -0.03314836 -0.42920929
-0.13517769 0.02747232 -0.46140152
-0.09320605 0.04209839 -0.41484159
-0.16668463 0.02646579 -0.32904655
-0.21905908 0.00985431 -0.36396432
-0.11611313 0.02739629 -0.47727984
-0.09390429 -0.01047154 -0.46432000
-0.13924116 0.03932787 -0.36346573
-0.15702862 -0.03275254 -0.45656827
-0.16491163 0.03004076 -0.44533423
-0.19519636 -0.01883423 -0.36670262
-0.10742617 0.04121934 -0.46601284
-0.07347466 -0.00577076 -0.40792635
-0.20107180 -0.02354519 -0.40991843
-0.20108822 0.04857393 -0.37179345
-0.18651885 0.03958286 -0.32559931
-0.14873971 0.02052977 -0.33160353
-0.13820428 0.04280476 -0.45364523
-0.13228717 0.01623656 -0.48344731
-0.10033669 0.03689220 -0.43038538
-0.20528477 0.02625355 -0.42048427
-0.15159407 0.03631973 -0.45306548
-0.17866510 0.03400737 -0.44135922
-0.18314341 0.02191803 -0.44160435
-0.12322883 -0.01861823 -0.37914026
-0.16874203 0.03600454 -0.40388936
-0.21800077 -0.02546456 -0.38925624
-0.19222191 0.02544991 -0.33990666
-0.16149780 0.02700692 -0.32695875
-0.11297652 0.04113845 -0.39309591
-0.11162376 0.04452784 -0.44397736
-0.13672763 -0.02275935 -0.37550384
-0.06481089 0.01794372 -0.43580145
-0.14307860 -0.03275055 -0.47110277
-0.10572356 -0.03206890 -0.44192633
-0.06218538 0.00460050 -0.42147422
-0.11335245 -0.02396455 -0.48352793
-0.17504224 0.02354128 -0.45568281
-0.13246201 0.04034014 -0.45531884
-0.07524052 -0.02770790 -0.45242250
-0.19145507 0.00253642 -0.35067093
-0.15504682 -0.00930331 -0.46034709
-0.20172438 -0.03001416 -0.40791905
-0.13820383 0.03880095 -0.34315622
-0.19718912 0.04229588 -0.36819547
-0.07747021 0.00617009 -0.45417792
-0.10603550 -0.02795359 -0.44629148
-0.11379020 0.02523821 -0.41907576
-0.12089717 -0.00916992 -0.49139309
-0.16938299 0.03461228 -0.41568393
-0.18519527 0.04447584 -0.34258533
-0.17051101 0.03888093 -0.43357193
-0.12336676 -0.04230276 -0.42175895
-0.06492535 -0.01683471 -0.43895528
-0.21200329 0.03433534 -0.36878997
-0.16655117 0.02180324 -0.45801902
-0.19935572 0.02426989 -0.62581694
-0.11019339 0.01461077 -0.47880542
-0.17355104 -0.03530066 -0.42924368
-0.16956088 0.00114027 -0.46349025
-0.18181983 -0.02208783 -0.36952445
-0.20686129 0.02147477 -0.35285488
-0.09718162 0.02760971 -0.45768294
-0.12128428 0.02504558 -0.47830448
-0.10269760 -0.02736523 -0.43941998
-0.09707664 -0.04128059 -0.44424251
-0.13016291 -0.02166069 -0.49020177
-0.16636448 -0.03808983 -0.42716923
-0.15610373 0.03354717 -0.44881979
-0.14543027 0.01782218 -0.48755625
-0.18081799 -0.02503947 -0.42179531
-0.18933773 0.00721988 -0.43150920
-0.15105161 0.02769042 -0.46722943
-0.18921009 0.03040491 -0.42252788
-0.08568088 -0.02066302 -0.44727752
-0.20587236 0.03823709 -0.41067827
-0.08585692 0.04395200 -0.45719409
-0.07606327 0.01406359 -0.40758979
-0.06585336 -0.02214276 -0.44364557
-0.14101245 0.04488745 -0.34564850
-0.19338703 0.01244305 -0.41857260
-0.12136170 0.03873176 -0.44349769
-0.14991298 -0.03675009 -0.44279420
-0.15190312 -0.03014473 -0.39607462
-0.06760497 0.00278179 -0.44665521
-0.22288656 -0.01567061 -0.38571388
-0.18016514 0.02652115 -0.33267805
-0.14521900 0.02290404 -0.39532897
-0.14895535 -0.02034943 -0.39168927
-0.14242172 -0.03863863 -0.46875969
-0.18145728 -0.01067033 -0.43417269
-0.17683482 0.10492441 -0.61364388
-0.18929362 -0.03958655 -0.39513066
-0.03119676 0.08496335 -0.18204479
-0.12752336 -0.03743942 -0.40315267
-0.13040993 0.02855878 -0.43374205
-0.19112051 -0.00724427 -0.36970183
-0.19792581 0.04611226 -0.38058555
-0.09221148 -0.04261849 -0.43725118
-0.14591254 0.04934746 -0.37063760
-0.10779894 0.04305064 -0.43404165
-0.15696706 0.02288126 -0.45524091
-0.17292272 -0.01515601 -0.44511580
-0.12847757 0.04344478 -0.36934909
-0.14881089 -0.02994736 -0.46904463
-0.07253660 0.03452902 -0.42650637
-0.14991859 0.03174182 -0.33094555
-0.11028583 -0.03250075 -0.41319624
-0.19528157 0.00869358 -0.34882644
-0.13411847 0.02119087 -0.43973434
-0.15208340 -0.02630570 -0.46315166
-0.20308116 0.01157704 -0.35088950
-0.09173667 0.02747543 -0.45563734
-0.06549603 -0.00907357 -0.44867593
-0.08542743 -0.04056459 -0.43944699
-0.10664752 -0.02840459 -0.44036001
-0.19299811 0.05309768 -0.37142122
-0.11620273 0.01395980 -0.43877056
-0.14980192 -0.03450371 -0.46671391
-0.19385532 0.04435766 -0.37961018
-0.10570359 0.04885537 -0.38784045
-0.11739198 -0.03236697 -0.47712007
-0.16836780 0.05794661 -0.39252532
-0.16637450 0.02190264 -0.32920018
-0.12029154 -0.00793952 -0.36608842
-0.11982802 -0.02482973 -0.38788646
-0.22365433 0.01117099 -0.36963403
-0.14275512 -0.04138803 -0.46921813
-0.22515851 -0.01912707 -0.39452112
-0.10828464 -0.00326151 -0.48239022
-0.14192411 -0.03884013 -0.43618646
-0.16869518 0.01465078 -0.33137679
-0.12531884 -0.00328982 -0.49127394
-0.18240014 0.03081788 -0.43700552
-0.13680169 0.00947268 -0.48819950
-0.07560314 0.03262329 -0.43803281
-0.19687924 0.05115752 -0.40340272
-0.16607350 0.04793311 -0.33478916
-0.18240514 0.00252938 -0.44287837
-0.12480702 0.03031784 -0.41554710
-0.08842535 0.00344365 -0.46072429
-0.13583872 0.03432499 -0.35179490
-0.17629075 0.03277192 -0.43041104
-0.06478539 -0.00677325 -0.42963684
-0.12981959 0.04401384 -0.42486331
-0.14470133 -0.03677975 -0.43160674
-0.14273384 0.02889955 -0.39119750
-0.14117537 0.04266296 -0.34255177
-0.11300655 0.04247228 -0.45706621
-0.09655954 -0.02721408 -0.43956462
-0.22115940 0.02227996 -0.39474016
-0.10449496 0.03488862 -0.43229312
-0.13798544 0.04571035 -0.43913615
-0.14598569 0.02605728 -0.46963719
-0.10036120 0.04231195 -0.40125293
-0.12021501 0.03859306 -0.41602585
-0.11035118 -0.00128149 -0.48704892
-0.11361818 -0.03748871 -0.42605510
-0.11126594 0.03624608 -0.40733263
-0.18492916 0.04687491 -0.37147659
-0.14697200 0.05496745 -0.39260715
-0.14923558 0.05810608 -0.36238921
-0.13271771 -0.01391249 -0.36867660
-0.15260907 -0.00706120 -0.46912688
-0.14830977 -0.03229897 -0.40373641
-0.16437005 0.06796727 -0.36206517
-0.14664212 0.00970288 -0.47676548
-0.11027405 0.02192077 -0.47985253
-0.09212948 -0.02613519 -0.43796238
-0.08219730 0.04377962 -0.42858773
-0.12426534 0.03516520 -0.43467203
-0.19348788 0.03001627 -0.36035371
-0.09488373 0.04258459 -0.45239985
-0.13018629 0.02700923 -0.34898201
-0.11599015 -0.01292882 -0.49075270
-0.20069245 0.00689679 -0.35051501
-0.08854128 -0.03305709 -0.44579488
-0.09048640 -0.02987351 -0.45422986
-0.17668965 0.04333969 -0.33856693
-0.19981268 0.01205479 -0.42401794
-0.21705410 0.02852560 -0.63594967
-0.13675174 0.01416286 -0.33932078
-0.16038327 -0.03195109 -0.38803953
-0.15079856 0.01195287 -0.46353811
-0.15621328 -0.03812145 -0.44192579
-0.16878483 -0.01299521 -0.44979936
-0.16799745 0.14490825 -0.60776883
-0.18642938 -0.02917917 -0.37684399
-0.17194133 0.03540188 -0.39231384
-0.11433842 0.02999304 -0.47811994
-0.13569641 0.02867000 -0.46906477
-0.15029877 0.01341751 -0.45409271
-0.16089451 0.01690998 -0.46981853
-0.14409471 0.01012152 -0.46669522
-0.18272057 0.03221136 -0.44380867
-0.17938221 -0.03891773 -0.39742064
-0.15710402 -0.01166964 -0.47494292
-0.11770624 -0.05514538 -0.42111373
-0.13690552 0.02070690 -0.47024372
-0.18015954 0.02997537 -0.33187979
-0.13005510 -0.02940720 -0.48528439
-0.06601847 -0.00222550 -0.43512779
-0.10823071 0.03431728 -0.37801129
-0.10946849 0.03413638 -0.43373036
-0.04361172 0.08793847 -0.18057275
-0.11722980 0.01607329 -0.41802830
-0.13526326 0.03524464 -0.46490502
-0.14186448 -0.03575690 -0.40975180
-0.08906707 0.01751859 -0.39790690
-0.13915490 0.00044788 -0.34240922
-0.19663605 -0.00810976 -0.37303016
-0.16685101 0.00273430 -0.46544668
-0.13952076 0.02027263 -0.48071259
-0.16684741 -0.01673707 -0.36254710
-0.09368435 0.04208509 -0.42566395
-0.17287517 0.02788180 -0.45733047
-0.14574364 0.00928005 -0.48312569
-0.14537412 0.02390379 -0.46730301
-0.16896763 -0.03287837 -0.39267743
-0.09997918 -0.00363549 -0.47565848
-0.10506202 0.04342882 -0.45580649
-0.10477019 -0.02954815 -0.44538915
-0.16247505 0.05396577 -0.40186891
-0.17266633 -0.01174121 -0.35927790
-0.17015505 0.02948765 -0.38028711
-0.19122383 0.05173124 -0.36800393
-0.10531956 -0.01819486 -0.38853332
-0.12879574 0.03087812 -0.46415520
-0.15485872 0.00255153 -0.33692193
-0.09506889 0.04490479 -0.44397983
-0.11433971 0.04096009 -0.38317606
-0.15907651 -0.03234245 -0.40283883
-0.09151115 0.02343665 -0.45667130
-0.18131652 0.05968568 -0.38026294
-0.11222896 -0.03014030 -0.41446421
-0.16114590 0.00607049 -0.45798814
-0.14541984 -0.03594676 -0.46928072
-0.16442165 -0.03512478 -0.44316781
-0.21704459 -0.02242047 -0.38486281
-0.12937665 -0.02061711 -0.37758496
-0.13613559 0.00640740 -0.48839265
-0.18483385 0.02803024 -0.33702108
-0.09604817 0.03328582 -0.41739032
-0.10148225 0.00069012 -0.47014633
-0.18100512 0.00468568 -0.33814716
-0.20342237 0.01595021 -0.41884100
-0.17730600 -0.03406415 -0.40331298
-0.17190778 -0.03462246 -0.42522603
-0.10453856 -0.03876758 -0.44374585
-0.08218069 0.03743187 -0.44283557
-0.17476332 -0.00708739 -0.44554648
-0.17047104 -0.00765306 -0.34888783
-0.17716756 0.03542162 -0.41589129
-0.12894678 0.04893608 -0.41390863
-0.01999809 0.19739403 -0.50557846
-0.11075941 0.03947902 -0.45987126
-0.18095922 0.03723539 -0.43146339
-0.13279828 0.01479476 -0.48171684
-0.22666401 0.01943226 -0.41127712
-0.11073120 0.00734186 -0.43041122
-0.09939738 0.04458451 -0.43814313
-0.18555367 0.01132231 -0.43343806
-0.10960384 0.03534255 -0.39353418
-0.11795890 -0.02900135 -0.40830976
-0.16010579 0.01005005 -0.45462108
-0.15255833 -0.04632048 -0.44580454
-0.10196135 0.03373994 -0.41644701
-0.10372058 -0.01488495 -0.47745728
-0.21198428 -0.03453360 -0.38681719
-0.17276168 0.03164640 -0.44287160
-0.16582164 0.05398373 -0.34078419
-0.15501752 0.03204160 -0.45135385
-0.17365274 0.01898172 -0.46184349
-0.07483008 -0.02425105 -0.45683092
-0.14839020 0.01954305 -0.46373546
-0.11977077 0.02558407 -0.36145207
-0.15071908 0.03748324 -0.44307140
-0.13859859 -0.01524117 -0.36706913
-0.07668316 -0.00704299 -0.45312640
-0.12497927 -0.00937453 -0.49128431
-0.15213391 0.01175293 -0.45499277
-0.11764789 -0.03872306 -0.40588996
-0.15577495 0.00794075 -0.47578073
-0.15114522 0.00479434 -0.33503842
-0.12622198 -0.04279708 -0.44666719
-0.22016996 0.02231381 -0.40690657
-0.11761973 -0.05228776 -0.41925284
-0.10908884 0.01481453 -0.37363225
-0.12215137 0.04480408 -0.42119941
-0.11834250 -0.02395441 -0.38951269
-0.16619444 -0.03611472 -0.42398459
-0.13193899 0.01412642 -0.48631564
-0.20348567 0.05159478 -0.38892075
-0.16690189 0.04705612 -0.38824305
-0.14140838 -0.02921693 -0.40665138
-0.19398808 0.01693241 -0.34526178
-0.10474464 -0.02530888 -0.39931372
-0.20296821 -0.02758730 -0.40233839
-0.12899560 0.00749380 -0.48800769
-0.15070371 0.05641080 -0.38348392
-0.12968650 0.05054294 -0.38863650
-0.20804471 0.03695888 -0.41035935
-0.10389806 0.02150928 -0.37741339
-0.15562424 -0.01408820 -0.36770606
-0.14777039 0.02595064 -0.45031080
-0.20094422 0.03771126 -0.37003034
-0.22425193 -0.02336135 -0.40285215
-0.18961936 0.02374006 -0.42032322
-0.14318328 -0.02450332 -0.40444022
-0.15454194 0.02586408 -0.45232570
-0.18259087 0.03198895 -0.33658898
-0.15817821 0.02376641 -0.46886677
-0.09289618 0.03730476 -0.42238778
-0.16720320 -0.02972746 -0.40152207
-0.16373184 0.04016407 -0.41544572
-0.14241847 0.02548829 -0.47401717
-0.15721011 0.00086556 -0.46727937
-0.15962687 0.01444171 -0.46088544
-0.16063610 -0.00911102 -0.34703916
-0.06732775 -0.00616075 -0.45138374
-0.21368185 0.00177912 -0.36002257
-0.14164564 0.05096268 -0.42024609
-0.11534251 -0.03231553 -0.43217608
-0.14915076 0.04211952 -0.44775432
-0.18021813 -0.03350969 -0.41464192
-0.08935262 0.04380855 -0.45988983
-0.13975957 0.04231176 -0.35490537
-0.14961721 0.03269940 -0.46528551
-0.13176170 0.00692384 -0.34426105
-0.15348634 0.01523707 -0.47425181
-0.12530738 0.05224914 -0.39424360
-0.13370755 -0.05090396 -0.45611605
-0.13861223 0.03648451 -0.34033903
-0.06774364 -0.02718252 -0.44375613
-0.13562921 -0.01026826 -0.36022067
-0.16109809 0.01574539 -0.45316628
-0.17772824 -0.03329165 -0.41111520
-0.13616934 0.02972400 -0.42488575
-0.20748091 0.05484267 -0.63151246
-0.14432400 0.01474033 -0.48032796
-0.09114740 0.03783998 -0.41706312
-0.13719381 -0.03813928 -0.45181879
-0.11579486 -0.02964453 -0.45833886
-0.13592803 0.01204579 -0.33982807
-0.10081197 -0.02302913 -0.39968807
-0.21979865 0.02516699 -0.40924990
-0.14484200 0.04855642 -0.34332359
-0.15870318 0.00711058 -0.33353981
-0.18993267 0.00967798 -0.42900887
-0.16643509 -0.02818251 -0.39114541
-0.16554961 -0.02724431 -0.44771174
-0.17161712 0.00101229 -0.46208122
-0.10751243 0.02933413 -0.38299283
-0.10319735 0.04052670 -0.43277135
-0.06617294 -0.00468018 -0.44229931
-0.16961895 -0.02718113 -0.44061923
-0.20851812 0.04038192 -0.40636492
-0.12583157 0.05164873 -0.40648717
-0.19004509 -0.01658782 -0.36323297
-0.09202303 0.02081900 -0.39818275
-0.11452335 0.02964100 -0.43641126
-0.18035582 0.01429089 -0.44619590
-0.18284935 0.03127541 -0.43395245
-0.07394668 0.03121225 -0.43693623
-0.17184450 0.04387293 -0.38785186
-0.23440671 0.00094954 -0.40181971
-0.10589863 0.04668067 -0.44030660
-0.09179509 0.04312096 -0.42819476
-0.18562946 0.03210989 -0.33595741
-0.08080813 0.03200019 -0.41351610
-0.13199314 0.02198477 -0.34457934
-0.13369359 -0.03641346 -0.40414339
-0.16206455 0.00203438 -0.46013510
-0.12699679 0.02245701 -0.48333946
-0.18400580 0.03333533 -0.43181399
-0.14390582 0.03963866 -0.43729866
-0.13838582 0.03000645 -0.46850663
-0.14475752 0.05103592 -0.35863745
-0.15616903 0.01561233 -0.47297993
-0.11161693 -0.03775118 -0.41147771
-0.12305778 0.02658449 -0.41640040
-0.17939499 -0.03337508 -0.40565798
-0.13259612 0.02438822 -0.43547279
-0.10543286 -0.01323012 -0.38338315
-0.08269346 0.04205533 -0.42466530
-0.11779648 0.04712954 -0.40357801
-0.12701885 -0.03205753 -0.41965115
-0.14829990 0.05782983 -0.35595328
-0.08086729 0.00277317 -0.45510039
-0.17870592 0.04104504 -0.33874232
-0.22079664 0.00960560 -0.36942008
-0.10711081 0.02340229 -0.46501571
-0.10518701 -0.00169554 -0.48017144
-0.12599811 -0.02622213 -0.48757994
-0.11639588 -0.00397854 -0.48935115
-0.19503286 0.04235204 -0.36863372
-0.16457754 0.01768723 -0.46432173
-0.20254913 -0.01573981 -0.36542210
-0.17569529 0.05032974 -0.39017239
-0.18802711 0.00714920 -0.34642780
-0.15358032 0.03062358 -0.46450847
-0.19107300 0.04121061 -0.37371269
-0.16441566 0.06401376 -0.35089436
-0.12325589 0.02653389 -0.43369779
-0.15514174 -0.03518251 -0.45454291
-0.10815325 0.03456853 -0.41474259
-0.13332793 0.02223428 -0.47059768
-0.17549196 0.00420284 -0.45590597
-0.10249761 -0.03479793 -0.45023128
-0.15303116 -0.03392209 -0.40348858
-0.13437223 -0.01755474 -0.39222413
-0.14672188 0.03646477 -0.33094501
-0.13351858 0.02227573 -0.44603515
-0.08127783 0.04144766 -0.43097940
-0.11644707 0.02214164 -0.43915078
-0.15266848 0.00183477 -0.46633628
-0.20662335 0.04404395 -0.40490475
-0.18400037 -0.03499666 -0.39723882
-0.13612130 0.02958918 -0.47671214
-0.13307330 -0.04616562 -0.45830578
-0.17926110 0.01367439 -0.44972906
-0.16766649 0.03952117 -0.41898543
-0.19779515 -0.02351274 -0.40781724
-0.13802731 0.03951100 -0.42778942
-0.12378709 0.03758807 -0.37281644
-0.08318066 0.00565293 -0.45771682
-0.18076926 0.05552930 -0.36445263
-0.09407192 0.04377461 -0.42998692
-0.13612378 0.04384575 -0.42604893
-0.11716439 -0.02523085 -0.39398104
-0.13140237 0.00253443 -0.49032688
-0.10758395 0.01762428 -0.47683486
-0.13198802 0.03861434 -0.45946074
-0.10692734 0.19646525 -0.56684422
-0.18827441 0.00051021 -0.36524481
-0.14358526 -0.03546865 -0.42637235
-0.17688337 0.00355612 -0.33819780
-0.17036033 0.02281418 -0.46293253
-0.19777501 -0.01635513 -0.36358845
-0.13050532 -0.02939753 -0.41509172
-0.08531930 -0.02500813 -0.40046829
-0.19443366 0.01570920 -0.34346002
-0.13402727 0.01192298 -0.48850656
-0.10314283 -0.00100604 -0.47351688
-0.17352182 -0.01228392 -0.35396254
-0.15346509 -0.03799803 -0.44123539
-0.11248294 0.04350438 -0.45293880
-0.20204148 -0.00597740 -0.35856122
-0.15805027 -0.03249893 -0.39305604
-0.14521332 -0.03425431 -0.41274443
-0.15660685 0.02315269 -0.39497331
-0.12439758 0.02175483 -0.35388458
-0.13292299 0.02543800 -0.46010536
-0.08512086 -0.02535956 -0.46357280
0.11823560 0.01820733 -0.41238567
-0.16115260 -0.03258761 -0.40922526
-0.23106375 -0.01806694 -0.40222493
-0.09973938 0.02341897 -0.46202189
-0.11488909 0.00776992 -0.36592761
-0.13442719 -0.02514944 -0.38222155
-0.09769811 -0.03355553 -0.41778809
-0.07513265 -0.00917780 -0.40637293
-0.08588494 0.04746493 -0.42647567
-0.08228033 -0.00254813 -0.45818302
-0.16779748 0.06665272 -0.35812989
-0.17588599 0.00134151 -0.34160265
-0.11804869 0.03087991 -0.41502517
-0.11302458 0.01938907 -0.36852100
-0.14497000 0.02102232 -0.47532362
-0.11380598 -0.02196956 -0.39159834
-0.09731030 0.03773463 -0.42058009
-0.10842714 -0.03493776 -0.41811550
-0.16552588 0.02212332 -0.46845564
-0.10071384 -0.03098305 -0.42933327
-0.10685677 0.04192490 -0.45559093
-0.13038588 0.02583811 -0.43010429
-0.19269836 -0.00738660 -0.35700667
-0.09950489 0.01297353 -0.45567825
-0.13570079 -0.02489075 -0.49049169
-0.14479268 0.01929631 -0.46899998
-0.15224782 -0.03030331 -0.38706276
-0.11945477 -0.03729407 -0.41158500
-0.12872547 0.05213287 -0.39301273
-0.12141916 0.04182241 -0.44425142
-0.18739861 -0.03212783 -0.40991288
-0.07535904 -0.03956852 -0.42940930
-0.14298025 0.01833556 -0.46780324
-0.19727024 -0.04732984 -0.40242034
-0.12051170 0.04170366 -0.45520699
-0.14379463 -0.01904334 -0.48515135
-0.15332216 -0.03670272 -0.45977294
-0.21708697 -0.00426999 -0.39437041
-0.13553503 -0.04992283 -0.45233965
-0.14390917 0.02839194 -0.33195716
-0.09363016 0.04626055 -0.43745512
-0.14978030 -0.01138280 -0.48301733
-0.21758905 -0.00833047 -0.38753387
-0.13293584 0.05004703 -0.41341743
-0.07774368 -0.01789191 -0.43459228
-0.10462621 0.03138451 -0.38694763
-0.20908728 0.00030365 -0.41252694
-0.15417865 0.06146427 -0.35105044
-0.07911580 0.04037705 -0.43012112
-0.14967641 0.01116022 -0.33244199
-0.08895051 0.02556633 -0.45233381
-0.12102939 0.02555048 -0.43840656
-0.08232630 -0.01373225 -0.45316577
-0.21303561 -0.03218512 -0.38695186
-0.08171335 -0.01977625 -0.40258434
-0.14817524 -0.01078156 -0.35123825
-0.19142455 0.00684214 -0.34812424
-0.06483325 -0.02441444 -0.44144857
-0.13674285 0.17022303 -0.58925736
-0.13298208 0.02129557 -0.48351794
-0.16092382 0.03536719 -0.32669714
-0.10285763 -0.00500976 -0.38038689
-0.22270924 0.01974012 -0.40507495
-0.10530264 -0.01140176 -0.38149199
-0.16218981 0.01477991 -0.45619836
-0.08011506 0.01740396 -0.44968545
-0.11562637 -0.01522218 -0.37884411
-0.17807427 0.00997531 -0.45546699
-0.06268939 -0.00874207 -0.43800834
-0.14067823 -0.01576490 -0.36358908
-0.14591557 -0.03853089 -0.46726120
-0.17010680 0.02576671 -0.32927823
-0.10447842 0.02158556 -0.39307648
-0.17958519 -0.01052210 -0.43687087
-0.08356027 -0.01544437 -0.45669684
-0.10581867 0.01077827 -0.37073088
-0.08821117 -0.02664491 -0.46452790
-0.10892425 0.01955435 -0.47307026
-0.11060166 0.02887637 -0.47279498
-0.19220409 0.00106873 -0.42461842
-0.11262895 -0.01781764 -0.48870263
-0.11856645 0.02840939 -0.36384559
-0.12096658 0.02618938 -0.43556729
-0.15343140 -0.01554425 -0.48343632
-0.13628399 0.03263113 -0.35856837
-0.09916358 0.03156516 -0.41408998
-0.12882501 0.02175971 -0.41925123
-0.12697609 -0.01780640 -0.37446243
-0.13119221 0.00296462 -0.34557104
-0.18256721 0.02073866 -0.43705803
-0.00562998 0.08924246 -0.20752899
-0.14419694 0.00490795 -0.33321452
-0.15121159 0.00256346 -0.33561912
-0.10019240 -0.03823053 -0.45212314
-0.19203272 -0.00487088 -0.37147406
-0.09495562 -0.03637397 -0.41097650
-0.09725594 0.04256415 -0.45748574
-0.22956154 0.01263506 -0.41126564
-0.09767625 0.03911947 -0.41104284
-0.13202101 0.03782858 -0.36771923
-0.13797414 0.01607722 -0.47782665
-0.20452023 0.01932516 -0.35178882
-0.16730556 0.01303997 -0.46729842
-0.10803962 0.04261052 -0.43864372
-0.12276737 -0.02825693 -0.40372398
-0.16963540 -0.03054772 -0.39505222
-0.15056582 -0.00767562 -0.47313103
-0.16254598 0.02345370 -0.32851931
-0.17091292 0.03296729 -0.44674164
-0.14156699 -0.03336582 -0.46945378
-0.13594946 0.02949371 -0.34193003
-0.13096952 0.01725962 -0.48102936
-0.12459935 0.03213578 -0.47627765
-0.07462780 -0.02816078 -0.41092458
-0.20711929 -0.01366022 -0.40693301
-0.15676430 0.00300858 -0.45788354
-0.13044897 -0.04354180 -0.44996858
-0.12837657 0.03359928 -0.46704686
0.10619781 -0.00068542 -0.42402050
-0.19053921 0.01143339 -0.43417308
-0.13736920 -0.01661744 -0.36587834
-0.11686541 0.04452756 -0.40800056
-0.14944822 0.00408451 -0.46033883
-0.09853772 -0.03037051 -0.42454469
-0.09599596 0.04214190 -0.44819102
-0.12734967 0.01848956 -0.48159432
-0.15861855 0.02477705 -0.46523136
-0.18863255 0.02554141 -0.42137221
-0.12482557 -0.04033139 -0.41874194
-0.09942798 -0.03489843 -0.45656934
-0.11425909 0.00457212 -0.36708331
-0.07587366 0.03953430 -0.42835438
-0.18615332 0.03185302 -0.42424202
-0.11118384 -0.04154465 -0.43812731
-0.13706326 -0.04848835 -0.46289527
-0.15850061 0.03780704 -0.32639211
-0.10305804 0.03764086 -0.41908765
-0.13982616 0.04271462 -0.37203407
-0.11304024 -0.01389463 -0.37439880
-0.13776191 -0.04449865 -0.41382903
-0.10828614 -0.04191557 -0.45068645
-0.06553251 0.00310971 -0.44311386
-0.18140215 0.03179958 -0.42694658
-0.16738158 0.04663993 -0.37926894
-0.14747031 0.02177705 -0.38472319
-0.14328703 0.02709819 -0.39396590
-0.15279238 -0.01874165 -0.36021429
-0.19879580 -0.03866812 -0.38867354
-0.14882255 0.01416476 -0.45747846
-0.12667570 0.04255625 -0.37775397
-0.17059574 -0.02753850 -0.37826559
-0.14341781 0.00494243 -0.48630968
-0.15156582 -0.03313415 -0.40068984
-0.11622166 0.03564367 -0.37405658
-0.15858060 0.01685271 -0.32938409
-0.11100910 -0.03323353 -0.40955058
-0.10585004 0.04329159 -0.43246561
-0.22580099 0.01262623 -0.38614884
-0.19054914 0.11248469 -0.62008423
-0.19785541 0.00971235 -0.34858555
-0.15326333 0.06010848 -0.37193966
-0.20587197 -0.02104923 -0.38903984
-0.08670759 0.04644307 -0.43132481
-0.12132933 0.03986029 -0.43840018
-0.16961738 -0.00273519 -0.45578691
-0.11859806 0.04743715 -0.39117971
-0.12250888 -0.03739574 -0.43807983
-0.17005080 0.00677352 -0.46205246
-0.13471764 0.04727281 -0.42572400
-0.10935399 0.02736530 -0.46274561
-0.08118498 0.02408251 -0.45044601
-0.12206843 -0.02196371 -0.49040398
-0.22652346 -0.02079008 -0.39740705
-0.12455591 0.01492363 -0.35156390
-0.11854095 -0.02064632 -0.38336554
-0.17707936 0.01710013 -0.45343044
-0.06816084 -0.02278261 -0.43034482
-0.08742142 0.19990599 -0.55407000
-0.18322998 -0.03268845 -0.40255105
-0.11333730 0.02328586 -0.44157451
-0.21946892 0.02908345 -0.39252615
-0.12831885 -0.02368630 -0.49179327
-0.18406308 0.04745494 -0.36390075
-0.08051924 0.01452653 -0.40571803
-0.08740295 -0.01595160 -0.45344403
-0.16721977 -0.02874710 -0.37990746
-0.21208653 0.03651537 -0.37077212
-0.17972246 0.04114755 -0.34137067
-0.11697045 0.04469912 -0.44102824
-0.09354247 -0.02448955 -0.43799579
-0.15932348 0.04592106 -0.42625982
-0.11388075 0.04137218 -0.40250888
-0.21781290 0.03496880 -0.39528862
-0.10385677 0.02550221 -0.46069437
-0.06941172 -0.00899920 -0.43888122
-0.14316267 0.04447086 -0.37055677
-0.09480712 -0.02670389 -0.43623132
-0.22493413 0.01624431 -0.39803979
-0.12983167 -0.01153760 -0.49190858
-0.08376174 0.01872196 -0.40605727
-0.16547957 -0.00279423 -0.34093097
-0.07109351 -0.00477936 -0.41073728
-0.11540541 -0.03213095 -0.44432652
-0.17622206 -0.03315625 -0.41412142
-0.07211617 -0.02574938 -0.41514266
-0.10601629 0.00670268 -0.37542486
-0.17257768 0.01584801 -0.46151757
-0.13649540 -0.01790827 -0.49027634
-0.08843011 -0.02557601 -0.45898488
-0.18583190 0.02147749 -0.33532628
-0.09337749 -0.03749777 -0.44970420
-0.11838066 0.04519732 -0.38479689
-0.19011161 -0.00172851 -0.35250619
-0.09614874 0.02334055 -0.45819429
-0.09415792 0.03442714 -0.41988674
-0.13849434 -0.02576994 -0.38053548
-0.09197214 0.04386364 -0.44732404
-0.10453108 0.02837247 -0.42192304
-0.08516971 0.03622138 -0.44649425
-0.10324178 0.01969232 -0.39759549
-0.16836444 -0.03308401 -0.41135290
-0.17117676 0.01918432 -0.45582938
-0.20835888 -0.00515728 -0.41009435
-0.15672868 0.01371998 -0.46052390
-0.08028430 0.00290212 -0.40157264
-0.11599122 0.03178151 -0.37050927
-0.11000666 0.02560552 -0.43610689
-0.18467170 0.05062060 -0.37088802
-0.15949158 0.03345079 -0.45147964
-0.12521860 0.04485910 -0.44576505
-0.15215015 0.00221650 -0.46131313
-0.07871533 -0.00961626 -0.40491173
-0.09784746 0.04134230 -0.40913853
-0.18797618 -0.04734462 -0.40462786
-0.20984000 0.04274700 -0.37740684
-0.09542602 0.02690323 -0.38583744
-0.13635635 -0.04068881 -0.40791658
-0.11596304 0.04360709 -0.43274117
-0.15952876 0.05741302 -0.34372371
-0.19788593 -0.00375597 -0.37018716
-0.19413841 0.02178783 -0.41514242
-0.11075355 0.03624405 -0.40074795
-0.09777562 0.02133672 -0.45707485
-0.16888493 -0.00156433 -0.33981413
-0.07113627 0.01161898 -0.44535342
-0.15580913 -0.01189491 -0.37866139
-0.10054329 0.03963749 -0.43257728
-0.12755729 0.00024352 -0.49159059
-0.13801453 0.03769131 -0.34990183
-0.13829580 0.04581014 -0.44591466
-0.18405202 0.00370494 -0.44086093
-0.08829021 0.01964953 -0.40408438
-0.03583214 0.20101041 -0.51874107
-0.10855569 0.02251640 -0.47219509
-0.10711568 0.01056733 -0.47739816
-0.10913484 -0.01238811 -0.37699926
-0.11795625 -0.03665543 -0.45851308
-0.16617209 -0.02324995 -0.36858004
-0.07962930 -0.01729850 -0.40448278
-0.16988108 -0.01972149 -0.36486757
-0.22628883 0.01058587 -0.38112074
-0.10765862 0.02519267 -0.47343010
-0.09997577 0.04257322 -0.44693303
-0.17476910 -0.03349418 -0.40537605
-0.15439183 0.04723515 -0.33347467
-0.18004251 0.05100255 -0.40561929
-0.12807742 0.04818343 -0.36993167
-0.15055190 0.03950369 -0.44782475
-0.10584074 -0.04440895 -0.42642483
-0.13908702 0.01482879 -0.47990581
-0.17899835 0.03983012 -0.42548195
-0.17138824 0.02848440 -0.45970547
-0.10811943 0.02956572 -0.43428969
-0.15930715 0.05574431 -0.34221190
-0.11362845 0.04096209 -0.43976179
-0.14539862 0.04991956 -0.37969860
-0.10504662 -0.03159524 -0.40958071
-0.13974641 0.02928654 -0.33927247
-0.21184403 -0.00705270 -0.37322232
-0.13150141 -0.03561547 -0.44470969
-0.21912438 -0.02620193 -0.38652527
-0.09437023 0.03160654 -0.45315307
-0.20400733 0.05347072 -0.40360716
-0.06760418 0.00256149 -0.41525385
-0.10360070 -0.01599901 -0.38759384
-0.19439331 0.03262820 -0.36316878
-0.14993462 0.05199791 -0.41876075
-0.16805163 0.00958066 -0.46154413
-0.21443918 0.00709912 -0.35874668
-0.01650600 0.08999311 -0.19048925
-0.16191012 -0.03702566 -0.42328432
-0.11473361 0.03816312 -0.46938491
-0.14693566 -0.04592349 -0.44773459
-0.17840108 0.04646333 -0.34467015
-0.14076346 -0.01196589 -0.36507708
-0.17231360 -0.03088652 -0.40219852
-0.14720723 0.00069574 -0.48259503
-0.15088177 -0.03564493 -0.45785052
-0.14423659 -0.01286597 -0.35678041
-0.11970231 0.02087942 -0.44111830
-0.18266743 0.02995498 -0.42237893
-0.15529792 0.01231402 -0.45280755
-0.15760258 0.01889477 -0.45800081
-0.11011919 0.03824964 -0.44159955
-0.12854658 0.04752433 -0.42198548
-0.08912019 -0.01320974 -0.39749011
-0.13664290 0.04466663 -0.37800181
-0.13227764 0.04774883 -0.43864867
-0.09382387 -0.02824893 -0.43281305
-0.17790785 0.02328638 -0.33347571
-0.09414269 0.03960912 -0.45100987
-0.13251370 0.01189412 -0.48244286
-0.18004051 0.04176577 -0.31731749
-0.15843493 -0.00282902 -0.45828447
-0.18851188 0.04311929 -0.36053476
-0.15773974 0.03243534 -0.45547253
-0.21228200 0.00267445 -0.40790522
-0.11686385 -0.00417641 -0.41217077
-0.14184657 0.04705312 -0.35118282
-0.17108846 0.06482772 -0.35800064
-0.19568527 0.04413821 -0.37031490
-0.20166528 -0.01460458 -0.40964204
-0.08574438 0.00597236 -0.46027523
-0.09829486 0.03109572 -0.45826724
-0.19061968 0.02638561 -0.43383312
-0.15722328 0.00221837 -0.47500074
-0.12014018 -0.03610306 -0.46065634
-0.09227684 -0.01687790 -0.45935199
-0.14004838 0.02687993 -0.47653735
-0.13943958 0.03742629 -0.42754704
-0.22361732 -0.00365947 -0.37342075
-0.08891138 0.04640716 -0.46230897
-0.09986672 -0.02914728 -0.43097082
-0.10946982 0.19572079 -0.56924462
-0.15665787 0.00458674 -0.46914312
-0.09655817 0.02437283 -0.38784200
-0.20852661 0.03894818 -0.37157434
-0.17833462 0.02098158 -0.45513827
-0.18062243 0.01710094 -0.44732761
-0.19701824 -0.01988218 -0.40935767
-0.08294462 0.00421765 -0.40073901
-0.12487365 0.01239383 -0.48650274
-0.19437984 0.04387922 -0.41279656
-0.10536496 -0.00640463 -0.48338801
-0.12927382 0.04125083 -0.37092540
-0.15310989 0.02468282 -0.46985134
-0.14996091 -0.04247648 -0.45160121
-0.13948041 0.02121940 -0.46408734
-0.23048040 0.00913697 -0.40539074
-0.12975442 0.01639005 -0.41545793
-0.16359743 0.02974116 -0.45469528
-0.12360639 0.04124381 -0.43530220
-0.08580701 0.02364659 -0.40763688
-0.18220949 0.05698292 -0.36591652
-0.13329320 -0.04032091 -0.42674229
-0.20497710 0.01113377 -0.41664708
-0.15564880 0.00081869 -0.47386211
-0.10544240 -0.03009301 -0.40294254
-0.18110520 -0.02724977 -0.37937140
-0.19837922 0.02524078 -0.35370418
-0.10363379 0.01775644 -0.47392714
-0.10898809 0.19129595 -0.56804204
-0.16157717 0.06117123 -0.37955403
-0.17465994 -0.00832757 -0.44339240
-0.23243618 -0.00585080 -0.39761868
-0.10886684 -0.01073933 -0.48676348
-0.20461282 -0.01595471 -0.40407988
-0.14976822 0.04075752 -0.45023406
-0.07603273 0.02101290 -0.41178185
-0.12517808 -0.02489518 -0.39315695
-0.11377072 0.04530964 -0.43343267
-0.15618899 0.03804249 -0.40191332
-0.01517337 0.09395147 -0.20290482
-0.15887709 0.04709376 -0.33307385
-0.15361542 0.01237262 -0.47580260
-0.14197671 0.04679248 -0.35574096
-0.11465255 -0.03978423 -0.41780546
-0.12275326 -0.04269803 -0.41307253
-0.07231247 0.02690241 -0.43841761
-0.11448056 0.03839465 -0.38010234
-0.15611666 0.03568023 -0.45117176
-0.15977624 0.02038551 -0.45776501
-0.13252088 0.03070019 -0.34952557
-0.18645382 0.05327534 -0.37303740
-0.15209016 0.02001389 -0.46837157
-0.11320124 0.01186984 -0.36722958
-0.11626557 0.03523568 -0.46836609
-0.11902119 0.02022305 -0.48226941
-0.14486517 -0.03532428 -0.41662019
-0.11112751 -0.04025365 -0.41546181
-0.11248627 0.18960316 -0.57026982
-0.10646155 0.04325708 -0.46314961
-0.11695474 0.04238212 -0.43695942
-0.07680075 0.02870431 -0.44364136
-0.18494108 0.00597253 -0.43985224
-0.11727417 -0.01327085 -0.37493885
-0.11055162 0.03481323 -0.45914543
-0.15755469 -0.03785248 -0.42699474
-0.14271146 0.04279642 -0.33971998
-0.10446905 0.01517455 -0.47237277
-0.09665467 0.04125682 -0.45024803
-0.19133636 0.03480033 -0.42746365
-0.16191113 0.05915709 -0.34575510
-0.12706923 0.02457928 -0.35281143
-0.13279873 -0.01918437 -0.37901479
-0.08883929 -0.03371985 -0.44971982
-0.16316639 0.00104608 -0.46598282
-0.10971092 -0.03953293 -0.45571586
-0.15679601 0.06055230 -0.34786859
-0.19638941 0.01333747 -0.41812932
-0.19711456 0.03765690 -0.37047449
-0.13943037 0.01050270 -0.48241454
-0.07790989 0.01064171 -0.45069587
-0.18367663 0.02288747 -0.42737845
-0.07302308 0.00098603 -0.40398648
-0.07875370 0.04058457 -0.43782839
-0.07325570 0.02921772 -0.43637598
-0.15832981 0.04390641 -0.43195996
-0.13250053 -0.04045224 -0.47405702
-0.13304596 -0.00696931 -0.35536882
-0.12346506 -0.04002494 -0.42127502
-0.17567757 -0.02231373 -0.36787286
-0.16345379 -0.01500323 -0.36472449
-0.15295702 -0.03414212 -0.41603798
-0.22080860 0.02723356 -0.39448297
-0.06002358 0.21757953 -0.53635573
-0.10046384 -0.02218071 -0.44793850
-0.09113710 0.01862172 -0.40103376
-0.18029588 0.03659962 -0.33781517
-0.18089256 -0.03010968 -0.38019326
-0.10359290 -0.01769977 -0.46879429
-0.16446164 0.03803604 -0.39674231
-0.07306638 -0.01122366 -0.41216421
-0.12047339 0.03101349 -0.36786404
-0.19289511 0.03159153 -0.34980276
-0.12196005 -0.03080179 -0.40007728
-0.20961726 -0.02097999 -0.39266199
-0.12232096 0.02899284 -0.47765034
-0.20397666 0.03019972 -0.41837907
-0.17607862 0.00831203 -0.45723596
-0.21196970 0.01394314 -0.35739613
-0.07684895 0.03961380 -0.42643008
-0.11982447 0.01568976 -0.44027793
-0.08559745 0.02164912 -0.45268178
-0.10690194 0.01143605 -0.47328696
-0.12557253 0.04518533 -0.42646694
-0.12966996 0.00057909 -0.42841092
-0.20803243 0.02802689 -0.41462451
-0.14706123 0.02008340 -0.47087651
-0.12904805 0.01959651 -0.41876289
-0.09368917 0.02357660 -0.38747355
-0.12238152 0.04510029 -0.45085344
-0.12239799 -0.03644799 -0.40501627
-0.22540811 0.01577958 -0.40892339
-0.20987543 0.03872688 -0.40579125
-0.20305899 0.02896448 -0.36027923
-0.20650291 -0.02845815 -0.38085294
-0.16350728 0.02609962 -0.46146202
-0.20963410 0.04633124 -0.39121512
-0.15344758 0.03072794 -0.40163928
-0.14775643 0.04048315 -0.33318886
-0.17181090 0.02540873 -0.45805430
-0.14615087 0.04269800 -0.43524256
-0.16790697 -0.03608056 -0.41630316
-0.12896483 0.02974902 -0.36337039
-0.21687996 -0.01491275 -0.38948557
-0.06216570 0.00648201 -0.43592358
-0.06737038 0.00554127 -0.41031158
-0.16914761 0.03202999 -0.44598502
-0.13871738 0.05030477 -0.38251901
-0.13516039 0.03434372 -0.35491791
-0.11976408 -0.01402545 -0.49291709
-0.14230534 0.03302842 -0.33486888
-0.15952712 0.01206173 -0.47351885
-0.14317679 -0.04161181 -0.45526117
-0.11874208 -0.01451192 -0.41100100
-0.18649694 -0.00476521 -0.36543071
-0.14408816 0.05198956 -0.35683185
-0.20914584 0.01904405 -0.35380673
-0.10098328 0.01904828 -0.39284116
-0.10258494 0.00271052 -0.38108638
-0.09640115 -0.02974011 -0.42112941
-0.09708361 -0.02288963 -0.39405030
-0.09624960 0.04064664 -0.40462729
-0.15933676 -0.00094789 -0.45363656
-0.09179761 0.03033156 -0.45209241
-0.15278101 -0.02758112 -0.46019703
-0.22034961 0.00456568 -0.36827922
-0.20942318 -0.00488810 -0.36038002
-0.21116179 -0.00501359 -0.40416905
-0.17888355 0.03401779 -0.31875974
-0.08884494 0.00527730 -0.45797101
-0.10653436 0.03816268 -0.45976177
-0.12294802 0.04457864 -0.44087678
-0.16711842 0.03463387 -0.40378001
-0.13111159 -0.04821966 -0.41635743
-0.07539141 -0.01842486 -0.41240308
-0.11890451 0.03934451 -0.44669658
-0.09187207 0.04516888 -0.42729032
-0.14291529 0.04511878 -0.37391469
-0.18408144 0.05041923 -0.35339367
-0.11127244 0.01767414 -0.44119185
-0.20502383 0.01382543 -0.41750953
-0.14691082 0.05152101 -0.36867532
-0.17604589 0.03360528 -0.41938323
-0.22670186 -0.00605242 -0.38056368
-0.19092715 -0.00877308 -0.42482853
-0.06224345 -0.00728145 -0.44434080
-0.08029820 -0.00934898 -0.45575798
-0.14839020 0.02707381 -0.33147132
-0.13084748 0.04590591 -0.37252283
-0.10640502 0.01344151 -0.46763325
-0.16378365 -0.02730229 -0.38743198
-0.20454359 0.05234681 -0.39212149
-0.18767893 0.00268065 -0.43342152
-0.04002398 0.21925615 -0.52217156
-0.07612994 -0.02424029 -0.40436509
-0.16543043 -0.03707361 -0.44049653
-0.13575873 -0.00211834 -0.48973686
-0.15871814 0.00940118 -0.33245692
-0.10155049 0.04216884 -0.43607363
-0.12500638 0.04498751 -0.43515640
-0.10413292 -0.02949548 -0.42634553
-0.10652741 -0.03358958 -0.41455445
-0.21645334 0.01613707 -0.36042425
-0.13670027 -0.00669374 -0.49153692
-0.11569175 0.02926254 -0.36878839
-0.20432359 0.04939941 -0.38962018
-0.08521686 -0.03701767 -0.44620150
-0.09773094 -0.04443093 -0.42726475
-0.13710693 -0.04477019 -0.46980518
-0.17332733 0.02928166 -0.32998139
-0.06491796 -0.00099909 -0.43244657
-0.16725326 0.01700812 -0.45558873
-0.09259780 0.01554998 -0.39564323
-0.08671479 -0.01896226 -0.44115511
-0.12947959 0.05485136 -0.39455548
-0.09260220 0.04053048 -0.44534898
-0.14884251 0.02202505 -0.46119508
-0.10104240 0.03977242 -0.42223406
-0.12389126 0.04027958 -0.46592385
-0.08490479 -0.00261292 -0.45865992
-0.11034285 -0.03462237 -0.41358873
-0.14382249 0.17298296 -0.59221411
-0.10589217 0.03383505 -0.41494748
-0.11950846 0.04643619 -0.44064429
-0.07505093 0.00403638 -0.45916662
-0.19629398 0.04621477 -0.36439869
-0.08482582 -0.00213892 -0.39616320
-0.10569362 -0.03887504 -0.41084626
-0.16222204 0.00101191 -0.46387014
-0.15104023 0.03999167 -0.33003145
-0.20559600 0.04355688 -0.37182629
-0.11042403 0.03910030 -0.38662934
-0.08121841 0.01923120 -0.40860724
-0.13740945 0.01927059 -0.45233363
-0.12799281 0.03235279 -0.45970842
-0.18147063 0.05800858 -0.36188287
-0.11489253 0.03137943 -0.46862650
-0.14706500 0.05460055 -0.36307317
-0.18217251 -0.01697360 -0.42922318
-0.13187061 -0.03837204 -0.47843248
-0.20091337 -0.01402189 -0.41387281
-0.08897052 0.00741066 -0.39115015
-0.08719093 0.03223857 -0.41730744
-0.16220702 -0.02908348 -0.38821629
-0.01732903 0.09538122 -0.19218852
-0.21218908 0.03341430 -0.40756723
-0.11643159 0.02359554 -0.36406082
-0.17394882 0.02813492 -0.45069909
-0.16126207 0.04201159 -0.32900265
-0.11336208 -0.03110801 -0.40473974
-0.14788420 -0.03723459 -0.42273426
-0.14374645 0.01606458 -0.45936948
-0.11860354 -0.00133633 -0.48932895
-0.14305922 -0.02167274 -0.39572439
-0.11441826 -0.04424090 -0.41028336
-0.14634377 0.02921609 -0.40166929
-0.06554523 -0.02003322 -0.44193769
-0.12608349 0.04635503 -0.42394704
-0.18779358 -0.03706697 -0.38619101
-0.18098688 0.01961919 -0.33566281
-0.08967284 0.04199814 -0.42615914
-0.12800539 0.01821623 -0.48649073
-0.06841817 -0.00646339 -0.41728064
-0.06356718 -0.00022385 -0.42408714
-0.10989735 -0.03022063 -0.40813914
-0.12223577 0.00488383 -0.35554677
-0.11147035 0.03720340 -0.40291864
-0.17530161 0.04154817 -0.43194348
-0.04248181 0.21301481 -0.52286661
-0.14145333 -0.01338206 -0.48613903
-0.18766025 0.03352723 -0.33650514
-0.10001262 0.01562342 -0.38418198
-0.14622991 -0.01253591 -0.48409361
-0.09070550 0.04866638 -0.43212384
-0.15921268 0.00407418 -0.46713358
-0.22578332 -0.00007350 -0.37400725
-0.17352054 0.01737589 -0.33277687
-0.11812645 0.03938945 -0.46761873
-0.09488174 0.01073666 -0.38807866
-0.11198112 0.03800582 -0.41077074
-0.13951267 0.02976707 -0.46225554
-0.07612783 0.02739101 -0.41488096
-0.16757108 0.02495090 -0.38206801
-0.14441377 -0.00837539 -0.48554397
-0.18695444 0.02927945 -0.34558561
-0.17766443 -0.02855102 -0.43708208
-0.23042154 -0.00931014 -0.38749823
-0.11260664 0.00522038 -0.43345213
-0.10809770 0.01176660 -0.37510872
-0.13170822 -0.01552824 -0.36746368
-0.18915033 0.04498443 -0.36926767
-0.12090652 0.03780638 -0.46590406
-0.12737758 -0.00535267 -0.49120873
-0.10919596 -0.04698863 -0.42731136
-0.11756097 0.04221530 -0.42140755
-0.10858695 -0.03422853 -0.42027843
-0.12725408 0.03993029 -0.46064436
-0.13979615 0.02699983 -0.46610636
-0.12437861 0.04164396 -0.43131816
-0.13772513 0.02367135 -0.34084350
-0.17964923 0.00641040 -0.33862564
-0.10928728 0.04286111 -0.46374395
-0.08736697 -0.00389203 -0.39482048
-0.13293543 0.02963064 -0.46960300
-0.09960777 -0.00491921 -0.37785012
-0.12621164 0.02789321 -0.35533223
-0.11391743 -0.00654195 -0.48747712
-0.14416078 -0.01078955 -0.48519301
-0.13150801 0.03674250 -0.43857858
-0.15943633 0.01499588 -0.47113013
-0.16557327 -0.02110029 -0.44950491
-0.20871082 0.03613823 -0.36872301
-0.12695844 -0.04389950 -0.47251287
-0.13734293 0.02549057 -0.48046526
-0.08257987 0.03985126 -0.42740166
0.12308376 0.14473894 -0.45834014
-0.08916707 0.01929738 -0.40006921
-0.18636885 0.02729817 -0.44236517
-0.19635719 -0.02735893 -0.40281132
-0.12515339 -0.03550122 -0.43754235
-0.16084594 0.01158862 -0.46189022
-0.09450442 0.03197096 -0.41634896
-0.13719393 -0.05197407 -0.45223266
-0.20856276 0.01483006 -0.35418680
-0.07902177 -0.03176816 -0.40663135
-0.15503992 0.04503717 -0.41171077
-0.15174048 -0.00565614 -0.48072639
-0.11393309 -0.02593777 -0.48308253
-0.14119583 0.02327992 -0.46739274
-0.10909732 0.02279496 -0.46856439
-0.14985225 -0.01515835 -0.47885603
-0.12560108 0.03269808 -0.36781570
-0.15597944 0.00552654 -0.45230195
-0.10487296 0.03828064 -0.45805967
-0.13281336 0.04914646 -0.38610587
-0.19068182 -0.03724980 -0.39117211
-0.15281177 -0.01444036 -0.35767162
-0.07830057 -0.03081057 -0.45129299
-0.14920959 0.00426507 -0.45719397
-0.16150877 0.01447612 -0.47197914
-0.10764794 -0.03124574 -0.44033766
-0.16854540 0.03997251 -0.33017516
-0.16477509 -0.03292989 -0.38911206
-0.10140364 0.02073474 -0.40296787
-0.11832119 0.02940330 -0.36652300
-0.08567816 0.01426631 -0.40017387
-0.09183232 0.05067901 -0.43450153
-0.10598588 0.01976927 -0.46376145
-0.16516784 0.04102168 -0.39924073
-0.12197950 -0.02856193 -0.39576453
-0.16744572 0.02973417 -0.45623374
-0.18885365 0.04297610 -0.37156776
-0.12119921 0.02808191 -0.36502782
-0.07335226 0.00894345 -0.44763222
-0.08232579 -0.00070920 -0.39977267
-0.11103289 0.02078271 -0.47497860
-0.11552796 0.04245954 -0.41828266
-0.18520698 0.03162977 -0.43090627
-0.15275398 0.04140357 -0.44401106
-0.09886125 0.04399595 -0.44233999
-0.16809541 0.03080629 -0.32843655
-0.11033279 0.01214069 -0.37181285
-0.13112332 0.00220063 -0.48821843
-0.13783358 -0.03172409 -0.39810222
-0.15129116 0.02199162 -0.47175992
-0.11262960 -0.04117595 -0.45678842
-0.11704111 -0.00857212 -0.36913934
-0.08996762 0.02535783 -0.40773654
-0.20384982 -0.03540426 -0.38505068
-0.21728024 -0.00411972 -0.36785984
-0.17740136 0.01851216 -0.33379832
-0.12036804 -0.03961094 -0.47610947
-0.10389080 0.01086193 -0.46999735
-0.09419435 0.03840351 -0.45391485
-0.08442886 -0.02473246 -0.46596229
-0.14297070 0.02639816 -0.44810504
-0.15099412 0.00148258 -0.45621154
-0.20648625 0.03045572 -0.41747779
-0.12001107 -0.04025435 -0.40772951
-0.12288585 0.05751346 -0.37142587
-0.16048287 -0.03905120 -0.44544387
-0.12995794 0.01071153 -0.48630589
-0.15654221 0.02282691 -0.32831186
-0.12427329 -0.02013069 -0.38238990
-0.16816585 -0.02856166 -0.39544618
-0.13006115 0.04622912 -0.38237998
-0.17110977 0.04115310 -0.39544791
-0.10802427 0.00730123 -0.48071915
-0.07889426 0.03446593 -0.44010249
-0.18880811 -0.00841375 -0.35448280
-0.13295943 0.04773199 -0.37383971
-0.12557212 -0.04288912 -0.41949728
-0.16034916 0.06601778 -0.36108679
-0.20348689 -0.00795647 -0.37318212
-0.14682533 0.03994120 -0.44890249
-0.10149442 0.02046420 -0.38736629
-0.16456231 0.00984428 -0.46392351
-0.19031441 -0.03074348 -0.40244335
-0.10472761 0.02479726 -0.39175248
-0.16474640 0.01655772 -0.47157350
-0.13797866 0.03475158 -0.46559715
-0.10926760 -0.01500035 -0.37878963
-0.09940400 -0.02307109 -0.45158368
0.12227800 0.19123147 -0.44340143
-0.15133823 0.05993574 -0.36497474
-0.07280351 -0.02064885 -0.41522735
-0.10294765 0.00935133 -0.37997580
-0.18688440 -0.03382858 -0.40421125
-0.14479962 0.02648807 -0.33400369
-0.14659376 0.02520597 -0.33283278
-0.13413355 0.03113784 -0.47187942
-0.16401999 0.02925147 -0.32838732
-0.18553224 0.04695148 -0.37544048
-0.12335500 0.03412800 -0.45497069
-0.17787096 0.01343819 -0.45613694
-0.11663082 -0.01741301 -0.41779059
-0.14135376 0.01603806 -0.47124329
-0.12723559 0.03375182 -0.46319067
-0.12685809 0.01337596 -0.48479000
-0.11599110 0.02543158 -0.47387072
-0.21357164 0.04289643 -0.39515248
-0.17045763 0.03287648 -0.37960130
-0.15423667 0.01150488 -0.45642334
-0.09151102 -0.02247860 -0.43738255
-0.12108386 0.04685688 -0.41855904
-0.17823434 -0.02573957 -0.37276068
-0.20401129 -0.01335838 -0.41048491
-0.21700805 0.03156865 -0.37973326
-0.17683813 0.00000197 -0.45754617
-0.12057048 -0.00746865 -0.41227886
-0.19064215 0.04718358 -0.38014513
-0.16149318 0.03115190 -0.45693201
-0.13019553 0.00535558 -0.34524584
-0.18629178 0.02494892 -0.33608764
-0.12844381 -0.02822128 -0.48589361
-0.10190098 -0.02995647 -0.40327206
-0.08582748 0.02511237 -0.45042151
-0.13103846 0.04455275 -0.44254512
-0.19300488 -0.03651699 -0.38895133
-0.12712342 0.02223457 -0.34928483
-0.13904919 -0.04707170 -0.42517307
-0.16101986 0.00013671 -0.46784589
-0.16648236 0.05597887 -0.39981884
-0.14598189 0.05107173 -0.43020281
-0.13852197 -0.00631304 -0.34949630
-0.13640808 -0.00080902 -0.49309659
-0.16695194 -0.01764012 -0.36625665
-0.14787453 0.01233649 -0.48278701
-0.15268326 0.03927412 -0.32868692
-0.10406370 0.02398986 -0.38202697
-0.11867828 0.04416033 -0.42712981
-0.15301564 0.00997659 -0.47669229
-0.15541336 -0.03364472 -0.41222411
-0.09298386 0.00321780 -0.38908714
-0.17056638 0.03035102 -0.32897186
-0.17038336 -0.02265619 -0.36799160
-0.20324805 0.01849456 -0.42225739
-0.15430580 -0.03014439 -0.45399112
-0.22163275 -0.00042813 -0.39261416
-0.09793816 0.01907408 -0.46714959
-0.11053485 0.04277958 -0.44432014
-0.13859367 0.03173629 -0.34025249
-0.22295928 0.01880579 -0.38440937
-0.08872087 -0.02285144 -0.39762723
-0.13633624 0.02116399 -0.48569575
-0.10901596 0.02340366 -0.46270663
-0.09896538 0.04285175 -0.43955860
-0.13456321 -0.01743042 -0.37316260
-0.16878094 0.03731030 -0.37987041
-0.14497381 -0.03142679 -0.46986356
-0.15412518 -0.03850301 -0.43345493
-0.14748222 -0.02606387 -0.40214130
-0.23151419 -0.01315548 -0.40108791
-0.11203589 0.03682818 -0.46709615
-0.14944151 0.05939870 -0.35762703
-0.14449596 0.01644103 -0.46284744
-0.16672522 0.00835563 -0.33401862
-0.07424275 0.00937562 -0.45154157
-0.19363567 0.03401364 -0.35116780
-0.11395685 -0.03971266 -0.43827096
-0.08257370 0.04528967 -0.43065602
-0.13624346 0.01606010 -0.34002045
-0.16088220 -0.02855832 -0.45090798
-0.13892260 -0.00031786 -0.49035415
-0.11763716 0.00747913 -0.41536200
-0.23235014 0.00057390 -0.39540130
-0.10535657 -0.02634595 -0.40104926
-0.21611264 -0.00583776 -0.36753187
-0.19004628 -0.00538287 -0.42730618
-0.08394884 -0.00329424 -0.40068531
-0.16346034 -0.02803891 -0.39541811
-0.11109578 -0.04188392 -0.41815361
-0.08691290 0.04501121 -0.42904603
-0.10798118 -0.03222518 -0.41338512
-0.09878895 0.03472783 -0.45592427
-0.13882585 0.02646876 -0.33700773
-0.16454419 -0.00527118 -0.34465975
-0.08322018 -0.03934500 -0.44042915
-0.19873804 0.05041270 -0.40247932
-0.08521901 0.04250369 -0.43764004
-0.10706626 0.01566049 -0.47970268
-0.11407200 0.04165415 -0.38560024
-0.08615217 0.01324527 -0.39831406
