-0.1509640676 -0.0270168428 -0.4328964351
-0.0919676822 0.0222515711 -0.3798434633
-0.1084225517 -0.0008072290 -0.4304961114
-0.0739540352 0.0390296264 -0.4236236825
-0.1070836781 0.0341654804 -0.3908799076
-0.0819581929 -0.0031097080 -0.4242170957
-0.1101480730 -0.0238845293 -0.4253256726
-0.1134569865 0.0417108957 -0.4280913398
-0.1649435340 -0.0127071232 -0.3920474255
-0.1788708129 -0.0354329978 -0.4228404219
-0.1121044561 0.0235288438 -0.3678839923
-0.1072360707 0.0347394273 -0.4287581027
-0.1663012516 -0.0095402637 -0.3928674687
-0.1123321206 0.0102540242 -0.3660135183
-0.1526956236 0.0492997399 -0.4217517191
-0.1146278244 0.0406552847 -0.3832072006
-0.1106832155 0.0128869879 -0.3599709451
-0.1303783978 0.0176499291 -0.3704666768
-0.1499229847 0.0239109088 -0.3850689991
-0.1268286988 0.0402903150 -0.3925694349
-0.1332615212 0.0457064691 -0.4169282860
-0.0763229591 -0.0064446584 -0.4187388108
-0.0940663662 -0.0232961508 -0.4169822491
-0.1086423251 0.0519185066 -0.4149078463
-0.0895941586 -0.0346335888 -0.4075254188
-0.1619713537 0.0471695875 -0.4350531133
-0.1079846080 0.0081193219 -0.3681390034
-0.1491220782 0.0428160893 -0.4096593987
-0.0934161848 -0.0330800122 -0.4159159129
-0.1051422989 0.0280929958 -0.3705540609
-0.1323148607 0.0034164185 -0.3614299375
-0.1049483535 0.0308078543 -0.3715614620
-0.1425458110 -0.0050364081 -0.4420776836
-0.1251116544 0.0078127802 -0.3685827156
-0.1206441490 0.0058454124 -0.3611995046
-0.1098405113 0.0126877833 -0.3650285395
-0.1394291298 0.0541696851 -0.4372329996
-0.1017034117 0.0071364853 -0.3500518051
-0.1221569532 0.0400292075 -0.4028773117
-0.1882058205 -0.0078340188 -0.4250969973
-0.1763563679 0.0025876797 -0.4264003645
-0.1271610677 0.0220246466 -0.3707493857
-0.0994513121 0.0429829463 -0.4057018959
-0.1628981199 0.0385415671 -0.4071826576
-0.0949238377 0.0425597180 -0.4107150172
-0.1605459333 0.0022425520 -0.3905110371
-0.1025227345 0.0007743287 -0.3835413449
-0.1780716212 0.0044258875 -0.4251212425
-0.0885789927 0.0524428340 -0.4193153431
-0.1625094790 -0.0290600593 -0.4230801918
-0.1387999544 0.2596127193 -0.4082558435
-0.1310583110 0.0459825797 -0.4094688392
-0.1180060363 0.0228623966 -0.3702166855
-0.1153913271 -0.0454906165 -0.4057256327
-0.1305819154 0.0473148040 -0.4044792056
-0.0863515522 0.0471945100 -0.4180449877
-0.1199289032 -0.0015750236 -0.3718104619
-0.1095314044 0.0470594117 -0.4219338221
-0.1005502712 0.0475638810 -0.4234355796
-0.0955906574 0.0399637038 -0.4247412022
-0.1095552810 -0.0029903925 -0.3569790521
-0.1477402084 0.0261315910 -0.4365017455
-0.0915455669 0.0142704071 -0.3798066080
-0.1257582089 -0.0504519574 -0.4205343310
-0.1141505353 0.0466902349 -0.4285864084
-0.1371860743 0.0409486491 -0.4076529831
-0.1428733923 0.0510034470 -0.4275896835
-0.1498119954 -0.0186273173 -0.4399855385
-0.0862039723 0.0464290313 -0.4347830616
-0.1247413105 -0.0150979289 -0.3633749160
-0.0882505052 -0.0049701755 -0.4224998005
-0.1308485531 -0.0349311381 -0.4244671311
-0.1098306435 0.0398085469 -0.3858008402
-0.1409256905 0.0463289246 -0.4218246937
-0.1326458213 0.0353938342 -0.4293607627
-0.1422046687 0.0246427535 -0.3817699645
-0.0788665879 0.0427483783 -0.4046773856
-0.1565001327 0.0024054688 -0.3817488373
-0.1051289890 0.0165756193 -0.3537003523
-0.0821846192 -0.0010666506 -0.4200683307
-0.0965221785 0.0120297409 -0.4439049549
-0.0912304919 0.0094995030 -0.3370775721
-0.1098592044 0.0380014632 -0.3873985019
-0.0889791301 0.0076918906 -0.3368628167
-0.1008215350 0.0208824906 -0.3613705834
-0.1664625564 0.0160418349 -0.4091422201
-0.1636562441 0.0074451361 -0.3750958114
-0.1342465186 -0.0013957847 -0.3616629040
-0.1836688860 0.0003894854 -0.4074160490
-0.1899355650 0.0129691955 -0.3847891826
-0.1245421267 0.0477480055 -0.4142788016
-0.1523721776 -0.0205369677 -0.4269620367
-0.1859462543 0.0045729821 -0.3963796786
-0.0958187625 0.0126431410 -0.3726866813
-0.1633940030 0.0586409827 -0.4244409029
-0.1175873677 -0.0017929610 -0.3581751872
-0.1513903425 -0.0103261271 -0.4455455712
-0.0995251622 0.0153646916 -0.3727277157
-0.1228981479 0.0470374643 -0.4123366514
-0.1653381940 0.0409379069 -0.4180600852
-0.1665564663 0.0123318308 -0.4400782172
-0.1341137364 -0.0524825749 -0.4160475955
-0.1588287510 0.0171299577 -0.3864817299
-0.1147857882 0.0351454953 -0.3826168569
-0.1230657391 0.0520690123 -0.4026296110
-0.1358389332 0.0545528612 -0.4402673826
-0.1786485307 0.0429266162 -0.4313359892
-0.1073664032 0.0233914154 -0.3674942514
-0.1249447578 0.0252842214 -0.3708981493
-0.1307800041 -0.0414352329 -0.4251127782
-0.1247078500 -0.0106750948 -0.4407725661
-0.0805382014 0.0453094979 -0.4206965555
-0.1455310208 -0.0416906972 -0.4396903156
-0.1196692410 0.0406785836 -0.4001660993
-0.1619319870 0.0479627550 -0.4218239986
-0.1353785639 0.0681147575 -0.4123752410
-0.1569295300 -0.0084062200 -0.4387044714
-0.1429983622 0.0069309580 -0.4367381583
-0.0866809724 0.0409772658 -0.4117203153
-0.1039369201 -0.0126050659 -0.4293106583
-0.0924147111 -0.0000919182 -0.4368134484
-0.1202419912 0.0499588001 -0.4078411016
-0.0993430362 0.0523861067 -0.4093276063
-0.1042182207 0.0438898361 -0.4261688599
-0.1079260974 -0.0042232482 -0.3857360034
-0.1209470043 -0.0054304731 -0.4360580755
-0.1628903952 0.0374684702 -0.4205710952
-0.1439024657 0.0440116897 -0.4112692177
-0.1194269849 0.0008038822 -0.3618582106
-0.1169271239 0.0268227048 -0.4416671430
-0.1662341484 0.0087357178 -0.4087286928
-0.1683526026 0.0479613519 -0.4370385955
-0.1027844623 0.0434757024 -0.3995654881
-0.1207629396 -0.0300125756 -0.4279203721
-0.0903805154 0.0473591339 -0.4230618002
-0.1232361310 0.0047579364 -0.3636201438
-0.0895567566 0.0205659832 -0.4340024412
-0.1457181555 0.2510829604 -0.3894222979
-0.1040609794 0.0108977491 -0.4378777737
-0.0956445009 0.0344887704 -0.3826618521
-0.1004786439 0.0499591232 -0.4025225571
-0.1528720256 0.0242307028 -0.3960368243
-0.0699937003 -0.0052741644 -0.4017527609
-0.1213160139 0.0281704208 -0.4433412494
-0.1151574734 0.0087424496 -0.3594052301
-0.1125263792 0.0054182547 -0.4391902690
-0.1586874267 0.0457182886 -0.4030070146
-0.1624592348 0.0418004056 -0.4271644755
-0.1110535504 0.0125596587 -0.3685672234
-0.1507161674 -0.0007044184 -0.3766021229
-0.1216635736 -0.0510529728 -0.4190459238
-0.1568814645 0.0063227994 -0.3829794223
-0.1414311893 0.0224440664 -0.3764439307
-0.1061369505 -0.0172948771 -0.4224760698
-0.1579655425 0.0551385666 -0.4350724266
-0.1357968577 0.0178792488 -0.4353679091
-0.0974202730 0.0085122934 -0.4354295201
-0.0955743164 -0.0296887358 -0.4254422617
-0.1234979144 -0.0448491558 -0.4144594099
-0.1398668310 0.0287565616 -0.3884336080
-0.1629171570 0.0586587389 -0.4313640757
-0.0964394414 0.0293113173 -0.3882842895
-0.0897701231 0.0290767222 -0.3817949109
-0.1464671748 -0.0034875299 -0.4444884465
-0.0670688391 0.0185139601 -0.4040388251
-0.1271878927 0.0424171764 -0.4309218605
-0.1110329215 0.0010056308 -0.3622857089
-0.0956455469 0.0173141295 -0.3704921305
-0.1442214714 -0.0118260513 -0.4414700022
-0.1299889658 0.0298168227 -0.3850867178
-0.1683912759 0.0013070470 -0.4107670104
-0.1126100108 0.0322647744 -0.3769281928
-0.1387362000 0.0878976850 -0.4028889404
-0.1388378220 0.0192246654 -0.4358609972
-0.1364464296 0.0064605917 -0.3700332153
-0.0947732051 0.0172073250 -0.3681361684
-0.1276707505 0.0258377541 -0.3778789792
-0.1678639338 -0.0022334776 -0.4103774600
-0.1596224330 0.0106167535 -0.4011107013
-0.1313537012 0.0545596890 -0.4322588483
-0.1228774722 0.0289764971 -0.4328996468
-0.0928861313 0.0129343304 -0.3778922558
-0.1521496743 0.0117094371 -0.4391438889
-0.1601027867 0.0577270577 -0.4300915116
-0.1204774092 0.0234291294 -0.3722822353
-0.1640372667 0.0349528615 -0.4220841205
-0.0972508535 0.0330045157 -0.3775775545
-0.1310481561 -0.0151226101 -0.4313527751
-0.1444477053 0.0417460002 -0.4316573590
-0.0904378985 0.0084131986 -0.4267734238
-0.1246335595 0.0525488941 -0.4154309102
-0.1438317511 0.0568726680 -0.4360576277
-0.1291149318 -0.0486661008 -0.4110850714
-0.0944586055 -0.0171691605 -0.4239236746
-0.0967446838 0.0480966758 -0.4432394810
-0.0790964359 -0.0098594323 -0.4168947755
-0.1252792067 0.0159726622 -0.3701347071
-0.1153069362 0.0362325028 -0.3845590497
-0.0849885461 0.0375687864 -0.4034287606
-0.1725278715 0.0054652568 -0.4197013597
-0.1026756610 0.0165495804 -0.4342218454
-0.0859740470 -0.0093464517 -0.4203080299
-0.0898664427 0.0409749819 -0.4124758406
-0.1098601172 0.0275245137 -0.3732364182
-0.1254747133 0.0113102708 -0.3717693469
-0.0889649741 0.0125573498 -0.4336094149
-0.1340863808 0.0534559361 -0.4226296175
-0.1545177816 0.0199065914 -0.3885719911
-0.1536596245 0.0316298331 -0.4314212932
-0.1647553565 -0.0030842331 -0.3939130578
-0.1046852087 0.0425815916 -0.3924965180
-0.1076229426 0.0542655198 -0.4226810216
-0.1259877320 -0.0182003371 -0.3912492808
-0.0965719443 0.0503289001 -0.4374313498
-0.0914818771 0.0494672894 -0.4188642502
-0.1345674076 0.0350687282 -0.3945753655
-0.1273209088 -0.0521454810 -0.4140418264
-0.0857623145 0.0339855962 -0.3895155787
-0.1015398976 0.0403237556 -0.3844269310
-0.1473825930 0.0381191306 -0.3980143647
-0.1700392524 0.0425660344 -0.4383779616
-0.1286300835 -0.0159354486 -0.4399222883
-0.1498673824 -0.0056914016 -0.3829478539
-0.0995664899 0.0506412471 -0.4371336688
-0.0646907079 0.0099542159 -0.4021544277
-0.1322605312 0.0345308892 -0.3852558037
-0.1212433480 -0.0228777671 -0.4365345933
-0.1070048958 0.0120349121 -0.3651781976
-0.1498285495 -0.0194318616 -0.4366657410
-0.1144006637 0.0378794760 -0.3850735908
-0.0962890198 0.0162998056 -0.3632161248
-0.1096708526 0.0048630267 -0.3699104488
-0.1131708021 0.0208921509 -0.3670050976
-0.0982141084 0.0469905528 -0.4226435673
-0.1739758186 0.0423090013 -0.4379646024
-0.1410890730 0.0456885320 -0.4148294954
-0.1025473605 0.0429288073 -0.3948511089
-0.1620827880 0.0446238225 -0.4344764964
-0.1438165329 0.0341201538 -0.4297301938
-0.0978374286 0.0157922587 -0.3710908527
-0.1158641102 0.0504772058 -0.4179846798
-0.1370094873 -0.0479498886 -0.4227925295
-0.1592559021 0.0252281306 -0.4007004295
-0.1617668406 0.0321007445 -0.4058504731
-0.0952645577 0.0462043248 -0.4230727553
-0.0879778194 0.0479747099 -0.4284510588
-0.1290268985 -0.0421588321 -0.4216801998
-0.1694631894 0.0210648235 -0.4174138431
-0.1597964966 0.0275930953 -0.4031354489
-0.1564084427 0.0525361619 -0.4361915265
-0.1599321224 -0.0092126535 -0.4382373226
-0.0952219311 0.0329356035 -0.3857638165
-0.0912324922 0.0402686433 -0.4156756012
-0.1026336825 0.0281151422 -0.3737805354
-0.1784396247 -0.0024886495 -0.4037968153
-0.1701244422 -0.0097923685 -0.4295713265
-0.1678688136 0.0135457713 -0.3880191147
-0.1460767979 -0.0100459047 -0.4390531680
-0.1297329817 0.0059358175 -0.3602865735
-0.1613914545 0.0520503090 -0.4347924583
-0.1226491383 0.0061116753 -0.3690530737
-0.1588634235 -0.0083334001 -0.3818683105
-0.1427497344 0.0221622587 -0.3812549494
-0.1274688077 0.0274610045 -0.3778268908
-0.1198965670 0.0428301990 -0.4298807540
-0.1439055934 0.0514204865 -0.4153744991
-0.1214649677 0.0493259281 -0.4063785374
-0.1108916526 0.0480728694 -0.3989998541
-0.1725989383 0.0385718810 -0.4201081960
-0.0710943860 0.0132199989 -0.4138849291
-0.0790873955 0.0168243365 -0.4307881936
-0.1401878585 0.0457589988 -0.4125067385
-0.1297422672 0.0345906524 -0.3936479729
-0.1507621170 0.0486925493 -0.4432181668
-0.1478606397 0.0385354474 -0.4357832867
-0.0995223297 0.0052003652 -0.3779653602
-0.1377611501 0.0132354559 -0.3692647877
-0.1382719006 0.0062101845 -0.3727328428
-0.0954309534 0.0400565198 -0.3998361214
-0.0734935752 -0.0058441980 -0.4148688927
-0.1460528643 0.0495309144 -0.4402046094
-0.0924860210 0.0384314595 -0.3859878451
-0.1031467244 0.0160154607 -0.3639898300
-0.1319211110 0.0298538695 -0.3865718110
-0.1508614357 0.0047438057 -0.3731893475
-0.1679209786 -0.0175723037 -0.4133692402
-0.1386479131 0.0418894148 -0.3983570686
-0.1139188225 0.0508761464 -0.4238908148
-0.1411033125 -0.0092303808 -0.4420695711
-0.0767095661 -0.0276908635 -0.4067862230
-0.0911697067 0.0188727493 -0.4284324977
-0.1423292680 0.0412077892 -0.4020838232
-0.0810593933 0.0257430156 -0.4281840478
-0.1277541280 0.0260543379 -0.3715665221
-0.1050993661 0.0149625769 -0.3653188213
-0.1511344499 -0.0326733535 -0.4407750459
-0.1200244573 0.0345292761 -0.4316382424
-0.0924985480 0.0353848861 -0.3929027583
-0.1057018119 0.0009481845 -0.3755948761
-0.1228777272 0.0384646523 -0.3894406296
-0.1469453550 0.0289698117 -0.3963596030
-0.1277070418 0.0377476982 -0.3904040921
-0.0767659594 0.0345318815 -0.4060452376
-0.1097447975 0.0506028528 -0.4085279427
-0.1513192139 -0.0120450655 -0.4399645356
-0.1081721584 0.0612055893 -0.4100087872
-0.0912955694 0.0356388831 -0.4017499307
-0.1021152332 -0.0211555329 -0.4271412734
-0.1238957449 0.0014729508 -0.4368774246
-0.1086341296 0.0499430380 -0.4012137555
-0.1530502677 0.0462640473 -0.4225062198
-0.1148914926 0.0288650942 -0.4417986807
-0.1077627726 0.0231830150 -0.4386944469
-0.1333070737 0.0460623709 -0.4126468914
-0.1415038512 -0.0333305416 -0.4307506022
-0.1417712418 0.0417646605 -0.4003240363
-0.0909111554 0.0539464754 -0.4115271330
-0.1647530558 -0.0191208917 -0.4239931564
-0.0974137287 -0.0041438322 -0.4317535642
-0.1207567884 0.0006848307 -0.3690696638
-0.1251892825 0.0200488709 -0.3703568539
-0.1485990183 0.0105679076 -0.3709510782
-0.1407112912 0.0363074839 -0.4296605713
-0.0846515107 0.0213966139 -0.4397871385
-0.1071906562 0.0179265341 -0.3635098294
-0.1196620510 0.0333915470 -0.3800986088
-0.1387704288 -0.0468106587 -0.4320327219
-0.1377864222 0.0382412230 -0.4114917166
-0.0982625610 0.0173850144 -0.3606571723
-0.1239990333 0.0501395610 -0.4168763872
-0.1462586372 0.0511993465 -0.4293386392
-0.1329051301 0.0016666623 -0.3747511607
-0.1654211620 -0.0194610560 -0.4155880628
-0.1052562153 -0.0465850543 -0.4113071975
-0.1149797406 0.0354198429 -0.3871812339
-0.0882455413 0.0023237550 -0.4287155306
-0.1233732828 0.0458455412 -0.4149073183
-0.1226599678 0.0339621462 -0.3861390261
-0.1025386865 0.0433282808 -0.4049482021
-0.1401344521 0.0104927737 -0.4428522368
-0.1491969845 0.0016760424 -0.3733512260
-0.1211163862 0.0405627760 -0.4294344894
-0.1152778508 0.0481520193 -0.4121911086
-0.1577281690 0.0444332725 -0.4479465805
-0.1564426159 0.0133518514 -0.3818150886
-0.1703902934 -0.0118611793 -0.3783633837
-0.1557779793 -0.0050401859 -0.4433400630
-0.1223374142 0.0036914945 -0.3676062475
-0.1250098057 0.0463769105 -0.4102136322
-0.1027877995 0.0378964902 -0.3851988592
-0.1280494118 0.0462594647 -0.4096244260
-0.1144350296 0.0523052062 -0.4110084519
-0.1204598872 0.0432211249 -0.4226523008
-0.1074545734 0.0135794869 -0.3634878121
-0.1692238509 0.0097289802 -0.3739833940
-0.1228662878 0.0533824079 -0.4257946610
-0.1575718784 -0.0002900302 -0.3924718151
-0.1395866095 0.0333127908 -0.3883135187
-0.1207972971 0.0532488977 -0.4255896844
-0.1068390654 0.0044353910 -0.3577565192
-0.1481737444 0.0373772274 -0.4172998324
-0.1384558932 -0.0487475848 -0.4362411021
-0.1623390734 -0.0169384543 -0.4490315414
-0.1317243725 0.0482197218 -0.4074087739
-0.1325405188 0.0350524100 -0.3872279012
-0.1061321082 0.0376525708 -0.4270019783
-0.1031608491 -0.0267246821 -0.4319792304
-0.1535648042 0.0368732490 -0.4028069285
-0.1499686825 0.0495504809 -0.4474483471
-0.1083297336 0.0005591797 -0.3713849999
-0.1025990005 0.0278266780 -0.3684162371
-0.1667086425 0.0272946615 -0.3949749285
-0.1597391861 -0.0049850517 -0.3830694758
-0.1082540270 0.0012191410 -0.3729551244
-0.0944948407 0.0377329280 -0.3933780007
-0.1165074479 -0.0001969780 -0.4414762710
-0.1569927934 0.0018178777 -0.3852664325
-0.1426846898 -0.0180526428 -0.4420014478
-0.1234970073 0.0230139502 -0.4302408655
-0.0957338288 0.0079997331 -0.3798669577
-0.1180041572 -0.0025393303 -0.4354716067
-0.1089584461 -0.0344333810 -0.4269715967
-0.1246958110 0.0507218585 -0.4100889356
-0.1276261657 0.0500987470 -0.4115874767
-0.1150867896 0.0307026700 -0.3749015733
-0.0957239220 0.0470334759 -0.4227138649
-0.1647778161 0.0213373376 -0.4422528282
-0.1005142710 0.0157267663 -0.3668329817
-0.0765150243 -0.0129655906 -0.4150222002
-0.1109670948 0.0575049329 -0.4039268757
-0.1250643118 0.0292633514 -0.3765095159
-0.1489705233 0.0358242454 -0.4381485588
-0.1009694580 0.0151444820 -0.3452796843
-0.1354141699 0.0042741842 -0.4352491864
-0.1623069448 -0.0010750745 -0.4291755991
-0.0999030356 0.0460254181 -0.4244342812
-0.1600873907 0.0417889554 -0.3975208931
-0.0794423134 -0.0144065580 -0.4166104779
-0.0953247527 0.0418486566 -0.3996442200
-0.1388687105 0.0159804931 -0.4361104486
-0.1472818384 -0.0373128864 -0.4198366814
-0.1125241984 0.0282696830 -0.3754596275
-0.1358095560 0.2547112518 -0.4027471265
-0.1037187427 0.0092753703 -0.3706831336
-0.1031221808 0.0072598326 -0.3543081646
-0.0748625539 -0.0397614931 -0.3867460074
-0.1717831205 -0.0013863316 -0.3838441233
-0.1484580847 -0.0255771568 -0.4366132948
-0.1232013510 0.0495388319 -0.4080162917
-0.1040138505 -0.0398016385 -0.4230097275
-0.1435190272 0.0275470089 -0.4448252288
-0.1020434704 0.0007509584 -0.3500858715
-0.1748217064 0.0381427496 -0.4232207691
-0.1753470690 0.0252166774 -0.4236327323
-0.1526998380 0.0068251677 -0.3844650872
-0.0710482729 0.0251436809 -0.4136535455
-0.1056297650 0.0537769939 -0.4205790363
-0.1297388591 0.0002015740 -0.3742714259
-0.0845428498 0.0430698960 -0.4118375352
-0.1573565758 0.0453535861 -0.4270563251
-0.1694819690 -0.0022456034 -0.4322542423
-0.1304440019 0.0513144060 -0.4206361656
-0.1301369488 -0.0311127853 -0.4331789598
-0.1315056384 0.0366977192 -0.3912463486
-0.1230251671 0.0152083214 -0.3656422216
-0.1693283984 -0.0066118150 -0.4131610775
-0.1178250193 0.0471337548 -0.4229860330
-0.1101009899 -0.0035550676 -0.4360141297
-0.1227383059 -0.0025669503 -0.3596155348
-0.0939033037 0.0218100346 -0.3780140991
-0.1631577842 0.0359341027 -0.3904217072
-0.1157427560 0.0190270152 -0.4438889735
-0.1538974189 -0.0000327493 -0.3742475621
-0.1225870362 0.0027392372 -0.3699497373
-0.1504276517 0.0198203334 -0.3816588536
-0.1273198501 0.0338461539 -0.3897927681
-0.1190547687 0.0542855079 -0.4320779205
-0.1226132620 -0.0173339567 -0.4339574818
-0.1649368181 0.0021535287 -0.4023112228
-0.1426861232 0.0160231963 -0.4362456607
-0.1503206348 0.0370133553 -0.4201610097
-0.0981803234 -0.0201934683 -0.4138242690
-0.1228759000 0.0120685756 -0.3619346503
-0.1288423800 -0.0747877674 -0.4453011273
-0.1567659164 0.0440102253 -0.4204384631
-0.1577018499 0.0424587857 -0.4194939137
-0.1265859444 0.0231970607 -0.4422241308
-0.1822961031 0.0329076673 -0.4442944284
-0.1301248108 -0.0558329778 -0.4207024898
-0.1277003205 0.0150525789 -0.3699448689
-0.1120050676 0.0377773082 -0.3832363181
-0.0971526572 0.0420691051 -0.3956394653
-0.1310947002 -0.0030754498 -0.3627670090
-0.1563871558 0.0536811408 -0.4322973035
-0.1234457501 -0.0449393411 -0.4038657845
-0.0899567827 0.0573828952 -0.4066665350
-0.1317416185 0.0280653797 -0.3793608239
-0.1229306949 0.0234328380 -0.3725925461
-0.1239313796 0.0521519566 -0.4114262025
-0.1650444712 -0.0189951611 -0.4310321535
-0.1737756157 -0.0051192660 -0.4157895999
-0.1645518704 0.0190970531 -0.4079301876
-0.1070274282 0.0354686895 -0.4317834708
-0.1104293277 0.0434191379 -0.4297065782
-0.1344558597 0.0243565030 -0.3781973720
-0.1508297695 0.0393459726 -0.4031906711
-0.1491610325 0.0075757967 -0.3714406270
-0.1441159956 0.0515011890 -0.4400899328
-0.1597843401 0.0018874777 -0.3863045072
-0.1588404492 0.0236558624 -0.4333368069
-0.1110667886 0.0502250664 -0.4240695059
-0.0779765176 0.0180465142 -0.4232046167
-0.1332972214 0.0505808466 -0.4243399490
-0.1601470963 0.0148051360 -0.3962774170
-0.1176613740 0.0547200759 -0.4133602894
-0.1651487853 0.0002911170 -0.3776968664
-0.1680880809 0.0105410857 -0.3923415805
-0.1142908655 0.0448672380 -0.4026242241
-0.1185210484 0.0560367546 -0.4161930192
-0.1014294980 0.0449794535 -0.4143921715
-0.1679563876 -0.0034729549 -0.3736297311
-0.1151921933 -0.0183972537 -0.4298819397
-0.1503939094 0.0061703321 -0.3772637412
-0.1186385051 0.0137924678 -0.3591611317
-0.0678579974 -0.0009357449 -0.4020008512
-0.1676030344 0.0147788863 -0.3955272939
-0.1353342468 0.0129638504 -0.3735095454
-0.1650516112 -0.0056938900 -0.3942661558
-0.1055565978 0.0558630205 -0.4249374913
-0.1086608516 -0.0087450449 -0.4332506957
-0.1472051989 0.0247891356 -0.3833508645
-0.1186304510 0.0526557731 -0.4197937435
-0.0740785521 0.0370018785 -0.4159172752
-0.1050657009 0.0526810596 -0.4351885687
-0.0945079786 0.0264910010 -0.4269409225
-0.1420419726 0.0336362938 -0.3879359612
-0.1301533298 0.0471451313 -0.4131012400
-0.1219032407 0.0096788891 -0.3701719195
-0.1494535797 0.0447557616 -0.4222659553
-0.0937992298 0.0077276863 -0.4351049478
-0.1247979060 0.0178092897 -0.3693807962
-0.1453553979 0.0149986479 -0.3704747320
-0.0923521295 0.0357891209 -0.3995418251
-0.0895831767 0.0346235423 -0.3879585347
-0.1191373236 0.0287466685 -0.3766174156
-0.1559171525 -0.0117521146 -0.4417493271
-0.1595254693 0.0464624716 -0.4210921810
-0.1496522656 0.0125901644 -0.3777330874
-0.0953792663 0.0503076845 -0.4129056010
-0.1686858945 0.0085810531 -0.4095727960
-0.1785951591 -0.0105147022 -0.4203423567
-0.0927468353 0.0496813220 -0.4304279174
-0.0789863116 0.0133334485 -0.4275241072
-0.1071337654 0.0371612235 -0.3976764121
-0.1620513180 0.0411995754 -0.4017936457
-0.1685772981 0.0311956555 -0.4252148976
-0.0815396089 0.0334202547 -0.4277182881
-0.0963187410 0.0178357165 -0.3424601633
-0.1062470049 0.0178677364 -0.3717286290
-0.0803337449 0.0317153383 -0.4258058213
-0.1273062647 0.0055610927 -0.3705150403
-0.1287469903 0.0422068502 -0.4007711798
-0.1163983333 0.0520210790 -0.4339355977
-0.1547777924 0.0025666998 -0.3776727991
-0.1315397500 0.0033410061 -0.4338632466
-0.1348794683 0.0361713727 -0.3934744802
-0.1077111748 0.0153686554 -0.3661299624
-0.1024095089 0.0282385969 -0.3699168154
-0.1362182479 -0.0228423957 -0.4294602642
-0.0800282069 0.0429463378 -0.4210905524
-0.1651944756 0.0179897462 -0.3939732587
-0.1253010035 0.0297761802 -0.3814909458
-0.1679901739 -0.0062643086 -0.4070253825
-0.1504743527 0.0422561479 -0.4167679255
-0.1494714875 0.0533982154 -0.4046726590
-0.1358726472 0.0392893441 -0.3986294866
-0.1443901961 0.0355968242 -0.3981192544
-0.1354071654 0.0326025583 -0.3873209172
-0.1678469670 0.0146039101 -0.4140821060
-0.1245207706 0.0363707131 -0.3903246405
-0.1051472720 -0.0424368769 -0.4124460636
-0.1574830841 -0.0158492661 -0.4297708470
-0.1170178611 0.0225242517 -0.3689617334
-0.0840632832 0.0321568897 -0.4277562323
-0.0817212093 0.0423748430 -0.4056143587
-0.1641377445 0.0340372213 -0.4029241182
-0.1082835843 -0.0398591926 -0.4140133366
-0.1512350415 0.0055949134 -0.3692267867
-0.1299802224 0.0138289364 -0.3655897996
-0.1072443336 0.0171699821 -0.3489809297
-0.1116938393 0.0221207089 -0.4436409533
-0.1236742778 -0.0092415477 -0.3606860909
-0.0993837305 0.0452322809 -0.4102256247
-0.0950593908 -0.0182914900 -0.4198837645
-0.1037329257 -0.0057936045 -0.3477225819
-0.0975219815 0.0369874581 -0.3854927934
-0.1998925414 -0.0049114168 -0.4264410221
-0.0782126686 0.0348152699 -0.4219243116
-0.0992930279 0.0389798682 -0.3918310383
-0.1554732022 0.0119452321 -0.3843365381
-0.1360729920 0.0089011583 -0.4356309296
-0.1413020972 -0.0133570223 -0.4341105738
-0.0973410503 0.0406647662 -0.4001093273
-0.1125062167 0.0535622521 -0.4107791537
-0.1147107910 0.0420657308 -0.3954066305
-0.1598297805 0.0450167209 -0.4261333942
-0.1878369383 0.0072249998 -0.3941460433
-0.1226197518 -0.0050175942 -0.3744733632
-0.1712750271 0.0302746489 -0.4291333010
-0.1752466279 0.0139674195 -0.4297968394
-0.1297430028 0.0084857979 -0.3704073851
-0.1514720140 0.0421127051 -0.4375428296
-0.1676180529 0.0394983373 -0.4341659841
-0.1184589845 0.0508981929 -0.4015844241
-0.0849307024 0.0116119793 -0.4352156027
-0.1307308357 0.0259267568 -0.3799448708
-0.1341452683 0.0364482544 -0.4043347010
-0.1289833023 0.0524850270 -0.4199626357
-0.1264094416 -0.0013613845 -0.3746053963
-0.1719040413 -0.0368119739 -0.4204886604
-0.1577856365 0.0396695624 -0.4059562933
-0.0991190769 0.0507426360 -0.4171207824
-0.1007119355 0.0234170320 -0.3538964067
-0.1512197019 -0.0175987980 -0.3952808588
-0.0945703589 0.0281073312 -0.3697342473
-0.1693980974 -0.0360900605 -0.4194643624
-0.1313157924 0.0578569486 -0.4199804332
-0.1638125716 -0.0080379828 -0.3887362766
-0.1383995861 0.0313149914 -0.3869213164
-0.1427656066 0.0118825981 -0.4359048941
-0.1368226952 0.0801949576 -0.4105795506
-0.1222323626 0.0396847271 -0.3902451996
-0.1388984477 -0.0319726279 -0.4332063047
-0.0884803969 0.0495196894 -0.4144882401
-0.0691633906 -0.0041736591 -0.3927927781
-0.1628238919 0.0083842227 -0.3990385068
-0.1057501528 0.0404970952 -0.3896207879
-0.1150284561 0.0154993993 -0.3675428338
-0.1657142485 0.0338346447 -0.4302072742
-0.1691858659 -0.0026388883 -0.4078107382
-0.1591132573 0.0376393915 -0.4077585712
-0.1320481360 -0.0217456526 -0.4396213303
-0.0842730328 0.0380315967 -0.3938976526
-0.1519736874 -0.0162899181 -0.4338244409
-0.0880685401 -0.0188300067 -0.4049327390
-0.1182685022 -0.0028841734 -0.3534627649
-0.1147444221 0.0329938663 -0.3773576583
-0.1528407752 -0.0014073513 -0.4374101800
-0.1697918424 0.0086923677 -0.4338949097
-0.1264785677 0.0046622097 -0.3719248772
-0.0972640425 -0.0412474625 -0.4119660055
-0.1248966608 0.0411469508 -0.4300951914
-0.1593426989 0.0000088622 -0.4347153487
-0.0897758714 0.0158885491 -0.4309322834
-0.0920469629 0.0324633888 -0.3829355457
-0.1005185865 -0.0095488932 -0.4296097621
-0.1616058952 0.0436305295 -0.4158486784
-0.1307000224 0.0356326231 -0.4264233445
-0.1421921804 0.0525567394 -0.4401866864
-0.1063302287 0.0499369945 -0.4243454606
-0.1198396940 0.0151399227 -0.3649284430
-0.1112824233 -0.0451281792 -0.4161059134
-0.0844328858 -0.0175340080 -0.4201895602
-0.1358022283 -0.0384719375 -0.4278069606
-0.1043556919 0.0341369449 -0.3897949489
-0.1701886938 0.0051566450 -0.4328682493
-0.1009656977 0.0235222795 -0.3796882612
-0.0967144220 0.0273259593 -0.4534693407
-0.1225524794 0.0329384394 -0.3805518890
-0.1128030192 0.0034958711 -0.3681407911
-0.1025452636 0.0460624506 -0.4252014627
-0.1166019840 -0.0111320693 -0.4358710394
-0.1395407754 0.0548203141 -0.4300489938
-0.1246632216 -0.0153991405 -0.3852880361
-0.0972386818 0.0545237362 -0.4220938359
-0.1384746678 -0.0355828566 -0.4290583633
-0.1145468410 0.0075721509 -0.3673926666
-0.1208053518 0.0479478593 -0.4302069654
-0.1508976468 0.0072956555 -0.3743531930
-0.1145667571 -0.0395224679 -0.4259224287
-0.1044008509 0.0356794326 -0.3841714140
-0.1109852885 0.0005251522 -0.3715560291
-0.1046128298 -0.0009742846 -0.3499298819
-0.1587193099 0.0052999808 -0.3822776781
-0.0901359132 0.0323231445 -0.3882300336
-0.1315673803 0.0507731226 -0.4077979424
-0.1403120178 0.0244242522 -0.3798515270
-0.1015140338 0.0239797998 -0.3588189336
-0.1452651255 0.0429652805 -0.4129613007
-0.0895833570 -0.0081389980 -0.4224921268
-0.1203935588 0.0571764373 -0.4145903653
-0.1316209428 0.0433284762 -0.4258439125
-0.1013129498 -0.0315303713 -0.4193732163
-0.1485885115 0.0483157743 -0.4280995775
-0.1309061686 0.0447880724 -0.4280046450
-0.1053049425 0.0446450639 -0.4030116175
-0.1028581939 0.0065932163 -0.3578505096
-0.1510831839 0.2554647421 -0.3965030708
-0.1206866536 -0.0253069569 -0.4232344557
-0.1098461806 0.0130372240 -0.3567372771
-0.1483294206 0.0493944668 -0.4374115408
-0.1395425935 -0.0319114173 -0.4370394193
-0.1553156067 0.0598738203 -0.4268567537
-0.1498041899 0.0481230205 -0.4383820588
-0.1280263953 0.0464175320 -0.3953130413
-0.1618045605 0.2561567872 -0.4099793458
-0.1632166247 -0.0125248749 -0.4124229637
-0.1055617231 -0.0057575782 -0.3838499098
-0.1600715448 0.0377531800 -0.4130750221
-0.1624272915 -0.0008943282 -0.3882027407
-0.1548724945 0.0322452262 -0.3966421922
-0.1488322464 0.0467026485 -0.4271490590
-0.1533244180 0.0474488538 -0.4377702179
-0.1427405216 0.0498213927 -0.4253543110
-0.1253351162 -0.0096781087 -0.3778628383
-0.1167811985 0.0424496387 -0.3954529581
-0.1236931349 0.0442296573 -0.4050989161
-0.1625888674 0.0469499253 -0.4412879388
-0.0976736466 0.0503396078 -0.4325563995
-0.1611830178 0.0348568505 -0.4069383856
-0.0758514148 -0.0173390779 -0.4086012106
-0.1476249781 0.0035833422 -0.3661058737
-0.1664638429 -0.0043274167 -0.4213291464
-0.1462007294 -0.0205269412 -0.4373550599
-0.1120435119 0.0436087006 -0.4199952657
-0.1603822875 0.0305218251 -0.4084352144
-0.1340694779 0.0625171194 -0.4151633888
-0.1221476078 0.0037552130 -0.4341790388
-0.1550814788 0.0222893683 -0.3993848388
-0.1768762408 0.0372831197 -0.4398052749
-0.1170414802 0.0028364447 -0.3608778487
-0.1538938690 0.0606918368 -0.4151134902
-0.0933810767 -0.0058338202 -0.4293477554
-0.1130671919 -0.0467537046 -0.4091726910
-0.1019990601 0.0261634995 -0.3818646324
-0.1010727714 0.0413853654 -0.3956923413
-0.1213569764 0.0531905712 -0.4368898334
-0.1556515411 0.0205064832 -0.3910846351
-0.0839691016 0.0230176320 -0.4329704846
-0.0811819666 0.0438598094 -0.4122237021
-0.1024753331 0.0152780858 -0.3703977460
-0.1508663054 0.0346235538 -0.3981090821
-0.1505303496 0.0171345230 -0.3808320528
-0.1478704526 0.0384208165 -0.4124029788
-0.1682908587 0.0208060351 -0.4406294742
-0.1001865245 0.0104867482 -0.3731860311
-0.1179361360 0.0387818499 -0.3923543833
-0.1274464819 0.0503529786 -0.4163117933
-0.1034909544 0.0500195015 -0.4170921690
-0.1349522640 0.0478876382 -0.4154270318
-0.1463905099 0.0316860594 -0.4327339773
-0.1405937605 0.0058778449 -0.3724083040
-0.1375348012 0.0486309683 -0.4149341483
-0.1302245887 0.0353893015 -0.3875933645
-0.1069397461 0.0074149785 -0.3705160841
-0.1381283133 0.0038528224 -0.3615417860
-0.1271545541 0.0435902018 -0.4192112384
-0.1421767437 0.0267219312 -0.3833135366
-0.1024271915 0.0427780612 -0.3891604645
-0.1537293330 -0.0344202832 -0.4479680137
-0.0808551858 -0.0315516394 -0.4016811056
-0.1652181400 0.0288557423 -0.4118475274
-0.1010280182 0.0268381906 -0.3508649763
-0.1545579468 0.0420006302 -0.4050250584
-0.1218571918 -0.0425457283 -0.4195738539
-0.1013733996 -0.0247783962 -0.4238508159
-0.1122605466 -0.0057890957 -0.4348850063
-0.0888888308 0.0389277112 -0.4270114972
-0.0747626449 0.0386384370 -0.4262746209
-0.0896914046 0.0455311222 -0.4218288090
-0.1229189191 -0.0400248946 -0.4275685194
-0.1146117527 0.0519337725 -0.3986609942
-0.1373994555 -0.0212720948 -0.4424416891
-0.1244910763 0.0567522234 -0.4311507568
-0.0736687060 -0.0143657725 -0.4067603546
-0.1148878234 -0.0018594948 -0.3726095979
-0.0931087556 -0.0172979080 -0.4384903071
-0.1058341319 0.0361065796 -0.3940249665
-0.1016721398 0.0102361794 -0.3753828025
-0.0974607925 0.0208128259 -0.4358687246
-0.1262104167 0.0554015839 -0.4184405142
-0.1602044996 -0.0003755447 -0.3823622891
-0.1008575551 0.0202122781 -0.3539694852
-0.1702043945 -0.0013981449 -0.3948777510
-0.1102449944 -0.0380510488 -0.4253973474
-0.1609495461 -0.0250548606 -0.4248688023
-0.1994019358 -0.0021052055 -0.4231296519
-0.1256623161 -0.0064571605 -0.4372018423
-0.1424028361 0.0445210754 -0.4150760081
-0.0852881067 0.0461622941 -0.4248677995
-0.0869093984 0.0484394506 -0.4252161384
-0.0882920670 0.0233333981 -0.3778684272
-0.0762897519 -0.0111592291 -0.4049026213
-0.1341277603 0.0394553382 -0.3922591599
-0.1020802573 0.0332261495 -0.4386523485
-0.1002366751 0.0205013528 -0.3683003855
-0.1028979707 0.0451219050 -0.4180942081
-0.1203780100 -0.0014072622 -0.3715645075
-0.1221152633 0.0299403362 -0.3783356135
-0.0809665140 -0.0044909362 -0.4359921641
-0.1663373660 0.0387896510 -0.4263826445
-0.1169665859 0.0599794595 -0.4197626133
-0.1682034369 0.0611823775 -0.4252976798
-0.0987982847 -0.0141669457 -0.4201225155
-0.1691401185 -0.0012023386 -0.3721949092
-0.1396151348 0.0436891636 -0.4133866734
-0.1826832941 0.0002775001 -0.4037095913
-0.1614903210 -0.0283298742 -0.4268328693
-0.1180533954 0.0454405810 -0.4140028243
-0.1326187557 0.0220611411 -0.4344641776
-0.1557723587 0.0420084006 -0.3958910182
-0.1041926063 0.0005390055 -0.4329294282
-0.1348449629 0.0418288917 -0.4027524561
-0.1410379273 0.0549778273 -0.4336745018
-0.1056161149 0.0429483623 -0.3857937654
-0.1705703657 0.0029747942 -0.4247843421
-0.1697040669 0.0009416039 -0.3830235294
-0.1175992813 0.0242874010 -0.3778586667
-0.1156127582 0.0528888232 -0.4259927242
-0.1299121868 0.0104896673 -0.3703591633
-0.1523173204 0.0187705154 -0.3843291675
-0.0927095258 0.0247880336 -0.3783687157
-0.1358639895 0.0149428694 -0.3680642928
-0.1073709115 0.0396511269 -0.3877045391
-0.1170998377 0.0354717236 -0.3805738495
-0.0991901416 0.0434024212 -0.4128160238
-0.1250274660 0.0135957595 -0.3695109635
-0.1652422345 0.0068673908 -0.4065888939
-0.1718681107 0.0006195600 -0.4120695501
-0.0828296042 0.0379269769 -0.4090362277
-0.1105072667 0.0092568791 -0.3674375640
-0.1223133880 0.0159076959 -0.3679037138
-0.1202547953 0.0125058662 -0.3703409553
-0.0905751537 0.0405118618 -0.4085531005
-0.1410793073 0.0041036716 -0.4358737442
-0.1666493029 -0.0300422824 -0.4242239673
-0.1221225371 0.0364290959 -0.4262013338
-0.1633045637 -0.0194177367 -0.3605270870
-0.0920849028 0.0549232175 -0.4214177307
-0.1484532508 -0.0131918729 -0.3886550126
-0.0818555174 -0.0085176276 -0.4184357716
-0.1292269889 0.0381741947 -0.3884384647
-0.1258157159 -0.0131013501 -0.4357210984
-0.1165659125 0.0042294815 -0.4466472812
-0.1196015586 0.0099157778 -0.3582218305
-0.1299960137 0.0398476254 -0.3952504364
-0.1745864859 0.0060658656 -0.4236571719
-0.1568849006 -0.0299858669 -0.4394972268
-0.1428846007 0.0197472483 -0.3806753713
-0.1206838652 0.0140902872 -0.3608001496
-0.0905634942 -0.0143526006 -0.4184093551
-0.1579250897 0.0497107298 -0.4387744761
-0.1301994331 0.0203902352 -0.3721543600
-0.1317754597 0.0501913192 -0.4151754545
-0.1059105715 -0.0019012550 -0.4335532932
-0.1126388660 0.0376665725 -0.4262942616
-0.1233099699 0.0541124307 -0.4310849309
-0.1578477228 -0.0008686061 -0.3818638831
-0.1319946328 -0.0464569148 -0.4127186810
-0.0848913848 0.0036695710 -0.4287903303
-0.1634814530 0.0401102273 -0.4049640694
-0.1406363088 0.0424913001 -0.4155162915
-0.1110620642 0.0491705528 -0.4106452418
-0.1451054215 0.0457644388 -0.4176419079
-0.1123129244 0.0108336655 -0.4390210354
-0.1502751570 0.0021813551 -0.4390504967
-0.1638457116 0.0706862734 -0.4193287045
-0.1297261173 0.0301021949 -0.3797509003
-0.1498214985 0.0378569405 -0.4339268793
-0.1585344680 0.0465677272 -0.4330758939
-0.1494588110 0.0392266295 -0.4077173317
-0.0966761571 0.0498013056 -0.4143899941
-0.1436101793 0.0381651871 -0.4204335836
-0.1220847964 0.0306237545 -0.3803179860
-0.1626757511 -0.0001939586 -0.4343042182
-0.1135474088 -0.0348498189 -0.4237076102
-0.1855647049 -0.0086330868 -0.4008336907
-0.1120915320 0.0404469665 -0.3920116048
-0.1327811562 0.0438665052 -0.4076271922
-0.1547878722 0.0484929479 -0.4494829133
-0.1562733352 0.0485511795 -0.4505485892
-0.1669722745 -0.0032048136 -0.3702775336
-0.1494047761 0.0035948840 -0.3678936587
-0.1379568964 0.0186983248 -0.3829866768
-0.1702339913 0.0427457443 -0.4289487442
0.0659837336 -0.0411149133 -0.3346922224
-0.1151522200 0.0207042246 -0.3694658060
-0.0918039642 0.0037000790 -0.4267690078
-0.1363305897 0.0227493383 -0.3745857179
-0.1347219642 0.0330342435 -0.3902052472
-0.1691918225 0.0256854644 -0.4197414433
-0.1143878057 0.0402156708 -0.3851315720
-0.1203230000 -0.0085810059 -0.3615311199
-0.1663674703 -0.0013176057 -0.4326829534
-0.1295128688 0.0226666387 -0.3699295223
-0.1371835321 0.0321383718 -0.3859861940
-0.1667340133 0.0376671308 -0.4319396676
-0.1373109677 0.0302924628 -0.3856994385
-0.1321113556 0.0127885688 -0.3699444032
-0.0877473261 0.0452760272 -0.4151329622
-0.1145602836 -0.0066242831 -0.3812228606
-0.1176004220 0.0032799846 -0.3682115659
-0.1139379546 -0.0208422671 -0.4298380720
-0.1109959869 0.0294658341 -0.4337600791
-0.1631272584 0.0477622114 -0.4583871961
-0.1484532956 -0.0136997183 -0.4353335741
-0.1619483123 -0.0236516478 -0.4185009143
-0.1176725114 -0.0054694036 -0.3751867139
-0.1506539759 0.0352317039 -0.4177925517
-0.1128960599 0.0183599127 -0.3678874242
-0.1273014246 0.0375629034 -0.3945108621
-0.1359918172 0.0009150114 -0.3654881493
-0.1049603096 0.0157105695 -0.3635394777
-0.1378515123 0.0487724564 -0.4183221959
-0.1527615724 0.0411108194 -0.4122090365
-0.0886121623 0.0055028754 -0.4297716055
-0.1010385730 0.0118231388 -0.3456044963
-0.1031545330 0.0181266971 -0.3653879322
-0.1117936037 0.0244312389 -0.3677214682
-0.1444356282 0.0405312465 -0.4007765902
-0.0872969251 0.0429929249 -0.4149569526
-0.1017788904 0.0385012406 -0.4305621000
-0.1215916584 0.0213566737 -0.3648191971
-0.1049945253 0.0209187242 -0.3702473433
-0.1274308786 -0.0001590080 -0.3585926776
-0.0945923388 0.0477136213 -0.4143069881
-0.1201282794 0.0300568396 -0.3775748041
-0.0961127317 0.0258285483 -0.3642633732
-0.1294106765 -0.0548872047 -0.4129169164
-0.1029396624 0.0180120100 -0.3674323433
-0.1596404594 0.0192790931 -0.3976843360
-0.0770546077 -0.0176907638 -0.4129884055
-0.1608408438 -0.0189349647 -0.4155044212
-0.1220902918 0.0502460204 -0.4101629848
-0.1475409275 -0.0013322295 -0.4373864935
-0.1554527981 0.0012880528 -0.4364453014
-0.1132927991 0.0434587145 -0.4159548413
-0.0737467903 0.0280541713 -0.4146190830
-0.1618093869 0.0305314511 -0.4262022991
-0.0965657159 0.0005954365 -0.4321861118
-0.1376852949 0.0499673815 -0.4205495792
-0.1019664159 0.0045952458 -0.3478239672
-0.1265003614 0.0382885344 -0.3871000537
-0.1457615129 -0.0376906271 -0.4229528224
-0.0932408282 0.0186473440 -0.3735514112
-0.1150510535 -0.0048353537 -0.3753757395
-0.1514500702 -0.0301381683 -0.4053538932
-0.1673648812 0.0746692177 -0.4119845923
-0.0885374167 -0.0171309171 -0.4156297090
-0.1328775559 0.0382351977 -0.3982096424
-0.1212482789 0.0227856509 -0.4417798763
-0.1020732295 0.0354727689 -0.3825987984
-0.1673243143 0.0021809080 -0.3873489630
-0.1076089647 -0.0188902931 -0.4268281368
-0.1043605229 0.0142805222 -0.3504202749
-0.0999401448 0.0332851627 -0.3906654665
-0.1260437591 0.0483376277 -0.4301198474
-0.1464724162 0.0189719043 -0.3874534204
-0.0895211127 0.0533181094 -0.4317267406
-0.1055707596 0.0202198585 -0.3638549424
-0.0806766908 0.0391099291 -0.4367507473
-0.1247024941 0.0491743437 -0.3910900081
-0.1671122273 0.0128488501 -0.4113279112
-0.0938589565 -0.0172501019 -0.4173601370
-0.0889924410 -0.0111265216 -0.4198271919
-0.1459891205 0.0489056428 -0.4369334166
-0.0667608515 0.0226521462 -0.4208194259
-0.1238408275 0.0096579264 -0.3701299429
-0.1300772776 -0.0009173060 -0.3591615908
-0.0738591748 0.0363269598 -0.4107143742
-0.0974714966 0.0139387688 -0.3418442550
-0.1655898771 -0.0086970545 -0.4184934296
-0.1280191423 0.0289069033 -0.3817492536
-0.1169257240 0.0400626638 -0.3870429622
-0.0941252883 0.0197403572 -0.3638344042
-0.0999714286 -0.0190055188 -0.4172302135
-0.1810507758 0.0336635539 -0.4410344987
-0.0844221769 0.0176917461 -0.4369072874
-0.1792212413 -0.0056639841 -0.4140162444
-0.1405598577 -0.0118087406 -0.4388710679
-0.1638749835 0.0010536972 -0.3803041119
-0.0924776096 -0.0086966788 -0.4240711514
-0.1755726283 -0.0220463079 -0.4264738083
-0.1371181745 0.0336180470 -0.3966229194
-0.1439634160 0.0188702715 -0.3703623928
-0.1290703782 0.0107359885 -0.3627135181
-0.1364615327 -0.0425778201 -0.4164541613
-0.1430164602 0.0544476322 -0.4525871563
-0.1734759782 0.0132339639 -0.3881764661
-0.1482528974 0.0317604324 -0.3978296688
-0.1341108290 -0.0082327853 -0.4328444494
-0.1246473648 0.0511939914 -0.4267403563
-0.1639270326 0.0389492617 -0.4154939338
-0.1295729075 0.0506431659 -0.4157654943
-0.1192262620 0.0296391826 -0.3763435483
-0.1458389375 -0.0451512924 -0.4232437285
-0.0983503426 0.0447928290 -0.4203633328
-0.1098913333 0.0118178460 -0.4348241772
-0.0971519206 0.0346020498 -0.3805699216
-0.1195279946 0.0281616133 -0.3710309019
-0.0944770527 -0.0324560060 -0.4122759332
-0.0994649084 0.0398127159 -0.3852887002
-0.1003361024 -0.0289826550 -0.4266810328
-0.1501785505 0.0477048737 -0.4246557932
-0.1440141119 0.0435905400 -0.3981019787
-0.1388612886 -0.0455101965 -0.4191469533
-0.0809313032 0.0348004548 -0.4206646885
-0.1012976951 -0.0220444070 -0.4136082493
-0.1334582915 -0.0069578772 -0.3803616391
-0.0970753636 0.0226163976 -0.3705584705
-0.0935428333 0.0428506934 -0.4241521812
-0.1304363299 0.0505076286 -0.4176939335
-0.1470942162 -0.0338084543 -0.4350912207
-0.1159263384 -0.0115204123 -0.4399456241
-0.1656559104 0.0399822896 -0.4316723052
-0.0853485542 0.0268221738 -0.4282652477
-0.1060328280 0.0059236140 -0.3536220757
-0.1346781278 -0.0386179636 -0.4327235857
-0.1246222398 0.0410323384 -0.3957466733
-0.1589212809 0.0066921268 -0.3882743723
-0.1649974849 -0.0067422635 -0.4220236570
-0.1524395501 -0.0211173124 -0.4370080156
-0.1004430458 0.0082732292 -0.3728939902
-0.1324869825 0.0482889840 -0.3994135340
-0.1080908272 -0.0557659730 -0.4069113722
-0.1727050515 0.0230706017 -0.4308133581
-0.1652092204 0.0282127537 -0.4015926077
-0.1143488744 -0.0113396512 -0.3610281938
-0.1174796054 0.0306575313 -0.3770308433
-0.1122442502 0.0050582481 -0.3602209271
-0.1127745144 -0.0491196553 -0.4207050223
-0.0904340558 0.0281823520 -0.3852504343
-0.0981496620 0.0375255937 -0.3897671043
-0.1016868488 0.0121153748 -0.3494003290
-0.1101246870 0.0448652427 -0.4135739511
-0.1127498334 0.0497546882 -0.4271092946
-0.1523722120 0.0484719442 -0.4451266823
-0.1271804030 0.0501313133 -0.4177737198
-0.1579349743 0.0172634254 -0.3938122037
-0.0825349907 0.0056954135 -0.4262814517
-0.1374317961 0.0058726910 -0.4376926267
-0.1177020538 -0.0003938607 -0.3554423145
-0.1225052940 0.0506873228 -0.4127451100
-0.1467613022 0.0403508738 -0.4060909078
-0.1481620022 0.0432205516 -0.4320463742
-0.1165030743 -0.0244654457 -0.4329486444
-0.1554770930 -0.0193041979 -0.4282428453
-0.1009819115 0.0035884302 -0.4392148007
-0.0714468050 -0.0074424120 -0.4069954532
-0.1164611945 0.0128842751 -0.4357078448
-0.1187566593 0.0507490076 -0.4141171277
-0.1292162946 0.0181903699 -0.3652341963
-0.1257056296 0.0361299440 -0.3870722651
-0.1175878681 0.0495812486 -0.4150346043
-0.1735239486 0.0178564855 -0.4316512859
-0.1153110878 0.0205127584 -0.3673402261
-0.1299274248 0.0581552141 -0.4303078546
-0.1417428233 0.0468643639 -0.3992190577
-0.1526508050 -0.0115852068 -0.3872845436
-0.1372098601 0.0490829854 -0.4008833839
-0.1386158084 0.0443509379 -0.4080264233
-0.1074527923 0.0211384074 -0.3701066799
-0.1608752554 0.0118317678 -0.3871664695
-0.1590160378 -0.0135305468 -0.4317628937
-0.1194976682 -0.0112207741 -0.4382277674
-0.0822171574 0.0453861866 -0.4281336408
-0.1475055534 0.0220061755 -0.3801980164
-0.1420342631 0.0425857150 -0.4147876590
-0.1106612547 0.0307851408 -0.4408091424
-0.1479670586 0.0450715791 -0.4201051417
-0.0971630378 0.0494180435 -0.4256746962
-0.0741051465 -0.0108250771 -0.4134180546
-0.1182081586 -0.0258242733 -0.4294128147
-0.1078598532 0.0435447489 -0.3994323824
-0.1150740456 0.0284354101 -0.3750290124
-0.0850208232 0.0221777374 -0.4249496238
-0.1374836906 0.0343098741 -0.4016077790
-0.1085184377 -0.0455626910 -0.4077440314
-0.1904165157 0.0079895610 -0.3959693021
-0.0914009827 0.0057152454 -0.4333331206
-0.1151290589 0.0056517680 -0.3676041888
-0.1023976720 0.0498255926 -0.4249256131
-0.1398428513 0.0350735898 -0.3897681068
-0.1677050314 0.0070728554 -0.4103801619
-0.1724807828 0.0273554396 -0.4216375693
-0.0802789321 0.0492031079 -0.4211242953
-0.1615142824 0.0307168359 -0.4352525607
-0.1658757092 0.0247577767 -0.4136343446
-0.1083947541 0.0451382686 -0.4192046223
-0.1561262915 -0.0166090169 -0.4387666134
-0.1481107946 -0.0045658301 -0.4397946449
-0.0792722080 -0.0149729798 -0.4119693239
-0.0975541091 0.0513330480 -0.4202958499
-0.1590936044 0.0387806988 -0.3979232533
-0.0970142038 0.0257509622 -0.3726812413
-0.1734607178 -0.0036278801 -0.4311047629
-0.1422334950 -0.0320360569 -0.4275696280
-0.1168677285 -0.0127613110 -0.3613291878
-0.1273677112 0.0108492355 -0.3680174281
-0.1018784753 0.0410089091 -0.3983471411
-0.1690856700 0.0394617289 -0.4380706433
-0.1227986184 0.0075653064 -0.4323519314
-0.1520391456 -0.0113519267 -0.4364104205
-0.0872644000 0.0361569840 -0.3974391669
-0.0971375432 0.0405148925 -0.3976316160
-0.1636017068 -0.0141236192 -0.4244413607
-0.1334977823 -0.0222256129 -0.4322072828
-0.1000162088 0.0444596120 -0.4177320312
-0.1187573115 0.0519662331 -0.4348562031
-0.1169501404 0.0357607062 -0.3836841194
-0.1441708785 0.0378814192 -0.4027700768
-0.1345028686 0.0327714157 -0.3916777967
-0.1634359477 0.0338723118 -0.4118945081
-0.1325769336 0.0558157960 -0.4278402582
-0.1149399117 0.0245849624 -0.4371682564
-0.0908198566 0.0345207167 -0.4041956755
-0.1077325373 0.0248908001 -0.4317089688
-0.1400770008 -0.0556649692 -0.4273017958
-0.0738877779 0.0147381025 -0.4175919284
-0.1493814194 -0.0232306981 -0.4045594148
-0.0815571441 0.0412028934 -0.4355081602
-0.1046112369 0.0337744732 -0.3794177491
-0.1362935718 -0.0426980391 -0.4199790909
-0.1324212016 0.0503633837 -0.4227635480
-0.1484035254 0.0482533127 -0.4396975040
-0.1321334802 -0.0376542263 -0.4276687084
-0.1191796995 0.0233493770 -0.3744361460
-0.1402862211 0.0129828071 -0.4348198490
-0.1099672594 0.0509482849 -0.4264527977
-0.1528707807 0.0566649686 -0.4319621586
-0.1701384209 0.0365400525 -0.4308378260
-0.1724048286 -0.0187474283 -0.4171667481
-0.1682549191 -0.0084794124 -0.3994539121
-0.1136678383 0.0271036997 -0.3714756668
-0.1468721331 -0.0389665172 -0.4156277771
-0.0875974200 0.0185707877 -0.4263539319
-0.1548513219 0.0375967204 -0.4078939315
-0.2054134342 0.0102877223 -0.3922907887
-0.1131875762 0.0515887990 -0.4024578389
-0.1295201552 0.0030483310 -0.3723839120
-0.1370508468 0.0253639975 -0.3764421624
-0.1581185473 0.0443759657 -0.4232641615
-0.0988155555 -0.0461308775 -0.4068701085
-0.1422782836 0.2649732916 -0.4138739934
-0.1121110693 0.0026021106 -0.3696639389
-0.1025284192 0.0197522164 -0.4315110887
-0.1131831875 0.0259772080 -0.4410794371
-0.1699520493 -0.0092874612 -0.4094543211
-0.1320661484 0.0339405458 -0.4334054446
-0.1096147112 -0.0068764830 -0.3898200980
-0.1382978020 0.0672094039 -0.4090995837
-0.1125444844 0.0450426005 -0.4070433974
-0.1088564304 -0.0413807301 -0.4233387383
-0.0974667440 -0.0092207391 -0.4345446048
-0.1501645037 0.0095725540 -0.3771264770
-0.0845022201 0.0493015414 -0.4239484927
-0.0972211046 0.0395854988 -0.3877530507
-0.1341891140 0.0517207794 -0.4210518003
-0.1186255612 -0.0236608364 -0.4249853915
-0.1206142874 0.0463881177 -0.4085953731
-0.1253310219 0.0343808547 -0.3801937067
-0.0950063032 0.0325577223 -0.4243805908
-0.1551218576 -0.0056489048 -0.4355790345
-0.1451631323 0.0070408154 -0.3641346577
-0.1056812188 0.0213960944 -0.3761306307
-0.1609794207 0.0368123083 -0.4338658660
-0.1584304033 0.0093688741 -0.3903953314
-0.1359490734 0.0035371590 -0.3635230000
-0.1190724951 -0.0226391450 -0.4304830027
-0.1224640802 0.0438377863 -0.4184029681
-0.0778503164 0.0146045485 -0.4242383788
-0.1341785908 0.0655523259 -0.4089542473
-0.1075773043 0.0350578800 -0.3799985175
-0.1116224604 0.0313853957 -0.3791823736
-0.0799988544 -0.0043244620 -0.4269828675
-0.1176529662 -0.0003942272 -0.3705354088
-0.1258192410 -0.0453797188 -0.4109633294
-0.1004841438 0.0509422794 -0.4059736797
-0.1532265751 0.0495369786 -0.4329376734
-0.1146137803 0.0406166846 -0.3934231129
-0.1504350646 -0.0331534350 -0.4305939777
-0.1348852504 0.0325973712 -0.3850752023
-0.1266393215 0.0536436273 -0.4397731049
-0.1665703430 0.0142545649 -0.4083397443
-0.1689469082 -0.0201826053 -0.4183552666
-0.1288445340 0.0437032869 -0.3920294584
-0.1290871040 0.0471623283 -0.4256066702
-0.1064939498 0.0467350301 -0.4054707201
-0.1519874743 0.0570301951 -0.4073966849
-0.1206406817 -0.0080404538 -0.3770534516
-0.1859603357 0.0207261027 -0.4517250159
-0.1603649756 0.0621352839 -0.4149423681
-0.1686271559 0.0277199820 -0.4339628967
-0.1271472202 0.0451644405 -0.4028609398
-0.1097462148 0.0220390832 -0.3657899841
-0.1708803366 -0.0070943584 -0.4298521637
-0.1003510228 0.0254050160 -0.3706350500
-0.1337722795 0.0056494988 -0.3660687106
-0.1364438082 -0.0059289243 -0.3807912620
-0.1724699318 -0.0003693915 -0.4094964178
-0.0899132073 -0.0193170817 -0.4099403496
-0.1586459179 0.0124444536 -0.3913746885
-0.1207788316 0.0586669980 -0.4006614649
