-0.0236114552 -0.1143040853 -0.6829187505
0.0086496643 -0.0580354297 -0.6897043087
-0.0431613091 -0.0252551364 -0.6992615808
-0.0181567044 -0.0663531054 -0.6922156565
-0.0893123180 -0.0967906403 -0.6881605641
-0.0767380836 -0.0147718184 -0.7174695709
-0.0493127553 -0.0370954721 -0.6914413584
-0.0185973838 -0.0557175516 -0.7007429158
-0.0044398710 -0.0902010061 -0.6682207192
-0.0003382805 -0.1040177971 -0.6761499612
-0.0491365418 -0.0830424950 -0.6794108152
-0.0368252075 -0.0543286918 -0.6830207029
-0.0643591633 -0.0780539947 -0.6949411017
-0.0447149955 -0.0372389502 -0.6865171544
-0.0136076229 -0.0532549235 -0.6825595505
-0.0166227934 -0.0678618331 -0.6956291946
0.0130440839 -0.0660857549 -0.6877396868
-0.0408884124 -0.0834643014 -0.6680125654
-0.0619319380 -0.0525761679 -0.7018588415
-0.0728130990 -0.0751526789 -0.7024598226
-0.0971167633 -0.0482567081 -0.7144707417
-0.0517013371 -0.0719839185 -0.6917173862
-0.0728351268 -0.0829409017 -0.6838321455
-0.0710268987 -0.0270236365 -0.6971781804
-0.0451792255 -0.0871406140 -0.6668474906
-0.0395213890 -0.0339655594 -0.6924151856
-0.0666855627 -0.0490002137 -0.6978426783
-0.0460689794 -0.0803042091 -0.6791979671
0.0058196558 -0.0888501481 -0.6578802387
-0.0509915812 -0.0590821877 -0.6931931553
-0.0279067544 -0.0579828609 -0.6850206700
-0.0618725345 -0.0577467494 -0.7090948224
0.0103088268 -0.0687077142 -0.6667549549
-0.0530691299 -0.0324656951 -0.7008986148
-0.0684043988 -0.0501616032 -0.7123329345
-0.0834071547 -0.0551879275 -0.6946179245
-0.0893163602 -0.0707825906 -0.6843555870
-0.0180387776 -0.0916727707 -0.6745454669
-0.0665445417 -0.0656347349 -0.7048508454
-0.0568598984 -0.0775979930 -0.6947778010
0.0361381029 -0.0897511102 -0.6748211370
-0.0347847572 -0.0728740352 -0.6772556148
-0.0683275713 -0.1029388405 -0.6894196274
-0.0872118540 -0.0604949657 -0.6961295520
-0.0250963238 -0.1131248521 -0.6796834561
-0.0518132239 -0.0311749129 -0.7048599687
-0.0455150611 -0.0896629067 -0.6659779036
-0.0665597096 -0.0606798083 -0.7104291320
0.0099831402 -0.0962019183 -0.6576131032
-0.0021120906 -0.0325635044 -0.6851332883
-0.0679291542 -0.0389110992 -0.6985489445
0.0183465146 -0.0847971588 -0.6618947387
-0.0971858040 -0.1059552607 -0.7027617388
0.0057076745 -0.0725845848 -0.6793538857
-0.0106488442 -0.1124139716 -0.6816326077
-0.0762581006 -0.0572516099 -0.7191002965
-0.0145117349 -0.0269296248 -0.7081645287
-0.0845322401 -0.0172528442 -0.7116343486
-0.0467208290 -0.0268626735 -0.6876506033
-0.0514982308 -0.0530937299 -0.7175192434
-0.0511512084 -0.0330819512 -0.6930892941
-0.0377772858 -0.0297326170 -0.6912778878
-0.0170553749 -0.0587041017 -0.7047478580
-0.0551096287 -0.0701664879 -0.7062682606
-0.0183645319 -0.0225371659 -0.6945650076
0.0323873725 -0.0935768343 -0.6710794690
-0.0087258509 -0.0308780479 -0.7075335551
-0.0685118709 -0.0502207225 -0.7042571127
0.0027753368 -0.0711777732 -0.6788203716
-0.0185707868 -0.0228499185 -0.7058045317
-0.0805936500 -0.0911863701 -0.6878807186
0.0238372982 -0.0803043688 -0.6720474464
0.0021644586 -0.0545382543 -0.7000751951
0.0120799638 -0.0650140420 -0.6804741066
0.0081135299 -0.0633128121 -0.6930912881
-0.0332926866 -0.1001126350 -0.6804877668
-0.0109883755 -0.0740365053 -0.6935746117
-0.0964674326 -0.0241765615 -0.7125727471
-0.0848712046 -0.0214473139 -0.6969168018
0.0136048226 -0.0726715475 -0.6753358245
-0.0233370672 -0.0349110838 -0.6845965862
-0.1002757556 -0.0391564358 -0.7087637686
-0.0508617393 -0.0352044986 -0.7004859273
-0.0014807040 -0.0826507090 -0.6618467362
-0.0573032210 -0.0325286420 -0.7016558917
-0.0065761195 -0.0936242794 -0.6726299571
-0.0085599294 -0.0323879807 -0.7055292871
-0.0339891749 -0.0221443776 -0.7102712727
0.0326070022 -0.0642809204 -0.6851408690
-0.0965456136 -0.0404486371 -0.7022082901
-0.0719879642 -0.0586607084 -0.7164962292
-0.0430546180 -0.1093395427 -0.6862253179
-0.0667610769 -0.0896188175 -0.6855895024
-0.0998536761 -0.0612880786 -0.7075372590
-0.0444635973 -0.0269827002 -0.6915646437
-0.0164508739 -0.1159639627 -0.6849694473
-0.0412232845 -0.0605380945 -0.7073320079
-0.0461658703 -0.1141237169 -0.6877033482
0.0355410935 -0.0820594970 -0.6756056727
-0.0557151809 -0.0618832596 -0.6999614239
-0.0110300849 -0.0588695269 -0.7079028565
-0.0489670138 -0.0679128111 -0.6953208990
-0.0533082422 -0.0517177250 -0.7161647008
-0.0597605870 -0.0644268165 -0.7058745174
-0.0277227752 -0.0838772547 -0.6659282006
-0.0346788339 -0.0518572431 -0.7081897312
-0.0870660011 -0.1092415393 -0.6976081030
0.0204393794 -0.0828858684 -0.6570440680
-0.0457811286 -0.0998891612 -0.6760617737
0.0426843541 -0.0574492105 -0.6920873224
-0.0801780075 -0.0514529534 -0.7177554965
-0.0161063419 -0.1137936623 -0.6793587655
-0.0288829804 -0.0268338263 -0.6920015471
0.0002159128 -0.0336751575 -0.6894567573
-0.0740780476 -0.0867391884 -0.6823196413
-0.0073867554 -0.0407436422 -0.6899902089
-0.0273995889 -0.0616594061 -0.6935729364
-0.0237698006 -0.0946305644 -0.6780691677
-0.0206189121 -0.0812340310 -0.6755633132
-0.0460688916 -0.0584018055 -0.7025852588
-0.0669753169 -0.0369204953 -0.6994101329
-0.0990715885 -0.0379123212 -0.7072816757
-0.0375072719 -0.0528727504 -0.6921655035
0.0274880525 -0.0585188192 -0.6842621771
-0.0117318565 -0.0970569178 -0.6775066257
0.0104608707 -0.0654265991 -0.6948348946
-0.0657627974 -0.1104913983 -0.6951582589
0.0002887072 -0.0726250894 -0.6858125472
-0.0264121471 -0.0901833829 -0.6756109555
-0.0296679416 -0.0450388714 -0.6854429673
-0.0481665050 -0.0976070175 -0.6810408713
-0.0113872573 -0.1057947669 -0.6906662502
-0.0171542556 -0.0439076604 -0.6945073692
0.0154865621 -0.0531057875 -0.6696015950
-0.0929486513 -0.0523656861 -0.7057408030
-0.0562510602 -0.0660027489 -0.6985446811
-0.0431116039 -0.1049227415 -0.6777753185
-0.0112453378 -0.0434038377 -0.6931172249
-0.0009652746 -0.0767356848 -0.6928707962
-0.1012472007 -0.0317491803 -0.7071730882
-0.0766485695 -0.0235162414 -0.7000064342
-0.0918387205 -0.0644245406 -0.6925211469
-0.0418578293 -0.0418924160 -0.6886954509
-0.0787169296 -0.0802705974 -0.6884777620
0.0112741268 -0.0804920462 -0.6652406646
-0.0912113422 -0.0812130145 -0.6808762137
0.0188276091 -0.0752361243 -0.6697441936
0.0269485742 -0.0673290559 -0.6812705645
-0.0705224716 -0.0484177819 -0.7009513619
-0.0552314144 -0.0793867684 -0.6834951128
-0.0901473472 -0.0220979606 -0.7052227801
0.0019226329 -0.0767552097 -0.6891392682
-0.0989975706 -0.1031780581 -0.6960720694
-0.0461966765 -0.0280695526 -0.6963186306
-0.0772768227 -0.0530850765 -0.7088182918
0.0033792172 -0.0576292486 -0.6981401909
-0.0595796361 -0.0567801588 -0.7112754285
0.0023616694 -0.0548894401 -0.6987203733
0.0378678157 -0.0527220334 -0.6913872843
-0.0411507645 -0.0647822223 -0.6961532966
-0.0125475175 -0.0685109005 -0.6841663748
-0.0427821196 -0.0933489338 -0.6688535186
-0.0347047428 -0.0450271792 -0.6856824315
-0.0692078712 -0.1119806515 -0.6914212978
-0.0495687689 -0.0642843669 -0.6998799654
0.0030375141 -0.0304269391 -0.6931044298
0.0276701363 -0.0344070548 -0.6771686846
-0.0879428726 -0.0687609672 -0.6897661661
-0.0266471413 -0.0696407456 -0.6761515550
-0.0467916195 -0.0287850534 -0.7031212107
-0.0666587474 -0.0700626633 -0.7089274092
-0.0063140677 -0.0765351875 -0.6779713242
-0.0054936319 -0.0746732734 -0.6952011004
-0.0999127931 -0.0468587082 -0.7083791048
-0.0882388015 -0.0510257437 -0.6946793107
-0.0372474657 -0.0421255050 -0.6865422873
-0.0260365468 -0.1160882032 -0.6881753177
0.0033878801 -0.0959449061 -0.6682011607
-0.0080070180 -0.0771322630 -0.6937717447
0.0010447269 -0.0737261011 -0.6798107916
0.0234865883 -0.0207360299 -0.6921213960
-0.0337069144 -0.1029859516 -0.6773654065
-0.0754468874 -0.1130537726 -0.6940853380
-0.0947227618 -0.0760249486 -0.6871429787
-0.0151215798 -0.0271374032 -0.6933314140
-0.0582683024 -0.0556962369 -0.7198433873
0.0022429951 -0.0500960342 -0.6911507017
-0.0550060071 -0.0341852041 -0.6882171629
-0.0705022907 -0.0745270442 -0.6884260905
-0.0227201786 -0.0782267428 -0.6730499709
-0.0864427542 -0.1046484413 -0.6910713482
-0.0858926474 -0.0522295508 -0.6982353325
-0.0788276711 -0.0838621552 -0.6852795946
-0.0776499546 -0.0373709185 -0.6933627866
-0.0486763206 -0.0788422545 -0.6712071393
-0.0672837067 -0.0721970419 -0.7044588227
-0.0604306660 -0.0334405227 -0.6993417571
-0.0403104512 -0.0937415658 -0.6680174603
0.0187356521 -0.0495473634 -0.6741409170
0.0033681401 -0.0735521187 -0.6887451028
-0.0539914374 -0.0535754593 -0.7186393124
-0.0739103903 -0.0661883221 -0.7110193309
-0.1029891105 -0.1001863852 -0.7029821434
-0.0704728737 -0.0744148493 -0.6971220970
-0.0112180986 -0.0592356550 -0.6896002571
-0.0193476724 -0.0661962725 -0.6816626314
-0.1011548634 -0.0291436998 -0.7129933150
0.0081185363 -0.0563951103 -0.6851769077
-0.0563356914 -0.0708414465 -0.6974863609
0.0112499098 -0.0914877939 -0.6572538306
-0.0360895268 -0.0557150171 -0.7025382593
-0.0730042840 -0.0651552186 -0.7133411805
-0.0561251058 -0.1079834296 -0.6927955316
0.0022007949 -0.0438206252 -0.6882507136
-0.0252974222 -0.0558480601 -0.6873259637
0.0155040711 -0.0250961109 -0.6839619378
-0.0662856512 -0.0585599039 -0.7111167312
-0.0586625942 -0.0790606800 -0.6854211103
0.0205387498 -0.0726912786 -0.6628727817
-0.0593581051 -0.0605705343 -0.7069784403
0.0190196948 -0.0334672536 -0.6804872347
-0.0795111849 -0.0673167363 -0.6922150767
0.0286615486 -0.0711782878 -0.6803303079
0.0118578510 -0.0231213684 -0.6831328429
-0.0304493942 -0.0521022878 -0.6875235188
-0.0429038173 -0.0477108007 -0.6985691777
-0.0782292573 -0.0776303985 -0.6779701660
-0.0026152540 -0.0646052279 -0.6885505946
-0.0475902576 -0.0689997525 -0.7040083139
-0.0129274622 -0.0647381811 -0.7082599208
0.0175893603 -0.0825913667 -0.6605801373
-0.0490456019 -0.1086011395 -0.6816238121
-0.0629310750 -0.1047028970 -0.6994025194
-0.0297324764 -0.0599727693 -0.6876087919
-0.0681855963 -0.0600264663 -0.7110131801
-0.0610077134 -0.0754934422 -0.6968351091
-0.0711003802 -0.0891041031 -0.6859034036
-0.0680748456 -0.0670901833 -0.7115159870
-0.0631835864 -0.0340017672 -0.6968719433
-0.0987663510 -0.0356793663 -0.6998172895
-0.0207609326 -0.1053962779 -0.6859139843
-0.0608766411 -0.0337588390 -0.6903819408
0.0238024710 -0.1036418901 -0.6704939510
-0.0534580877 -0.1147252451 -0.6902452499
-0.0744241876 -0.0850161904 -0.6888314542
-0.0389140799 -0.0561715196 -0.6913699150
-0.0480789266 -0.0726984849 -0.6797839567
0.0165081345 -0.0427288276 -0.6748708609
-0.0212955890 -0.1145053493 -0.6819257053
-0.0538046874 -0.0561268191 -0.7249980669
-0.0876439430 -0.0592541054 -0.6900883234
-0.1068629297 -0.0926280024 -0.7031362913
-0.0086836180 -0.0327154393 -0.6830754038
-0.0736328234 -0.0502908048 -0.7018927340
-0.0136875297 -0.1078586136 -0.6859692895
-0.0920189151 -0.0941100205 -0.6872056514
-0.0175162246 -0.0565257863 -0.6933190091
-0.1011443174 -0.0382832944 -0.7017976624
-0.0733000706 -0.0484351932 -0.6962106124
-0.0503567867 -0.0717643425 -0.6906172633
-0.0075945550 -0.0374621974 -0.6850826773
-0.0555596347 -0.0809826261 -0.6812951935
0.0244186942 -0.0864519285 -0.6584736640
0.0098488890 -0.0471420522 -0.6817387463
-0.0387734965 -0.0623007098 -0.6868171470
-0.0571714423 -0.0313644562 -0.7051108744
-0.0187467418 -0.0268291035 -0.6995476530
-0.0649646772 -0.0389244143 -0.6988091950
-0.0475200824 -0.0720315725 -0.6902641654
0.0324481839 -0.0264043506 -0.6899322009
-0.0527051819 -0.0385288775 -0.6945940079
-0.0433913375 -0.0637124976 -0.7106420672
0.0005042070 -0.0684624422 -0.6992310156
-0.0799049315 -0.0549771111 -0.7008119906
-0.0543782897 -0.1100920759 -0.6865064932
-0.0610192046 -0.0529781654 -0.7137150168
-0.0064013267 -0.1034093940 -0.6760806139
-0.0818979247 -0.0434508326 -0.6928990456
-0.0868877968 -0.0423749799 -0.6938425386
-0.0711177747 -0.0689458872 -0.7021010697
-0.0150464537 -0.0567951704 -0.7022139607
-0.0379646322 -0.1106586798 -0.6778324222
-0.0234981589 -0.0828594342 -0.6739459634
0.0042782407 -0.0575703321 -0.6945733764
-0.0565387578 -0.0348702625 -0.7086687720
-0.0534321603 -0.0500344266 -0.7166970921
0.0109927252 -0.0632443684 -0.6778923264
-0.0667051105 -0.1066422009 -0.6898776678
-0.1019444963 -0.0397944256 -0.7194763290
-0.0849877144 -0.0564078353 -0.6920426338
-0.1021060378 -0.0889379368 -0.6926184057
-0.0380757246 -0.1073915208 -0.6791608292
-0.0591511868 -0.0948121043 -0.6875133634
-0.0209244215 -0.0763491088 -0.6834468763
-0.0357606132 -0.0193885452 -0.6995970722
-0.0289888913 -0.0782232657 -0.6776460558
-0.0718485777 -0.0981918654 -0.6900007201
-0.0759697657 -0.0906107198 -0.6859706198
-0.0018316574 -0.1075256502 -0.6805665759
0.0204946990 -0.0571942267 -0.6773056956
-0.0916089973 -0.0828658143 -0.6810250716
0.0264268797 -0.0792589784 -0.6686293483
0.0196731370 -0.1032708883 -0.6709972620
-0.0891739464 -0.0716236091 -0.6918636068
-0.0753012260 -0.0648000573 -0.7098728414
-0.0341678039 -0.0626721578 -0.6781702519
-0.0385250784 -0.0542829782 -0.7030558586
-0.0927952570 -0.0349787942 -0.7009124946
0.0158516843 -0.0628812958 -0.6692302975
-0.0225448105 -0.0906292945 -0.6736111045
-0.0757430051 -0.0680828933 -0.6951874432
0.0121276365 -0.0636452011 -0.6802268114
0.0010575472 -0.0650731857 -0.7150137489
0.0046838331 -0.0800358750 -0.6721586233
-0.1018245515 -0.0428877306 -0.7072563566
-0.0055222963 -0.1076260195 -0.6804546760
-0.0561331262 -0.1139973296 -0.6893174801
-0.1016275439 -0.0438844867 -0.7003901172
-0.0995388590 -0.0409102087 -0.7123020675
-0.0598275507 -0.1149197870 -0.6969310303
-0.0014863644 -0.1095057873 -0.6834156742
-0.0369356386 -0.0567448924 -0.6832555179
-0.0736322764 -0.0788608903 -0.6839866798
0.0295975269 -0.0685450192 -0.6739120304
-0.0701392192 -0.0659419046 -0.7085783856
-0.0527203972 -0.0619862116 -0.7210594038
-0.0899435783 -0.0797287744 -0.6768241501
-0.0512515178 -0.0542397184 -0.7192711272
-0.0583688722 -0.0908131611 -0.6826930086
-0.0491609728 -0.0539230768 -0.7150124912
-0.0980820654 -0.0734274478 -0.6855683221
0.0307198854 -0.0600795302 -0.6816399694
-0.0406587268 -0.0735100015 -0.6720555918
-0.0406642130 -0.0688977246 -0.6916307967
-0.0534693033 -0.0801130129 -0.6749154590
0.0105995941 -0.0742626826 -0.6910259555
-0.0525367894 -0.0673826153 -0.6960627909
-0.0080620950 -0.0281819731 -0.7071043320
-0.0192896043 -0.0536434899 -0.6976622864
-0.0248177294 -0.0592207350 -0.6985142231
0.0092412962 -0.0701255640 -0.6674932986
0.0029173431 -0.0733762602 -0.6823430654
-0.0902769339 -0.0321515146 -0.6996345478
-0.0944442417 -0.1071236698 -0.6957694184
-0.0664359350 -0.0779232830 -0.6927035818
-0.0710172814 -0.0675534433 -0.7130681332
-0.0571455407 -0.1143491437 -0.6921560219
-0.0035629615 -0.0840224584 -0.6647499151
-0.0345918199 -0.0477975974 -0.6849906042
0.0002246643 -0.0802538454 -0.6624513442
-0.0003151874 -0.0497843684 -0.6810328059
-0.0712390704 -0.0274571762 -0.7004480881
-0.0233520390 -0.0796946175 -0.6774894297
-0.0110633476 -0.0707322210 -0.6821291447
0.0119450883 -0.0542149310 -0.6881147870
-0.0762279553 -0.0721130140 -0.7010263207
0.0195501666 -0.0664190868 -0.6760563151
-0.0294382821 -0.0683638092 -0.6800955152
-0.0752523758 -0.0459543604 -0.7014224164
-0.0254402179 -0.0613479204 -0.6957409978
-0.0455907581 -0.0821441039 -0.6696506290
-0.0963027866 -0.0915807138 -0.6862357511
-0.0597990105 -0.1018233239 -0.6947935174
-0.0061378819 -0.0892032385 -0.6687296033
-0.0514886218 -0.1145634297 -0.6881469964
-0.0078218044 -0.0519603333 -0.6838712999
0.0097107072 -0.1144049378 -0.6759050029
-0.0869849000 -0.1023633848 -0.6889252153
-0.0929622879 -0.0368191760 -0.6985811442
-0.0971752760 -0.0539491067 -0.7062397970
0.0281589822 -0.0404709201 -0.6762980018
-0.1009610014 -0.0384182580 -0.7143379233
-0.0162914199 -0.0244632315 -0.7055294477
0.0178371605 -0.0549612732 -0.6760624212
-0.0419137601 -0.1140790808 -0.6857576869
-0.0652670379 -0.0787849691 -0.7009184743
-0.0012185702 -0.0461108547 -0.6945773544
-0.0056818262 -0.0605292295 -0.7148878352
-0.0455793058 -0.0949076547 -0.6801906856
-0.0515675098 -0.0769442841 -0.6843537688
0.0111229601 -0.0668437482 -0.6778941427
-0.0624480253 -0.0674934805 -0.7211680158
-0.0509307682 -0.0454717827 -0.7074966056
-0.0053265617 -0.0670324301 -0.6917353566
-0.0801118864 -0.0224704285 -0.6956204900
-0.0688339695 -0.0596601488 -0.7155765304
-0.0384550465 -0.0528755439 -0.6987610224
-0.0067615671 -0.1018386633 -0.6845094329
0.0152309275 -0.0742814626 -0.6600816601
-0.1019597865 -0.0741050328 -0.6969616755
-0.0472604645 -0.0321357016 -0.6954243736
0.0012024234 -0.0514996958 -0.7006567039
-0.0481809066 -0.0715348994 -0.6850961438
-0.0236857740 -0.0632662096 -0.6932080390
-0.0272712072 -0.0918402015 -0.6690210459
-0.0357008416 -0.0653955566 -0.6845756231
0.0011234589 -0.0525422800 -0.6972676186
-0.0486927512 -0.0756514783 -0.6977323913
-0.0413747844 -0.0233754496 -0.7009472009
-0.0553844431 -0.0319623864 -0.7071928935
-0.0053080735 -0.0506830066 -0.7041432261
-0.0438085071 -0.0607927633 -0.7009653992
-0.0258957446 -0.0620679744 -0.6934170127
-0.0004988044 -0.0836950494 -0.6576214437
0.0026765231 -0.0673339296 -0.6963289171
-0.0958192075 -0.0331828146 -0.7021378635
-0.0587090675 -0.0928854924 -0.6880588580
-0.0005492599 -0.0935009251 -0.6640022527
-0.0485049617 -0.0299689970 -0.7168155290
-0.0817166621 -0.0187746942 -0.7054240002
-0.0330959984 -0.0955818533 -0.6755023332
-0.0587271447 -0.0282087591 -0.6951305798
-0.0265723018 -0.0708181233 -0.6918036353
0.0291080540 -0.0696747720 -0.6819246492
0.0010527336 -0.0334799801 -0.6827543113
-0.0062381187 -0.0829561967 -0.6704679430
-0.0211682316 -0.0956449845 -0.6795535945
-0.0042587926 -0.0736693212 -0.6819884038
-0.0526748620 -0.0758229697 -0.6839879197
-0.0680501212 -0.0579737014 -0.7126594671
-0.0495299778 -0.0322704663 -0.6977871080
-0.1037740368 -0.0899998517 -0.6952161583
-0.0700235807 -0.0663798482 -0.7163738285
0.0126599214 -0.1143935103 -0.6775053698
-0.0397743555 -0.0650798041 -0.7015956216
0.0340258958 -0.0619180636 -0.6915986339
-0.0167294918 -0.0567453820 -0.6974599063
-0.0001637272 -0.0456777391 -0.6899560203
-0.0308705590 -0.0967204769 -0.6756645540
0.0032856591 -0.0704500392 -0.6822483566
0.0107278572 -0.0745804906 -0.6731287241
-0.0641948328 -0.0742349263 -0.7072458515
-0.0560257399 -0.0502323301 -0.7005003076
-0.0613511321 -0.0998040859 -0.6872106352
0.0014783017 -0.0477242989 -0.6941800176
0.0072016758 -0.0816775560 -0.6688165665
-0.0464259163 -0.0927424881 -0.6827060421
-0.0100094250 -0.1028276051 -0.6753887961
0.0100789442 -0.0501976296 -0.6854245813
-0.0334595591 -0.0788759762 -0.6695410335
-0.0063816081 -0.0567792729 -0.6938219666
-0.0749806622 -0.0330715689 -0.6969961686
-0.0233990156 -0.0528712808 -0.7004409451
-0.0110532415 -0.0853464995 -0.6707734809
-0.0439815665 -0.1147213467 -0.6907746780
-0.0439894080 -0.0407973425 -0.6929159752
-0.0047313687 -0.0544184707 -0.7006984949
-0.0326837264 -0.0748805553 -0.6841911077
0.0201793379 -0.0214330971 -0.6863387556
-0.0166691442 -0.0599257923 -0.7024065271
-0.0687273500 -0.0752821970 -0.6975762924
0.0085567398 -0.0703588095 -0.6716500882
-0.0289089642 -0.0909040102 -0.6777288133
-0.0309666822 -0.0212485622 -0.7011807025
-0.0054395292 -0.0756284242 -0.6920011974
-0.0160952275 -0.1007667112 -0.6850888148
-0.0492900989 -0.0463207735 -0.7029225695
-0.0654749440 -0.1028785060 -0.6983847496
-0.0544045580 -0.0730572641 -0.6900738478
-0.0416890549 -0.0854803747 -0.6671982375
-0.0561333261 -0.0642980114 -0.6980815530
0.0307540940 -0.0625787273 -0.6860756934
0.0018083474 -0.0723054765 -0.6989352152
-0.0114280381 -0.1011186449 -0.6854249136
-0.0921126891 -0.0598408369 -0.7014760985
-0.0533278809 -0.0807424575 -0.6917258420
-0.0550122350 -0.0336437997 -0.6925068685
-0.0273836067 -0.1155749566 -0.6778639894
-0.0006833043 -0.0929991089 -0.6702337248
-0.0163723418 -0.1141701630 -0.6887426127
-0.0262910463 -0.0282288424 -0.6920550510
-0.0516979215 -0.0252965864 -0.7007483133
-0.0549860464 -0.0558910468 -0.7189223172
-0.0809822293 -0.0403919700 -0.6952607655
0.0110825898 -0.1142364901 -0.6734603937
0.0038250030 -0.0639296458 -0.7028513376
-0.0568161047 -0.0747528903 -0.7014910059
0.0069317688 -0.0649893703 -0.6763270148
-0.0645179631 -0.0607513222 -0.7007782935
0.0082088670 -0.0632060390 -0.6848674269
0.0342529349 -0.0688365651 -0.6774947979
-0.0587059863 -0.0913935145 -0.6869982596
0.0037820887 -0.0478375573 -0.6904288365
-0.0187826008 -0.0584923141 -0.6988396049
-0.0596025757 -0.1139689943 -0.6909046211
-0.0027455212 -0.1149845200 -0.6876741422
-0.0318833609 -0.0301735849 -0.6927470533
0.0228677606 -0.0694856316 -0.6766668020
-0.0465691375 -0.0774837310 -0.6825995445
0.0139062428 -0.0509907584 -0.6729208738
-0.0662305810 -0.0802297834 -0.6899843249
-0.1029259986 -0.0315101870 -0.7139899371
-0.0489288883 -0.0909974146 -0.6758607460
-0.0954990250 -0.0363831715 -0.6999902837
-0.0013240935 -0.0658867380 -0.6834431865
0.0129783645 -0.0468657303 -0.6755506318
-0.0740884227 -0.0780145874 -0.6806614875
-0.1014346617 -0.0342429939 -0.7060893116
-0.1007103852 -0.0748132156 -0.6877074018
-0.0750353317 -0.0408216536 -0.6961624021
-0.0441554505 -0.0525378566 -0.7099973559
-0.0147177971 -0.0622548698 -0.6872791574
0.0055285668 -0.0219518444 -0.6895549672
-0.0333839541 -0.0208141637 -0.7051389182
-0.0104652773 -0.1165270068 -0.6827955943
0.0154471462 -0.0687667089 -0.6765960279
-0.0550480104 -0.0521719191 -0.6962702586
-0.0886342977 -0.0918384463 -0.6823436107
-0.0598153746 -0.0842932174 -0.6836041605
-0.0618500821 -0.0750712529 -0.6954765916
-0.0717221189 -0.0440113625 -0.7034205843
-0.0987608993 -0.0300064534 -0.7149741045
-0.0185022881 -0.1149090021 -0.6817197952
0.0012875161 -0.0736318084 -0.6919175733
-0.0489319369 -0.0799142470 -0.6695962254
-0.0438754609 -0.0556961156 -0.7025981841
-0.0382179375 -0.0978678921 -0.6754823525
-0.0934283676 -0.0516131154 -0.7020849388
-0.0896859625 -0.0535913985 -0.6983610030
-0.0249913597 -0.0597939782 -0.6874895954
-0.0766462752 -0.0664459258 -0.7124000414
0.0217334041 -0.0776946358 -0.6679830253
-0.0218425550 -0.0760391580 -0.6851398387
-0.0525450142 -0.1083974212 -0.6955925690
-0.0602007839 -0.0321295061 -0.6976273178
0.0090066854 -0.0655832115 -0.6825368865
-0.0892523586 -0.0656156073 -0.6810583452
-0.0876403809 -0.0409576825 -0.6953198553
-0.0555157175 -0.0407204433 -0.6981975062
-0.0257426109 -0.0875340328 -0.6711233258
-0.0057135483 -0.0318014442 -0.7038884841
-0.0084349779 -0.0368450473 -0.6811209629
-0.0096526551 -0.0622648562 -0.7041155515
-0.0974269021 -0.1042078193 -0.6996388839
-0.0892408997 -0.0981108753 -0.6865367667
-0.0569934563 -0.0729207717 -0.7094135109
-0.0372099157 -0.0709486892 -0.6805141823
0.0177553702 -0.0405396248 -0.6774688726
-0.0761345603 -0.1042056409 -0.6915348169
-0.0936182764 -0.0686000128 -0.6877814549
-0.0454509846 -0.0494072237 -0.7014209288
-0.0109923869 -0.0660954187 -0.6817392044
-0.0390116333 -0.0633030521 -0.7038056818
-0.0530622598 -0.0507790112 -0.7008641369
-0.0342899258 -0.1076312954 -0.6824678592
-0.0077563638 -0.0436876675 -0.6932379788
-0.0044404520 -0.0416575797 -0.6920179318
-0.0381989385 -0.1088625265 -0.6824027321
-0.0462381538 -0.0750511964 -0.7030427920
-0.0055714424 -0.0576217933 -0.7115936106
-0.0580137517 -0.0504976062 -0.6951975140
-0.0526692474 -0.0684007948 -0.7092937123
-0.0621612260 -0.0805433166 -0.6902654879
0.0227738377 -0.0910180104 -0.6561193353
-0.0325340613 -0.0155784269 -0.7002054101
-0.0001013847 -0.0786360872 -0.6661557317
0.0119856194 -0.0886377816 -0.6573616221
-0.0177716576 -0.0266065255 -0.6972356174
0.0039413114 -0.0679274159 -0.6787160257
-0.0108935060 -0.0776579281 -0.6734109918
-0.0843102902 -0.0536825573 -0.6910011832
-0.0586665627 -0.0455802735 -0.7081066220
-0.0890329577 -0.0597986122 -0.6899253527
-0.0183244754 -0.1153960630 -0.6856625631
-0.0278699393 -0.0550244518 -0.6946188215
0.0209640520 -0.0792179635 -0.6574556074
0.0094251307 -0.0809190720 -0.6662858725
-0.0094262836 -0.0880563485 -0.6701653537
-0.0628335950 -0.0664118063 -0.7076042451
-0.0753057690 -0.1025124767 -0.6942289317
-0.0785622721 -0.0823585359 -0.6764606543
-0.0211345386 -0.0928109809 -0.6787880469
-0.0171292779 -0.0358277249 -0.6848658352
0.0257168548 -0.0221145718 -0.7008785857
-0.0305014513 -0.0769742727 -0.6808519959
-0.0530133971 -0.0995040213 -0.6848312947
-0.1005617919 -0.0393768221 -0.7169728296
-0.0459980814 -0.1019475625 -0.6780995855
-0.0198358405 -0.0612611695 -0.6868247306
-0.0431241132 -0.0728631023 -0.6745790355
-0.0997725278 -0.0622031032 -0.7025206193
-0.0260726616 -0.0749209217 -0.6818909819
0.0180306352 -0.0983966708 -0.6623640690
-0.0847021471 -0.0218319387 -0.7002926424
-0.0651236145 -0.1149945249 -0.7013569352
0.0114787463 -0.0497980338 -0.6773234035
-0.0403716128 -0.0313104788 -0.6929906439
0.0019154100 -0.0317722259 -0.6950770454
0.0074129369 -0.0957801197 -0.6601697674
-0.0035641643 -0.0628562719 -0.6878451705
-0.0288581918 -0.0877387965 -0.6655885730
-0.0208304853 -0.0741279207 -0.6978702162
-0.0074926863 -0.0605133025 -0.6961844004
-0.0542385514 -0.0698645763 -0.7021406305
0.0134739794 -0.0563829353 -0.6777578667
-0.0525717691 -0.0537511587 -0.7030587884
-0.0589269497 -0.0550953085 -0.7185209502
-0.0490186060 -0.1023265178 -0.6869441135
-0.0217622296 -0.0389561493 -0.6866635423
-0.0247780370 -0.0398957381 -0.6855359623
-0.0062992112 -0.1183585875 -0.6891795318
0.0135162612 -0.0666631940 -0.6631937777
-0.0838345486 -0.0708898517 -0.6897090395
-0.0221548605 -0.0221810732 -0.7056393888
0.0166538074 -0.0575819070 -0.6873852002
-0.0583183427 -0.0624829642 -0.6907194339
-0.0769466481 -0.0669689817 -0.6991906840
-0.0398138462 -0.0687533813 -0.6766102159
-0.0738434561 -0.0759994894 -0.6825007498
-0.0488272041 -0.0629801507 -0.7080571722
0.0317131030 -0.0713893473 -0.6835966186
-0.0046975186 -0.0544277676 -0.7045242574
-0.0311220592 -0.0887107455 -0.6660359155
-0.0261355930 -0.0218185979 -0.7030603482
-0.0637478009 -0.0768755302 -0.6927062869
-0.0384396629 -0.0279829802 -0.6926314678
-0.0405647397 -0.0945983401 -0.6719971383
-0.0089839410 -0.0628470677 -0.6977826260
-0.0753794800 -0.0350028805 -0.6947255181
-0.0483195854 -0.0320690204 -0.6913218431
-0.0069770124 -0.0729964355 -0.6982668319
-0.0170673695 -0.0594423468 -0.6884228644
0.0077998652 -0.0473824262 -0.6871845403
-0.0902256992 -0.0565604803 -0.6991283931
-0.0073759357 -0.0454500242 -0.6968295143
-0.0758050724 -0.0235487206 -0.6966034797
0.0029727246 -0.0374980059 -0.6793843496
-0.0111332800 -0.0451390851 -0.6895262404
-0.0498054571 -0.0618642671 -0.7136214250
0.0020134656 -0.0712606702 -0.7050389866
-0.0003152540 -0.0622772843 -0.7149273008
-0.0471000110 -0.0512570134 -0.7084630284
-0.0566259509 -0.0696914529 -0.7004338837
-0.0997141768 -0.0308598207 -0.7020902127
-0.0029000854 -0.0458229604 -0.6977564233
0.0184520521 -0.0240277186 -0.6817115952
-0.0778965346 -0.0363658824 -0.6924063218
-0.0640679092 -0.1137416353 -0.6920088109
0.0121718798 -0.0242314506 -0.6808211141
0.0034959952 -0.0911252722 -0.6666029692
-0.0702699386 -0.0607389373 -0.7056738085
-0.0664657503 -0.0802889739 -0.6878351768
0.0003624957 -0.0736625197 -0.6768154398
-0.0840890235 -0.0645609987 -0.6903670411
-0.0683720021 -0.0471139053 -0.7031827370
-0.0201488512 -0.0687149458 -0.6834619368
-0.0729985025 -0.1016305704 -0.6917576605
-0.0477463651 -0.0722193285 -0.6984968369
-0.0527638433 -0.0360594746 -0.6932578297
-0.0824606990 -0.0595582882 -0.6951270637
-0.0066326254 -0.0855890226 -0.6699694432
-0.0681371490 -0.0451906727 -0.7030402866
-0.0835896852 -0.0153862095 -0.7190003015
-0.0533529559 -0.1039073386 -0.6897167224
0.0038398995 -0.0292546737 -0.7068325043
-0.0125100471 -0.0451403870 -0.6961615980
-0.0693117887 -0.0644285686 -0.6994776147
-0.0555706041 -0.0493140741 -0.7131571358
0.0132541912 -0.0595262313 -0.6770059164
-0.0464962879 -0.1015266377 -0.6806019930
0.0300111084 -0.0241711446 -0.6980009154
0.0123029634 -0.0747131889 -0.6604254052
-0.0884504837 -0.0926955423 -0.6853554017
0.0062462441 -0.0707751533 -0.6806735118
-0.0639117137 -0.0619888643 -0.6977298398
-0.0331217396 -0.0517997163 -0.7030107980
-0.0382047300 -0.0766399471 -0.6711362019
-0.0142753545 -0.0899607721 -0.6789228032
0.0297166807 -0.0243931632 -0.6824823292
-0.0829721758 -0.0820561308 -0.6873125479
-0.0755598963 -0.0200703909 -0.7048830205
-0.0012913903 -0.0505280402 -0.6976927589
-0.0288746562 -0.0612838529 -0.7016155124
-0.0028214620 -0.1182401416 -0.6876002137
-0.0417704619 -0.0733253341 -0.6853995770
-0.0387374833 -0.0856323019 -0.6782701612
-0.0093314027 -0.0366261927 -0.6844370336
-0.0554073714 -0.0763207823 -0.6881399751
-0.0470064593 -0.0371031936 -0.6903359812
-0.0492992959 -0.0547540513 -0.7170823415
-0.0233848486 -0.1017551179 -0.6804316866
-0.0361404866 -0.0909742564 -0.6788544059
-0.0451767776 -0.0467894641 -0.7006562682
-0.0109204498 -0.0816486690 -0.6684113200
-0.0018445618 -0.0714115202 -0.6809416115
-0.0151102680 -0.0731718336 -0.6973262219
-0.0440803158 -0.0785299987 -0.6804648439
-0.0014542583 -0.0439751773 -0.6884114435
0.0211739702 -0.0479685993 -0.6736274928
-0.0511530363 -0.0903445601 -0.6822742229
0.0120994107 -0.0711750590 -0.6601438037
-0.0834300834 -0.0661034652 -0.6943932055
0.0344357170 -0.0518539143 -0.6848624497
-0.0054282217 -0.1006777484 -0.6810803906
-0.0801513995 -0.0527529589 -0.7055472941
-0.0104496124 -0.0361920267 -0.7014761422
-0.0437478627 -0.0921908421 -0.6806723619
-0.0012283103 -0.0526075351 -0.7027576816
0.0041452553 -0.0561611596 -0.6905118605
-0.0528958038 -0.0859358871 -0.6739721780
-0.0864782825 -0.0948587460 -0.6855882836
-0.0626117641 -0.0737806151 -0.7045338367
0.0203998967 -0.0528569281 -0.6755052416
-0.0777805002 -0.0621095149 -0.6972127010
-0.0750818648 -0.0209912453 -0.7192684463
-0.0063358170 -0.0444690187 -0.6847007422
0.0132438449 -0.0695501733 -0.6920674975
-0.0625206528 -0.0809608349 -0.6970144573
-0.0393654932 -0.0500540791 -0.6920327308
0.0114461749 -0.0658202525 -0.6882409318
-0.0283148033 -0.0911388019 -0.6758593654
-0.0457720016 -0.0416622056 -0.6980998969
-0.0906712060 -0.0196371498 -0.7023353626
-0.0768744802 -0.0882560034 -0.6797294827
-0.0918755973 -0.0995547439 -0.6872026545
-0.0885183619 -0.0953972545 -0.6851705718
-0.0442570048 -0.0684054652 -0.6952110467
-0.0014116984 -0.0804101160 -0.6662127301
-0.0110521812 -0.0615999437 -0.7089310425
0.0009364930 -0.0777338242 -0.6684408381
-0.0118980298 -0.0569020866 -0.6882204274
-0.0554266736 -0.0620503819 -0.7264939060
-0.0805237981 -0.0530756211 -0.6999651381
-0.0075026741 -0.1150616873 -0.6790086531
-0.0663743417 -0.0749049217 -0.6998559212
-0.0307318691 -0.0228924732 -0.6952416693
-0.0952082368 -0.0576441048 -0.7109564243
0.0072248716 -0.0536149674 -0.6923015016
-0.0455791496 -0.0255164617 -0.6961635204
-0.0938176113 -0.0296904766 -0.7016665260
-0.0731110036 -0.0867545142 -0.6847383055
0.0087227634 -0.0508804297 -0.6863279348
-0.0677217941 -0.0690135616 -0.7019455618
0.0066313324 -0.0735732787 -0.6697579603
-0.0055990463 -0.0306847723 -0.6888085856
-0.0652902569 -0.0356537873 -0.7008920674
-0.0885972275 -0.0641003936 -0.6932387801
0.0278751021 -0.0218749711 -0.6943607886
-0.0089470833 -0.0336422201 -0.6983964447
-0.0037589197 -0.1163751620 -0.6788493220
-0.0119488506 -0.0649758635 -0.7061247228
-0.0585856220 -0.0589977988 -0.6929037746
-0.0729825642 -0.0238482578 -0.6967084291
0.0046743884 -0.0321231904 -0.6818517033
-0.0946650847 -0.1074427970 -0.7005424072
-0.0352198959 -0.0216798949 -0.6977663085
0.0058363419 -0.0701920054 -0.7011315320
-0.0915868611 -0.0886752171 -0.6729933902
-0.0578603441 -0.0363558319 -0.6939776035
0.0234900988 -0.0394417730 -0.6744945514
0.0113552540 -0.0555684000 -0.6805457999
-0.0168369850 -0.0531373822 -0.7016958640
-0.0035311707 -0.0732880980 -0.6803083718
-0.0929891873 -0.0222867506 -0.7106300239
0.0065125045 -0.0528838447 -0.6874180024
0.0175971989 -0.0772504703 -0.6573847399
-0.0659864784 -0.0551095403 -0.7113198450
-0.1008328455 -0.0455353564 -0.7193648474
-0.0552308663 -0.0415790267 -0.6999604479
-0.0727438340 -0.0697951910 -0.6880126453
-0.0296171944 -0.0764846728 -0.6757786254
-0.0238007301 -0.0637051038 -0.6980146781
-0.0515045561 -0.0583475557 -0.7189678482
-0.0633804788 -0.0773022101 -0.6973529955
0.0002925222 -0.0445433147 -0.6885169995
0.0113965954 -0.0248670121 -0.6846081996
-0.0771793239 -0.0384703487 -0.6942459071
-0.0221493050 -0.0596217591 -0.6888162730
-0.0024276596 -0.0422646823 -0.6803785239
-0.0609205676 -0.0654737875 -0.7004227440
-0.0589975789 -0.0846508298 -0.6903548524
-0.0508662971 -0.0698742899 -0.6878555404
-0.0263929138 -0.0868248754 -0.6661280700
-0.0753041054 -0.0499290638 -0.7085231415
-0.0954512372 -0.0244926715 -0.7168133625
-0.1024614917 -0.0913344630 -0.6876636216
-0.0587721013 -0.0586574464 -0.7216872869
0.0109815444 -0.0968772072 -0.6611025166
-0.0330924851 -0.0207245633 -0.6986899828
0.0133570578 -0.0528215070 -0.6736569474
-0.0656715148 -0.0451817010 -0.7039413508
-0.0996227194 -0.0920575963 -0.6837712369
-0.0368049257 -0.0408012729 -0.6847194657
-0.0766684063 -0.0706320854 -0.6972104569
-0.0133775911 -0.1079954144 -0.6832507817
-0.0866050303 -0.0884695521 -0.6773576580
-0.0461089352 -0.0741629136 -0.6982051895
-0.0112339062 -0.0360231296 -0.6984940810
-0.0661471992 -0.0915844358 -0.6867195526
-0.0409490732 -0.1127999303 -0.6800855593
0.0197730776 -0.0223004399 -0.6899237442
-0.0593984864 -0.0328337729 -0.6925174781
-0.0084025532 -0.0517024658 -0.7067063525
-0.0572775044 -0.0721154287 -0.6942111850
-0.0657454655 -0.0640996769 -0.7060697675
-0.0550276445 -0.0654891781 -0.7099833403
-0.0410183478 -0.0661346636 -0.6881510529
0.0009241502 -0.0797321998 -0.6732089901
-0.0161391838 -0.0741389689 -0.6805929311
-0.0534822009 -0.0438350612 -0.7049010043
-0.0629158045 -0.0586531985 -0.7161304657
-0.1015735133 -0.0373365750 -0.7192128149
-0.0839428289 -0.1003501473 -0.6832249373
-0.0409442987 -0.0496753675 -0.6995517979
-0.0843362889 -0.0827839415 -0.6835672697
-0.0041594173 -0.0745671548 -0.7021140858
-0.0902054796 -0.0962512642 -0.6829508607
-0.0368050809 -0.0828115046 -0.6770625512
-0.0447948820 -0.0679105475 -0.7022892662
-0.0356917207 -0.0515372210 -0.7004932833
0.0052344592 -0.0508090976 -0.6891476616
-0.0580459928 -0.0287027953 -0.7003170340
-0.0132873809 -0.0680231932 -0.7010921670
0.0061219488 -0.0708328419 -0.6969394467
-0.0540624943 -0.0667069337 -0.7055515902
-0.0772213155 -0.0755015068 -0.6842138515
-0.0277428829 -0.0307468855 -0.6886698496
0.0000959433 -0.0603081944 -0.6970146923
-0.0036616437 -0.1154047575 -0.6912219908
-0.0508187315 -0.0825199105 -0.6703621371
-0.0202363222 -0.0741999857 -0.7002305503
0.0308801894 -0.0603055814 -0.6878923431
-0.0380608425 -0.0629422968 -0.6771285768
-0.0290036820 -0.0670236775 -0.6861690898
-0.0314185084 -0.0748622540 -0.6840744167
-0.0963271118 -0.0559478826 -0.7125063170
-0.0248351215 -0.0673809852 -0.6936475229
-0.0679174358 -0.0656609129 -0.6962932598
-0.0330844423 -0.0548473682 -0.7098674723
0.0030705759 -0.0770224002 -0.6804182780
-0.0548700853 -0.0557697310 -0.6944716291
-0.0794420284 -0.0343315816 -0.6963106643
-0.0709054494 -0.0580319878 -0.6985627701
0.0284862323 -0.0639173981 -0.6886887824
-0.0291350235 -0.0226757516 -0.6890399530
0.0165426795 -0.0484933794 -0.6714775265
-0.0816129744 -0.0492361411 -0.7111046910
-0.0362408138 -0.1144341418 -0.6819741656
-0.0850025345 -0.0656318242 -0.6835667329
-0.0188872513 -0.0375331263 -0.6846828729
-0.0903963935 -0.0290683973 -0.7024415883
-0.0558468343 -0.0455119731 -0.7094424942
-0.0358606179 -0.0554518516 -0.6813191043
-0.0360776651 -0.0404843516 -0.6894983813
0.0113548055 -0.0334814081 -0.6798151217
-0.0142893214 -0.0933183655 -0.6752917767
0.0025902150 -0.0407287525 -0.6833198879
0.0053580965 -0.0437777514 -0.6827966436
0.0073523917 -0.0444929381 -0.6807464338
-0.0140854238 -0.0413348310 -0.6941222730
-0.0060474421 -0.0658691898 -0.6840211153
-0.0922621414 -0.0554319531 -0.7046537788
-0.0609786459 -0.0588195681 -0.7220960623
-0.0150268939 -0.0658055231 -0.7057889941
-0.0782280427 -0.0636808244 -0.7082583903
0.0079045582 -0.0353419383 -0.6813974321
-0.0400864135 -0.0325750804 -0.6913490214
-0.0043731125 -0.0373756799 -0.6817238751
0.0126775870 -0.0395088020 -0.6793114319
-0.0133109864 -0.0382136163 -0.6895164664
-0.0019371693 -0.0397953788 -0.6837807140
-0.0983301611 -0.0341359894 -0.7032789265
-0.0796608209 -0.0369816772 -0.6943936878
-0.0601778087 -0.0395791322 -0.6977321169
-0.0170964156 -0.0416298927 -0.6933059537
-0.0105002733 -0.0423526783 -0.6908618851
0.0128313138 -0.0504862386 -0.6785416753
-0.0995223841 -0.0386239194 -0.7125353223
-0.0779388275 -0.0463911121 -0.7015682287
-0.0248674289 -0.0500962834 -0.6936671947
-0.0174287700 -0.0527576975 -0.6985190416
0.0029172359 -0.0545112145 -0.6935515335
0.0126536988 -0.0566329195 -0.6798456069
-0.0990970716 -0.0870027223 -0.6799484147
0.0198041276 -0.0589112854 -0.6757217383
-0.0303096279 -0.0564465581 -0.6897524156
0.0100839798 -0.0582208400 -0.6862917824
0.0246826481 -0.0592600778 -0.6815967534
-0.0079408843 -0.0559212825 -0.7094330221
0.0061271821 -0.0604093366 -0.6937059093
-0.0240624415 -0.0594572136 -0.7020103404
-0.0001284231 -0.0589351601 -0.7093873979
0.0037296490 -0.0597570690 -0.7011335893
-0.0562436408 -0.0556376247 -0.7226218945
-0.0538300613 -0.0548051452 -0.7237512670
-0.0491356267 -0.0558784191 -0.7193064685
-0.0158265117 -0.0763019398 -0.6780953705
-0.0068674577 -0.0595672879 -0.7132830554
-0.0469298486 -0.0584033721 -0.7143473414
-0.0233077332 -0.0614830032 -0.6953562200
-0.0186743920 -0.0723142540 -0.6909986705
-0.0238452468 -0.0607307144 -0.7000676149
-0.0172569913 -0.0615686476 -0.7040502364
-0.0894855735 -0.0617499663 -0.6916262423
-0.0427902520 -0.0613451519 -0.7101752320
-0.0368791154 -0.0676563185 -0.6722947714
-0.0310119407 -0.0662017010 -0.6823006843
0.0091457500 -0.0708591430 -0.6658828560
0.0094639687 -0.0713854551 -0.6626664516
-0.0339438108 -0.0750781521 -0.6824717323
-0.0811863601 -0.0620680249 -0.6975409182
-0.0450955922 -0.0623648839 -0.7137306141
0.0092993798 -0.0708019834 -0.6780028185
-0.0720498653 -0.0621752270 -0.7138331555
-0.0426646084 -0.0660291654 -0.7011833028
-0.0224730703 -0.0667354637 -0.6982255633
0.0081758720 -0.0715411281 -0.6742643528
0.0079968850 -0.0736449915 -0.6608385698
-0.0431073179 -0.0679029523 -0.6938686162
-0.0215706855 -0.0685333965 -0.6962441841
-0.0083767594 -0.0659786574 -0.7156959311
0.0072855572 -0.0688488392 -0.7005196877
0.0097734313 -0.0755988719 -0.6598244711
-0.0705801423 -0.0640712945 -0.7165720568
-0.0455143392 -0.0670758228 -0.7073684639
-0.0436231287 -0.0711203771 -0.6821598808
-0.0188993352 -0.0701330859 -0.6959062918
-0.0711617794 -0.0853170511 -0.6850021685
0.0057486294 -0.0725130717 -0.6857161025
-0.0459475174 -0.0714954159 -0.6879248847
-0.0306311502 -0.0744810751 -0.6731876344
-0.0255777286 -0.0739384914 -0.6782620866
0.0043604679 -0.0738028684 -0.6863082703
0.0037084835 -0.0748153561 -0.6792772132
-0.0867987315 -0.0707765255 -0.6839007584
-0.0954643679 -0.0712692473 -0.6850807811
-0.0843567590 -0.0728029347 -0.6805904792
-0.0749943224 -0.0712941947 -0.6956312031
-0.0656176135 -0.0538937114 -0.7136294842
-0.0680218658 -0.0687980815 -0.7160765368
-0.0360114562 -0.0779037045 -0.6692042492
-0.0902725680 -0.0731553266 -0.6843111099
-0.0769707027 -0.0739235638 -0.6859956958
-0.0755313494 -0.0737545249 -0.6879151631
-0.0739563068 -0.0733143527 -0.6918064827
-0.0879127701 -0.0766650035 -0.6797032555
-0.0938517592 -0.0771760176 -0.6823620808
-0.0331740951 -0.0834452198 -0.6679931662
-0.1027083969 -0.0783058355 -0.6889689303
-0.0236327014 -0.0876494325 -0.6704122671
-0.0962029641 -0.0830788258 -0.6797185536
-0.0725383832 -0.0847099682 -0.6835197006
-0.0904234672 -0.0844950043 -0.6791799488
-0.0740525071 -0.0855276377 -0.6811856466
0.0318903141 -0.0899792016 -0.6665133238
-0.0365964714 -0.0896780831 -0.6648713625
-0.0781097579 -0.0866314429 -0.6805222846
-0.0510049042 -0.0882665893 -0.6804697549
-0.0809316417 -0.0880264502 -0.6777749548
-0.0563102346 -0.0900602662 -0.6832890789
-0.0811278799 -0.0928840636 -0.6822439793
-0.0912999205 -0.0938721919 -0.6819172878
-0.0857619940 -0.0937073939 -0.6839740808
-0.0912878275 -0.0970590702 -0.6868354512
-0.0035837597 -0.0526160523 -0.7021020949
0.0015923475 -0.0751657933 -0.6775039136
-0.0461302809 -0.0510565415 -0.7111644745
-0.0439382046 -0.0512595419 -0.7108956575
-0.0417166042 -0.0527071282 -0.7077702085
-0.0061628511 -0.0543595105 -0.7010175586
-0.0410303660 -0.0532373227 -0.7057767510
-0.0685101748 -0.0541305915 -0.7157453895
-0.0163161685 -0.0558131672 -0.6992975771
-0.0141759599 -0.0559268855 -0.6988703012
-0.0716368183 -0.0554921851 -0.7164450884
-0.0701282397 -0.0559770837 -0.7173081040
-0.0630664714 -0.0554639865 -0.7098840177
-0.0615810547 -0.0557817165 -0.7102394104
-0.0490943249 -0.0562315006 -0.7087484896
-0.0374515615 -0.0561885051 -0.7012533545
-0.0334807001 -0.0565479156 -0.7032942176
-0.0090142451 -0.0569735207 -0.6953763366
-0.0708560596 -0.0580323425 -0.7173729936
-0.0493092705 -0.0574908722 -0.7078313231
-0.0471627824 -0.0575467199 -0.7071015835
-0.0358715020 -0.0576252453 -0.7027100325
-0.0114578241 -0.0877262205 -0.6705794930
-0.0314235985 -0.0582709648 -0.7029860020
0.0028368488 -0.0728772581 -0.6792322397
-0.0779489428 -0.0578849763 -0.7168096304
-0.0311819954 -0.0607487261 -0.7024728656
-0.0191072933 -0.0595694222 -0.6974599361
-0.0492085107 -0.0592723414 -0.7035372257
-0.0268521942 -0.0611114036 -0.7003122568
-0.0210159328 -0.0610834025 -0.6956545711
-0.0652521998 -0.0609241147 -0.7081894577
-0.0637881011 -0.0610948000 -0.7080731690
-0.0623681042 -0.0609441828 -0.7070047855
-0.0289112721 -0.0630079135 -0.7020936012
-0.0276012514 -0.0627835542 -0.7009141445
-0.0498742051 -0.0607604980 -0.6988506317
-0.0599236563 -0.0620701499 -0.7022695541
-0.0587311027 -0.0631694756 -0.7004066507
-0.0567525985 -0.0629173592 -0.7003754775
-0.0543342065 -0.0628832392 -0.7000493407
-0.0511468935 -0.0628456250 -0.6978753209
-0.0501273163 -0.0618070550 -0.6974481940
-0.0465626717 -0.0757104605 -0.6833225191
-0.0046238592 -0.0635525137 -0.6834768951
-0.0019457496 -0.0637864433 -0.6855076551
0.0028691331 -0.0654515401 -0.6842970848
0.0027095249 -0.0668098405 -0.6838268042
-0.0061915801 -0.0680672154 -0.6837670505
-0.0042093055 -0.0679637026 -0.6828205287
-0.0664601550 -0.0682881325 -0.7024902105
-0.0614752062 -0.0681063514 -0.6999471784
-0.0577943940 -0.0751238465 -0.6920042634
0.0017421660 -0.0702916011 -0.6823601127
-0.0651349500 -0.0688070729 -0.7011885643
-0.0637248680 -0.0686324090 -0.7001286149
-0.0594369955 -0.0687742904 -0.6987972856
-0.0067404604 -0.0707705989 -0.6850327849
-0.0014682847 -0.0704237558 -0.6823405027
0.0043822345 -0.0715662539 -0.6793678403
0.0203242917 -0.0768590868 -0.6682189107
-0.0112303030 -0.0720692873 -0.6816372275
0.0113442102 -0.0731389355 -0.6752223372
-0.0700732917 -0.0720492974 -0.6990819573
-0.0639282763 -0.0726580247 -0.6968565583
-0.0610778630 -0.0727453580 -0.6959738135
-0.0565268497 -0.0726377914 -0.6925310890
-0.0538360309 -0.0717712529 -0.6919617057
-0.0449141953 -0.0724163540 -0.6882477105
-0.0407509245 -0.0715711564 -0.6865138412
-0.0084271971 -0.0738808587 -0.6814271212
0.0210933657 -0.0741928406 -0.6730481386
-0.0631046221 -0.0735537186 -0.6961221099
-0.0590389837 -0.0736271143 -0.6926628649
-0.0512852147 -0.0728557967 -0.6897338033
-0.0438746884 -0.0731472522 -0.6856973171
-0.0101777604 -0.0747940317 -0.6803285480
-0.0082765522 -0.0753546804 -0.6791465878
-0.0067083491 -0.0749239624 -0.6795334220
-0.0040212272 -0.0756809823 -0.6786223054
-0.0016490706 -0.0754473135 -0.6792756915
-0.0011233083 -0.0758650179 -0.6775031686
0.0038658263 -0.0752378069 -0.6749614030
0.0179420430 -0.0742366984 -0.6700581312
0.0214519997 -0.0757219344 -0.6702312628
-0.0283055967 -0.0936431140 -0.6787306964
-0.0563356355 -0.0742388368 -0.6911824346
-0.0141887416 -0.0753095200 -0.6776343783
-0.0115938953 -0.0758245084 -0.6774488389
-0.0094288252 -0.0760938637 -0.6774367094
0.0061040662 -0.0761644840 -0.6733467380
0.0240961071 -0.0774933286 -0.6707163155
-0.0663260892 -0.0762926266 -0.6962670684
-0.0590167753 -0.0762183939 -0.6905680100
-0.0551595278 -0.0753579289 -0.6895849109
-0.0524646156 -0.0749063045 -0.6874070168
-0.0512577891 -0.0751508549 -0.6855921745
-0.0427875407 -0.0750698447 -0.6842767596
-0.0372993313 -0.0751517713 -0.6825186610
-0.0042742927 -0.0776746832 -0.6778556108
-0.0018269636 -0.0771893747 -0.6758273244
0.0012798478 -0.0767081901 -0.6736103296
0.0182959959 -0.0768686086 -0.6688398123
-0.0610278957 -0.0760881230 -0.6896556616
-0.0527186282 -0.0758614466 -0.6859655380
-0.0291083492 -0.0770669356 -0.6806067228
-0.0238497425 -0.0766533166 -0.6777517200
-0.0164298359 -0.0781556293 -0.6790912747
-0.0011592955 -0.0775936469 -0.6727199852
0.0018027091 -0.0769086182 -0.6700526476
0.0061052577 -0.0773589313 -0.6698632240
0.0162471081 -0.0774226263 -0.6669638455
-0.0590261407 -0.0780243762 -0.6898457706
-0.0536270700 -0.0781491324 -0.6861885190
-0.0386385778 -0.0777210817 -0.6797273457
-0.0357999559 -0.0771842860 -0.6793185771
-0.0339952186 -0.0774156973 -0.6773433089
-0.0315102668 -0.0778048461 -0.6781047583
-0.0233321832 -0.0780018382 -0.6771013439
-0.0167755149 -0.0790930763 -0.6776626110
-0.0090596080 -0.0782895759 -0.6731219888
0.0158181931 -0.0783418790 -0.6655638814
0.0206740443 -0.0794787593 -0.6669757664
0.0262634642 -0.0805805475 -0.6681060791
-0.0684548095 -0.0786773860 -0.6910837889
-0.0663090572 -0.0789314546 -0.6909073889
-0.0511241704 -0.0779474117 -0.6828217506
-0.0415348820 -0.0780553259 -0.6796583831
-0.0363068928 -0.0787791486 -0.6783552170
-0.0212732274 -0.0798099190 -0.6770814061
-0.0198884029 -0.0798830539 -0.6768029332
-0.0487079360 -0.0928761661 -0.6837921739
-0.0133381686 -0.0802790783 -0.6737200320
-0.0085455636 -0.0796171315 -0.6724414527
-0.0056904336 -0.0807476752 -0.6724278331
-0.0001106598 -0.0790933967 -0.6684756875
0.0037343748 -0.0799356401 -0.6693736911
0.0059247673 -0.0810080357 -0.6694527268
0.0092007061 -0.0808514915 -0.6680686176
0.0163262598 -0.0796393976 -0.6648427248
0.0211853106 -0.0807825029 -0.6662416458
0.0245150039 -0.0823814273 -0.6673113704
0.0274555068 -0.0818779692 -0.6671352983
-0.0561161097 -0.0805752352 -0.6853669882
-0.0513828695 -0.0788738430 -0.6813739538
-0.0361218452 -0.0804195379 -0.6772721608
-0.0267193653 -0.0806145631 -0.6751778126
-0.0145310629 -0.0814566165 -0.6751129031
-0.0110487347 -0.0811007246 -0.6712253392
-0.0091981090 -0.0809511791 -0.6708932122
-0.0000580475 -0.0807792246 -0.6688456535
0.0035658492 -0.0812365748 -0.6688475609
0.0137347650 -0.0810108831 -0.6627387404
0.0225682631 -0.0831219479 -0.6658957303
0.0299994405 -0.0831422135 -0.6657034159
-0.0535214879 -0.0807465762 -0.6829356551
-0.0514891353 -0.0805647969 -0.6817618012
-0.0432851389 -0.0805444308 -0.6788059175
-0.0211814018 -0.0827182792 -0.6747071296
-0.0191885643 -0.0817811489 -0.6736501455
-0.0158373585 -0.0825922675 -0.6726564765
-0.0122177112 -0.0831345953 -0.6728011370
0.0013549906 -0.0824983791 -0.6688549519
0.0083926795 -0.0829940736 -0.6679067612
0.0189543609 -0.0826125294 -0.6638454795
-0.0316849910 -0.0929645821 -0.6801031232
0.0244072825 -0.0845511705 -0.6669434905
0.0287752189 -0.0848800242 -0.6664860249
-0.0584045388 -0.0831049308 -0.6866260469
-0.0550464503 -0.0823041499 -0.6834790111
-0.0537758209 -0.0816651285 -0.6814786792
-0.0469491482 -0.0825833231 -0.6794034243
-0.0455542170 -0.0816644356 -0.6785671711
-0.0412607677 -0.0834554508 -0.6795194149
-0.0341710486 -0.0831823622 -0.6758177082
-0.0262580384 -0.0826998055 -0.6744763255
-0.0185907315 -0.0833104178 -0.6734222472
-0.0111186979 -0.0834400877 -0.6713239551
0.0130965756 -0.0832851852 -0.6622778575
0.0235406620 -0.0860386317 -0.6657805045
0.0311062019 -0.0881043201 -0.6672760844
-0.0361186974 -0.0833475664 -0.6756423116
-0.0258189971 -0.0838349015 -0.6733523309
-0.0188145796 -0.0853541140 -0.6728331149
-0.0124764238 -0.0859337971 -0.6721643209
-0.0036519778 -0.0858454804 -0.6685708364
-0.0014994611 -0.0854327604 -0.6693680882
-0.0009215891 -0.0859120563 -0.6678825219
0.0037343262 -0.0851371512 -0.6670582891
0.0079840664 -0.0857828408 -0.6648656130
0.0086726779 -0.0843929723 -0.6638005376
0.0106698754 -0.0851481035 -0.6631716043
0.0262408499 -0.0881009605 -0.6655659676
-0.0610607713 -0.0857737623 -0.6845470369
