0.0072882427 -0.1123046551 -0.1677076798
-0.0068915877 -0.1153393675 -0.1639769149
0.0005221390 -0.1382582254 -0.1619967066
0.0098164630 -0.1130923255 -0.1673422944
-0.0400213548 -0.1704579535 -0.1421516749
-0.0244204346 -0.1664872020 -0.1531873941
-0.0323492382 -0.1114125838 -0.1521276426
-0.0437249523 -0.1694416743 -0.1409433730
0.0144771497 -0.1118314104 -0.1673486793
-0.0046618586 -0.1153830508 -0.1643240941
0.0180938653 -0.1129617300 -0.1714637983
0.0376259032 -0.1261398586 -0.1795315544
0.0203371405 -0.1131993850 -0.1716424137
0.0195336794 -0.1231540915 -0.1695677927
-0.0375889509 -0.1683807378 -0.1446393589
0.0078457647 -0.1725934150 -0.1623361783
0.0054137375 -0.1672126149 -0.1605607523
-0.0298215824 -0.1354003559 -0.1524392353
0.0246830160 -0.1126448226 -0.1723963227
0.0295557838 -0.1134599202 -0.1748394778
0.0318146293 -0.1134060601 -0.1748166266
0.0324616077 -0.1156867130 -0.1789998499
-0.0188155718 -0.1128668085 -0.1610553133
0.0129785278 -0.1651286611 -0.1621389225
-0.0340940339 -0.1371473429 -0.1520887597
-0.0293493066 -0.1257637266 -0.1531908261
0.0181727388 -0.1257614970 -0.1712083624
-0.0253541712 -0.1352005899 -0.1528306156
0.0098233204 -0.1229543544 -0.1697389599
-0.0369777754 -0.1454430985 -0.1464344470
-0.0449056923 -0.1451693922 -0.1425513700
0.0075570337 -0.1179126532 -0.1688195740
0.0356070962 -0.1303009242 -0.1789975987
0.0326889269 -0.1154349489 -0.1808781497
-0.0076506641 -0.1355798990 -0.1638788035
-0.0374333756 -0.1326043934 -0.1492806302
-0.0123917365 -0.1134799485 -0.1637847893
0.0151085051 -0.1169263921 -0.1709964558
0.0301377630 -0.1250731596 -0.1745911582
-0.0276844179 -0.1184439167 -0.1541886780
0.0355204737 -0.1158022281 -0.1844620434
0.0100815492 -0.1099289656 -0.1719643474
-0.0300428129 -0.1852453070 -0.1447901895
-0.0399116016 -0.1103222125 -0.1519605155
-0.0347592127 -0.1578905497 -0.1464819899
-0.0013231866 -0.1605719529 -0.1613496536
0.0026511368 -0.1375804609 -0.1631401934
-0.0371091374 -0.1200219704 -0.1500845390
-0.0372343859 -0.1106194295 -0.1518227415
-0.0345622974 -0.1102028862 -0.1535982564
0.0105480487 -0.1149264202 -0.1672779843
-0.0295219390 -0.1231574846 -0.1536112300
0.0002653821 -0.1380538747 -0.1639344095
-0.0320691775 -0.1101589466 -0.1533685898
-0.0297451381 -0.1109740177 -0.1523025438
0.0301811335 -0.1542408050 -0.1942509078
0.0117630521 -0.1076611355 -0.1980471015
-0.0242321842 -0.1180608120 -0.1568664448
0.0350045516 -0.1480818079 -0.1966931504
0.0225928401 -0.1631966876 -0.1650723996
-0.0298586421 -0.1107780454 -0.1541252676
-0.0195719074 -0.1276889213 -0.1574036067
-0.0274693166 -0.1109074681 -0.1549346280
-0.0321909035 -0.1206362551 -0.1517441676
-0.0100413696 -0.1579660170 -0.1572325683
-0.0269347796 -0.1105522893 -0.1564683174
0.0346960377 -0.1406260703 -0.1842715064
-0.0234882038 -0.1114342323 -0.1579975181
-0.0217086852 -0.1127154927 -0.1592401649
0.0148337239 -0.1698980606 -0.1616783628
-0.0253441382 -0.1132066344 -0.1570697074
-0.0197356907 -0.1131801968 -0.1592908522
-0.0027328323 -0.1233338363 -0.1646239309
-0.0100181446 -0.1630831005 -0.1584326358
-0.0267717257 -0.1483413687 -0.1538157270
0.0124977403 -0.1402961635 -0.1670575912
-0.0346316583 -0.1154804975 -0.1493755033
-0.0174194211 -0.1128031261 -0.1619606498
0.0231478382 -0.1170465127 -0.1737323254
-0.0147189967 -0.1127866202 -0.1636653802
-0.0096339378 -0.1125810290 -0.1624219549
0.0200219007 -0.1412505916 -0.1681159729
0.0229683095 -0.1528791829 -0.1687620312
-0.0098915006 -0.1285242363 -0.1624546027
-0.0098212241 -0.1133968480 -0.1636486286
0.0178071811 -0.1530323981 -0.1666955799
-0.0002652080 -0.1256130979 -0.1654325695
-0.0397667028 -0.1383536160 -0.1449015811
-0.0374846215 -0.1554908189 -0.1442664072
-0.0390342868 -0.1225703860 -0.1494129516
-0.0075839416 -0.1128137796 -0.1636353400
0.0291192476 -0.1080451757 -0.1884179711
-0.0023877234 -0.1131559796 -0.1651194867
0.0129864590 -0.1126349940 -0.1688753311
0.0227590720 -0.1152444939 -0.1722549766
0.0123473551 -0.1382061999 -0.1685895580
0.0156689370 -0.1138667232 -0.1707591117
0.0174452663 -0.1150136750 -0.1714891942
0.0274171864 -0.1151052928 -0.1721726402
-0.0404386730 -0.1405085324 -0.1467021272
0.0279855813 -0.1151524988 -0.1740694875
-0.0329537595 -0.1177941289 -0.1504259251
0.0292728740 -0.1156728239 -0.1744808575
0.0396947577 -0.1236626669 -0.1843412359
0.0314270167 -0.1149328439 -0.1753604784
-0.0331799859 -0.1198686868 -0.1502444832
0.0371037127 -0.1179684374 -0.1821436956
0.0414370901 -0.1265483899 -0.1880308387
0.0106475063 -0.1697818628 -0.1605692112
-0.0202333943 -0.1180161928 -0.1576025396
0.0301443134 -0.1524720490 -0.1945785582
-0.0228371218 -0.1131240294 -0.1575062007
-0.0033629906 -0.1659560563 -0.1575927810
-0.0299335250 -0.1404070358 -0.1513517700
-0.0152524378 -0.1130528639 -0.1620108209
0.0391198912 -0.1378221506 -0.1914223629
-0.0418347294 -0.1779953997 -0.1433202369
-0.0142373147 -0.1375411062 -0.1594296279
0.0421145951 -0.1329232085 -0.1925911221
-0.0124748607 -0.1130316019 -0.1626695336
-0.0094763268 -0.1142503019 -0.1642479702
-0.0438707871 -0.1749256106 -0.1393482013
0.0177265946 -0.1127793454 -0.1702218875
-0.0126386369 -0.1446385980 -0.1570238620
0.0172037614 -0.1205926537 -0.1699466035
-0.0024999410 -0.1146144660 -0.1661315010
-0.0147001434 -0.1153938045 -0.1613402046
-0.0353619979 -0.1454745496 -0.1476881157
0.0174264789 -0.1699901356 -0.1641740178
0.0000076976 -0.1150824724 -0.1663334392
0.0025780028 -0.1154101819 -0.1668948838
-0.0307494798 -0.1544153051 -0.1475680432
-0.0268497207 -0.1853467790 -0.1493430253
0.0048116459 -0.1152574593 -0.1668776554
-0.0101128712 -0.1201137166 -0.1625086071
0.0253105443 -0.1203476563 -0.1733191982
-0.0203491356 -0.1899551377 -0.1490367949
0.0077408276 -0.1158420197 -0.1689197879
-0.0052646794 -0.1404987338 -0.1620737101
0.0097004124 -0.1155212648 -0.1687520309
0.0403182410 -0.1414648644 -0.2032362044
-0.0300274044 -0.1208100785 -0.1543262117
0.0125823847 -0.1155734152 -0.1691875931
-0.0253416368 -0.1630828591 -0.1519719939
0.0150106402 -0.1152970310 -0.1697180386
0.0324097015 -0.1175658502 -0.1773542745
0.0380909086 -0.1182438958 -0.1832742210
0.0374660157 -0.1442905366 -0.1940246820
-0.0394548048 -0.1124222424 -0.1508555054
-0.0246490413 -0.1152571343 -0.1571041484
-0.0122448713 -0.1156000848 -0.1619149109
-0.0124744803 -0.1276588494 -0.1598217637
0.0074279426 -0.1152489431 -0.1673665764
0.0306140177 -0.1453573458 -0.1860984194
0.0104756748 -0.1176379960 -0.1697792207
0.0305083625 -0.1423034846 -0.1748945832
-0.0323931196 -0.1255180073 -0.1517346427
0.0130641380 -0.1178678300 -0.1690417568
-0.0411037751 -0.1345303341 -0.1475700051
0.0177960312 -0.1174597245 -0.1710257622
-0.0129422930 -0.1487044328 -0.1576450444
0.0229122517 -0.1179274595 -0.1719341412
0.0054675639 -0.1702866807 -0.1621474117
0.0271920341 -0.1174113567 -0.1721842147
0.0153564944 -0.1406865833 -0.1684495276
-0.0271428107 -0.1552507925 -0.1514433525
0.0343613714 -0.1183606726 -0.1781067351
-0.0200594398 -0.1475942704 -0.1569937865
0.0008775518 -0.1704506427 -0.1608446240
0.0364353488 -0.1188370574 -0.1800823279
0.0301875471 -0.1355478831 -0.1720962300
-0.0119102613 -0.1282097459 -0.1616487640
-0.0325463475 -0.1138104996 -0.1506449307
-0.0279673571 -0.1139482364 -0.1514849474
0.0323145578 -0.1652957136 -0.1743420326
-0.0228554340 -0.1159028650 -0.1570521731
0.0299346565 -0.1448954529 -0.1824456167
0.0134332487 -0.1207134128 -0.1708198935
0.0004709336 -0.1173065881 -0.1659833421
-0.0280009999 -0.1653989851 -0.1473978708
-0.0412302245 -0.1319200713 -0.1484255837
0.0050690725 -0.1329915347 -0.1663027319
0.0054391436 -0.1180921079 -0.1666155653
-0.0333435297 -0.1492528315 -0.1451443725
-0.0247903029 -0.1654379376 -0.1521744541
0.0150322844 -0.1181528474 -0.1696898324
-0.0370408396 -0.1398759742 -0.1496449995
0.0304089580 -0.1102807596 -0.1919017434
0.0175244119 -0.1382200456 -0.1686586770
0.0177611935 -0.1182631657 -0.1696656933
-0.0295228381 -0.1632717450 -0.1468084157
0.0174391692 -0.1233097613 -0.1698537987
0.0181955006 -0.1161898710 -0.1701056212
-0.0172697716 -0.1179985898 -0.1596023866
0.0324658773 -0.1201915140 -0.1769665008
-0.0322263355 -0.1184305889 -0.1517623281
-0.0148924194 -0.1456208200 -0.1571743403
0.0113664353 -0.1236819401 -0.1711019576
-0.0321099946 -0.1401971079 -0.1510560528
-0.0365604592 -0.1153933133 -0.1509747240
0.0175451850 -0.1604663881 -0.1641945675
0.0156894252 -0.1280273914 -0.1693174640
-0.0290628126 -0.1150481273 -0.1503413801
-0.0221104702 -0.1180288006 -0.1571572534
0.0327186981 -0.1226088939 -0.1764770745
-0.0298558094 -0.1575551086 -0.1497981944
-0.0149056745 -0.1181624511 -0.1601402584
-0.0249286857 -0.1206368397 -0.1555240022
-0.0145301938 -0.1803331791 -0.1537851443
-0.0122920775 -0.1182082489 -0.1616200549
0.0162060801 -0.1069960445 -0.1831931025
0.0050010972 -0.1429855504 -0.1649303488
-0.0096384392 -0.1182550378 -0.1622193207
0.0225910870 -0.1403135881 -0.1690244231
-0.0128079779 -0.1202631568 -0.1602970403
0.0072244859 -0.1179758981 -0.1675606399
-0.0293325381 -0.1453824199 -0.1515571851
0.0098108934 -0.1205403825 -0.1697041519
0.0149981173 -0.1200170277 -0.1699190409
0.0202674567 -0.1201235786 -0.1712980428
0.0047478116 -0.1711364341 -0.1601789972
-0.0422302224 -0.1230417080 -0.1485156938
0.0256350066 -0.1203560594 -0.1723587353
0.0300723582 -0.1606813991 -0.1941689279
0.0018411310 -0.1226612674 -0.1652167520
0.0319937198 -0.1628657256 -0.1716805212
-0.0296201377 -0.1154340754 -0.1545916696
-0.0220509316 -0.1431681198 -0.1541301283
0.0301653030 -0.1428355821 -0.1721824723
-0.0051744334 -0.1751143291 -0.1574413832
0.0058186989 -0.1277111700 -0.1684075332
0.0386418039 -0.1225732471 -0.1811601518
0.0379635803 -0.1402668804 -0.1864337176
-0.0103762467 -0.1453510353 -0.1597545512
0.0350359665 -0.1281130523 -0.1792658379
0.0155317533 -0.1533946880 -0.1661600621
-0.0036762434 -0.1486383975 -0.1576143354
0.0353394257 -0.1255091444 -0.1793607024
-0.0325278005 -0.1631359029 -0.1502460186
0.0004044661 -0.1351717196 -0.1620122211
-0.0075050477 -0.1287252308 -0.1621981495
-0.0394761420 -0.1161590242 -0.1492622634
0.0350443218 -0.1303681010 -0.1776138676
-0.0301668782 -0.1160103722 -0.1518196184
-0.0052970133 -0.1206171593 -0.1647450068
-0.0101564536 -0.1262820214 -0.1629496962
-0.0400262744 -0.1255449817 -0.1484635778
0.0253756358 -0.1230887990 -0.1724100550
0.0020232621 -0.1205912165 -0.1653528789
0.0071832603 -0.1203031536 -0.1671361566
0.0349203219 -0.1227207576 -0.1771110546
-0.0395118858 -0.1181624826 -0.1488266738
-0.0248199403 -0.1202627580 -0.1572659723
-0.0127168388 -0.1431743229 -0.1589522854
0.0002964054 -0.1405995524 -0.1618114484
-0.0148847221 -0.1211398750 -0.1598736344
0.0269414950 -0.1077647731 -0.1931193173
-0.0226132739 -0.1796511859 -0.1517907530
-0.0127545295 -0.1207382362 -0.1616534696
0.0276557117 -0.1352821136 -0.1716143476
-0.0092029842 -0.1211210920 -0.1636417888
0.0075495353 -0.1223635098 -0.1684854088
-0.0039241318 -0.1649511122 -0.1590422414
0.0122494687 -0.1230764514 -0.1708805966
0.0206196891 -0.1230519353 -0.1710019395
0.0283139980 -0.1234789273 -0.1740917312
0.0302162997 -0.1231196036 -0.1747244341
0.0302778899 -0.1428700163 -0.1786736617
0.0387795079 -0.1254282755 -0.1837891211
-0.0327607347 -0.1652130918 -0.1490740548
0.0396559751 -0.1258026320 -0.1852047772
0.0421756937 -0.1277166028 -0.1896949766
0.0427141764 -0.1283555299 -0.1919904600
-0.0439430661 -0.1796959043 -0.1431537867
-0.0418478791 -0.1725821736 -0.1416224411
-0.0029549700 -0.1407608603 -0.1617824105
-0.0350219479 -0.1202129094 -0.1502341014
-0.0145228025 -0.1845732122 -0.1537747325
-0.0272282171 -0.1205725975 -0.1538649130
-0.0389593582 -0.1556804403 -0.1437255175
-0.0095538799 -0.1231742849 -0.1640848107
0.0027498391 -0.1228373290 -0.1665695757
0.0072828716 -0.1233455954 -0.1676164357
-0.0361616947 -0.1249537021 -0.1507884711
0.0220862683 -0.1234008494 -0.1698803957
0.0308629563 -0.1550774230 -0.1999623044
0.0324983426 -0.1258934859 -0.1770841087
0.0258925344 -0.1448282375 -0.1710546925
-0.0273433048 -0.1157254390 -0.1566508524
0.0266082459 -0.1496068848 -0.1683832354
0.0392234079 -0.1264744494 -0.1825367540
0.0328619192 -0.1326533256 -0.1770466226
0.0418957654 -0.1282661670 -0.1865798607
0.0026582761 -0.1580592754 -0.1619595124
-0.0396607087 -0.1208031625 -0.1492059447
-0.0250805013 -0.1829526945 -0.1496500183
0.0029025120 -0.1354747410 -0.1646287220
-0.0199560586 -0.1788768678 -0.1503352871
-0.0341017446 -0.1210348856 -0.1511361116
-0.0375490956 -0.1277680541 -0.1490101112
-0.0254404268 -0.1223941741 -0.1550226197
-0.0346238650 -0.1176738888 -0.1504497379
0.0002704407 -0.1326848166 -0.1644333243
-0.0243813467 -0.1229677185 -0.1568324882
0.0307149525 -0.1433495499 -0.1845403525
-0.0023427708 -0.1355384511 -0.1620177633
-0.0161625224 -0.1860450563 -0.1531663720
0.0200294095 -0.1373439121 -0.1688674511
0.0096531228 -0.1725543761 -0.1619170462
-0.0221718804 -0.1231120453 -0.1571402094
-0.0351060860 -0.1486336490 -0.1444702927
-0.0117585557 -0.1700239342 -0.1559147590
-0.0193996843 -0.1236148859 -0.1585687938
-0.0344238393 -0.1249089092 -0.1508604437
-0.0395673942 -0.1426429003 -0.1446740218
-0.0175351989 -0.1228451781 -0.1589572432
-0.0097820002 -0.1655519643 -0.1574602534
-0.0167768282 -0.1225729993 -0.1581373958
-0.0150178150 -0.1228464732 -0.1592514678
-0.0132530204 -0.1231168543 -0.1603565185
0.0319207190 -0.1483349702 -0.1887422375
0.0377346359 -0.1380523371 -0.1873021487
0.0075177411 -0.1451514311 -0.1643051989
-0.0119525834 -0.1239804319 -0.1634294240
-0.0073708925 -0.1253487258 -0.1644602623
0.0050687019 -0.1253175254 -0.1668803035
-0.0344225978 -0.1507434143 -0.1449943581
-0.0195880700 -0.1507876515 -0.1538310697
0.0102235630 -0.1279429362 -0.1695800625
-0.0200763073 -0.1258368225 -0.1573921118
0.0069246861 -0.1249907628 -0.1671878954
0.0096094483 -0.1255530741 -0.1693831969
0.0115065909 -0.1257340295 -0.1702185442
-0.0072439320 -0.1639200598 -0.1580360979
-0.0301654879 -0.1457573523 -0.1502307405
0.0032016746 -0.1446836639 -0.1634516345
0.0123728897 -0.1254696732 -0.1709538401
0.0154151769 -0.1252039685 -0.1699212689
0.0410235007 -0.1333447020 -0.1914242246
0.0197859712 -0.1255148585 -0.1721497340
-0.0202407654 -0.1350583436 -0.1565553464
0.0228573574 -0.1256605120 -0.1716771258
0.0222390762 -0.1257864578 -0.1733563528
-0.0212068651 -0.1370860636 -0.1590593606
0.0251931644 -0.1257853674 -0.1722878978
0.0073135114 -0.1578511928 -0.1619500320
-0.0299387808 -0.1312377651 -0.1527980832
0.0279580227 -0.1255301035 -0.1723026560
0.0370732607 -0.1279372397 -0.1795763613
0.0384290517 -0.1279824641 -0.1814161521
0.0399787943 -0.1276190691 -0.1824492035
0.0414169602 -0.1282747424 -0.1841002719
-0.0427560098 -0.1116201580 -0.1483639330
0.0425094887 -0.1303291443 -0.1896072919
-0.0136267701 -0.1742507666 -0.1557614356
-0.0373991311 -0.1227382517 -0.1495280029
0.0306933749 -0.1585074783 -0.1810738510
-0.0202453282 -0.1426653027 -0.1546553403
-0.0331427184 -0.1226163313 -0.1494104222
-0.0076543957 -0.1088914573 -0.1667268798
-0.0094323251 -0.1255583434 -0.1638975426
0.0154896528 -0.1327545805 -0.1698427417
-0.0324981466 -0.1232869191 -0.1519924022
-0.0271404564 -0.1232007708 -0.1543764773
-0.0171078642 -0.1247762112 -0.1592989087
0.0364026017 -0.1503862888 -0.2028863281
0.0275583251 -0.1330742876 -0.1702190065
0.0077484266 -0.1305442739 -0.1686044312
-0.0150720694 -0.1254667065 -0.1597018328
-0.0246757362 -0.1827912778 -0.1512554288
0.0389658377 -0.1454231009 -0.2058837463
-0.0132039569 -0.1244183973 -0.1599758849
-0.0121780033 -0.1256486169 -0.1619849967
0.0293559926 -0.1531910727 -0.1890104290
0.0380672504 -0.1364349464 -0.1868452225
-0.0051539295 -0.1258967302 -0.1644030588
0.0200106147 -0.1655282227 -0.1640594110
-0.0020617268 -0.1253665160 -0.1644014135
-0.0404007475 -0.1671724809 -0.1428455347
0.0004957879 -0.1262753772 -0.1683466427
-0.0296602124 -0.1802733995 -0.1492520177
0.0028524172 -0.1263585970 -0.1682916380
-0.0197122839 -0.1780884082 -0.1517136123
-0.0196778707 -0.1300965662 -0.1575172724
-0.0296162949 -0.1448211268 -0.1538011822
0.0018521921 -0.1137593463 -0.1647495180
0.0057675677 -0.1264089844 -0.1687940247
0.0129727238 -0.1276232289 -0.1713232099
0.0078201196 -0.1351533313 -0.1671745886
0.0175267042 -0.1276182770 -0.1710595551
0.0252767487 -0.1281987783 -0.1719147350
0.0179550638 -0.1478712825 -0.1667351642
0.0327522196 -0.1444853395 -0.1765580475
-0.0391232848 -0.1404728916 -0.1482152900
0.0281811835 -0.1278059510 -0.1741474529
0.0313693315 -0.1277149531 -0.1761875025
0.0142513446 -0.1585206415 -0.1628292805
0.0324951572 -0.1283083693 -0.1766901585
-0.0369111188 -0.1192536429 -0.1507609487
-0.0150183006 -0.1305541103 -0.1596376056
-0.0124122212 -0.1326614395 -0.1623684019
-0.0074394695 -0.1408964511 -0.1619747860
-0.0172664133 -0.1278780898 -0.1591376451
0.0420908760 -0.1333240790 -0.1964127526
-0.0073316030 -0.1133924462 -0.1626193523
-0.0394500816 -0.1234784471 -0.1476778908
-0.0273570710 -0.1252277944 -0.1541237871
0.0142833227 -0.1072672829 -0.2029057890
-0.0144489938 -0.1775975972 -0.1560998410
0.0171766512 -0.1510658586 -0.1654130971
-0.0219016524 -0.1255244419 -0.1565627226
-0.0048660267 -0.1405967176 -0.1644573100
-0.0295518574 -0.1282144838 -0.1541497594
-0.0189356316 -0.1253749856 -0.1583523669
-0.0111872097 -0.1270389864 -0.1641911268
-0.0096711074 -0.1275248820 -0.1635793512
0.0270684604 -0.1695468649 -0.1677605212
-0.0073363397 -0.1272785248 -0.1642481331
-0.0024940999 -0.1275797168 -0.1646393330
0.0002209867 -0.1278317849 -0.1650137677
0.0028704190 -0.1277929231 -0.1668409947
-0.0417232064 -0.1452922542 -0.1439270824
0.0400100370 -0.1431425306 -0.2036836103
0.0069511442 -0.1731223623 -0.1605399570
0.0056001903 -0.1279735158 -0.1672852914
-0.0249087364 -0.1499522452 -0.1545045525
0.0275727333 -0.1284772609 -0.1723332775
0.0329953125 -0.1299031466 -0.1770302797
0.0366473447 -0.1328231152 -0.1803923814
0.0375255826 -0.1301967703 -0.1796973406
-0.0179831963 -0.1590024754 -0.1548227817
0.0419862968 -0.1354982381 -0.1962479789
-0.0373743090 -0.1255480731 -0.1492763431
-0.0319828229 -0.1499181257 -0.1494757258
-0.0346677644 -0.1253818374 -0.1501207820
-0.0187155474 -0.1640395373 -0.1558887213
-0.0431700684 -0.1316962242 -0.1439661831
-0.0297103439 -0.1258346971 -0.1523762678
-0.0218344663 -0.1779132251 -0.1494850245
-0.0224060421 -0.1262326129 -0.1555357006
0.0275478216 -0.1659836459 -0.1654836959
-0.0096928291 -0.1708105019 -0.1567108277
-0.0171734208 -0.1267294128 -0.1577769128
0.0280571450 -0.1188585386 -0.1757729352
0.0075693250 -0.1288954203 -0.1678423179
0.0126102978 -0.1304990992 -0.1713801949
0.0076428420 -0.1378744906 -0.1669260181
0.0088621127 -0.1502473181 -0.1632038611
0.0151476314 -0.1303058182 -0.1710644257
0.0174457967 -0.1302432610 -0.1711517385
0.0202329410 -0.1303929702 -0.1712197216
0.0175017510 -0.1487265974 -0.1655917913
0.0226410699 -0.1298808959 -0.1709752390
-0.0006908030 -0.1613049358 -0.1603540182
0.0106248940 -0.1325143638 -0.1691940102
0.0249474678 -0.1289726081 -0.1702393577
0.0197018840 -0.1376760626 -0.1680464859
0.0277838992 -0.1302283435 -0.1721234460
0.0296624725 -0.1302743434 -0.1727902581
0.0224180393 -0.1504482923 -0.1690490471
-0.0362399509 -0.1825456799 -0.1442251779
0.0300607221 -0.1302082343 -0.1742437507
0.0318020655 -0.1303252749 -0.1749686589
0.0223965516 -0.1378481200 -0.1691980179
0.0379432115 -0.1325236319 -0.1819621647
0.0416311196 -0.1353583517 -0.1933113291
-0.0345594295 -0.1275714656 -0.1512144632
-0.0220904647 -0.1576138809 -0.1538530489
-0.0325238450 -0.1277693546 -0.1517132747
0.0197055203 -0.1441212835 -0.1680682071
-0.0304496960 -0.1281955477 -0.1523040572
-0.0263790177 -0.1279307468 -0.1559365182
0.0029252178 -0.1428591538 -0.1644017158
-0.0050609324 -0.1352960956 -0.1616199917
0.0348904108 -0.1332217666 -0.1794567030
-0.0153897787 -0.1090964973 -0.1670597792
-0.0316594106 -0.1528600964 -0.1494465751
-0.0245863395 -0.1281260867 -0.1559384739
-0.0194900081 -0.1728704359 -0.1536916874
-0.0222896274 -0.1279254755 -0.1561320989
0.0026704773 -0.1330494177 -0.1647610349
-0.0027056781 -0.1302817987 -0.1643035557
-0.0370965879 -0.1803519950 -0.1441687322
-0.0452378467 -0.1399831176 -0.1444380507
-0.0344824532 -0.1331127924 -0.1512514135
0.0275149150 -0.1678903263 -0.1669827771
-0.0005844702 -0.1304276578 -0.1648799737
-0.0217608418 -0.1502822333 -0.1543326559
0.0340225287 -0.1262099296 -0.1776851267
0.0004141079 -0.1305899628 -0.1666783004
-0.0431702155 -0.1704106666 -0.1399190131
0.0026368965 -0.1307713478 -0.1665746071
0.0204817373 -0.1257243976 -0.1696348041
0.0103260468 -0.1312031484 -0.1710606859
-0.0471807830 -0.1577864438 -0.1418406516
0.0311073536 -0.1318743019 -0.1758824239
-0.0175298365 -0.1659140715 -0.1545897463
0.0045050983 -0.1330000460 -0.1651134839
-0.0268575978 -0.1131926961 -0.1577653289
0.0382989891 -0.1338520703 -0.1832198647
0.0150558097 -0.1582466875 -0.1646417102
-0.0148195135 -0.1406277093 -0.1587604916
0.0365243815 -0.1476327926 -0.1993258744
0.0381793160 -0.1351392363 -0.1850322610
0.0402140405 -0.1356216013 -0.1892042003
-0.0286960452 -0.1403109752 -0.1536435885
-0.0341021312 -0.1785670072 -0.1464728511
-0.0429305282 -0.1793837753 -0.1391174701
0.0399243759 -0.1381843645 -0.1950669558
0.0411384361 -0.1382471390 -0.1978362266
-0.0400010191 -0.1281684224 -0.1483667909
-0.0253400015 -0.1284264227 -0.1552774378
0.0330572022 -0.1652395342 -0.1793615120
-0.0077356154 -0.1802609288 -0.1553591265
-0.0475580133 -0.1726867035 -0.1388850138
-0.0175978792 -0.1305238575 -0.1589690138
-0.0097423486 -0.1305695549 -0.1596146830
-0.0269932542 -0.1182523742 -0.1580660939
-0.0070690467 -0.1303863274 -0.1622016939
0.0077350222 -0.1310863908 -0.1671811361
0.0226948517 -0.1454030555 -0.1691770312
0.0126628135 -0.1327648780 -0.1702578989
0.0166865906 -0.1322532241 -0.1706674671
0.0223805445 -0.1328171960 -0.1699335010
0.0279094638 -0.1578005722 -0.1689158437
-0.0337974829 -0.1751114885 -0.1458066412
0.0249358545 -0.1327597539 -0.1703321515
-0.0121217929 -0.1678254870 -0.1566460932
0.0343647427 -0.1353558091 -0.1790325892
0.0354991800 -0.1356879569 -0.1809945112
0.0369109959 -0.1358467914 -0.1825024727
0.0308912974 -0.1203890890 -0.1790714934
0.0389726746 -0.1368390594 -0.1882579523
0.0394863559 -0.1397888840 -0.1977630287
-0.0371849594 -0.1303211105 -0.1497560478
-0.0347749256 -0.1303883046 -0.1499730796
-0.0320028936 -0.1306724911 -0.1520874134
-0.0300412644 -0.1304414226 -0.1543125284
0.0342794193 -0.1675328519 -0.1777441838
-0.0250955685 -0.1307422107 -0.1559041140
0.0299469515 -0.1654757500 -0.1692309979
-0.0145477993 -0.1317280562 -0.1603900675
0.0076034175 -0.1550439497 -0.1637037943
0.0334087304 -0.1508004010 -0.1986094445
-0.0069751085 -0.1324450925 -0.1613950745
0.0073229750 -0.1527703553 -0.1628484130
-0.0050524164 -0.1326357669 -0.1622509629
-0.0447805300 -0.1678943336 -0.1392092481
0.0102389552 -0.1330719084 -0.1668630977
-0.0391916330 -0.1829729922 -0.1444162992
0.0133638313 -0.1338241876 -0.1706891014
0.0320285481 -0.1335927791 -0.1746391344
-0.0281961802 -0.1677720398 -0.1469630102
0.0357754549 -0.1479457119 -0.2013680548
0.0329100401 -0.1352037802 -0.1772269978
-0.0141211098 -0.1828921446 -0.1536312363
-0.0216388286 -0.1406183669 -0.1560790565
-0.0191545356 -0.1656937599 -0.1561011523
0.0374744266 -0.1379322141 -0.1844726272
-0.0023445899 -0.1356576979 -0.1641825736
0.0123949135 -0.1170813367 -0.1677319854
0.0379770752 -0.1402161545 -0.1918317008
0.0319584385 -0.1611836776 -0.1996287778
-0.0404363214 -0.1306263095 -0.1473825368
-0.0070158349 -0.1607830673 -0.1590062728
-0.0394245521 -0.1308062076 -0.1488122336
0.0307587999 -0.1478902208 -0.1869903118
-0.0323053679 -0.1506064591 -0.1469826660
-0.0293696731 -0.1325032289 -0.1540858084
-0.0267525345 -0.1324953349 -0.1566560330
-0.0424618013 -0.1504057348 -0.1418631176
-0.0393857770 -0.1405541822 -0.1450060382
-0.0221089135 -0.1327820979 -0.1551963372
0.0175062331 -0.1458540326 -0.1670804145
-0.0198690700 -0.1325766727 -0.1566810494
-0.0196829763 -0.1334594545 -0.1588475109
0.0307586738 -0.1438604404 -0.1773771058
-0.0177218363 -0.1330694355 -0.1593599060
0.0375806851 -0.1426320321 -0.1916542247
-0.0127644978 -0.1329358060 -0.1599137170
0.0051462506 -0.1651265621 -0.1635234058
-0.0075841918 -0.1332795572 -0.1594665745
0.0340825655 -0.1655051857 -0.1720369533
0.0005654355 -0.1330996656 -0.1622295846
-0.0272004447 -0.1410200382 -0.1538227759
-0.0096854726 -0.1087477505 -0.1660440862
-0.0219718311 -0.1527801454 -0.1534080207
0.0104250860 -0.1352978658 -0.1689268866
0.0207553152 -0.1238351017 -0.1680200249
0.0154561455 -0.1453881814 -0.1661126325
-0.0124034796 -0.1403236160 -0.1591826146
0.0224236322 -0.1353067995 -0.1702059878
0.0234013721 -0.1356406217 -0.1711861697
0.0249148571 -0.1350925597 -0.1716489127
0.0306860838 -0.1354031099 -0.1739820318
0.0312762256 -0.1367561244 -0.1778112674
-0.0199153688 -0.1602608876 -0.1546463955
0.0330057910 -0.1380993384 -0.1822348297
-0.0473165847 -0.1780090282 -0.1397600571
0.0351634560 -0.1386381882 -0.1842106807
-0.0194176416 -0.1578306776 -0.1543450451
-0.0368702087 -0.1354219761 -0.1489843858
0.0373845840 -0.1408569236 -0.1888012141
0.0377053283 -0.1416902267 -0.1940735420
0.0384791944 -0.1434077391 -0.1995339869
0.0102577273 -0.1405631660 -0.1671116644
-0.0242408533 -0.1348858476 -0.1563793868
0.0385561103 -0.1452576107 -0.2029230525
-0.0322349095 -0.1331888836 -0.1518098160
0.0223203371 -0.1655123765 -0.1649889497
0.0247875540 -0.1651587386 -0.1652814918
-0.0301285560 -0.1330688956 -0.1526352593
-0.0254867727 -0.1333810189 -0.1547029221
-0.0172573566 -0.1352076952 -0.1597272819
0.0278521678 -0.1602273087 -0.1689562285
-0.0149347666 -0.1352659140 -0.1601402084
-0.0356338034 -0.1598871257 -0.1453084460
-0.0075445573 -0.1355602464 -0.1616792192
-0.0172212943 -0.1702294955 -0.1543121264
0.0047827014 -0.1358228575 -0.1644103575
0.0301709013 -0.1376978523 -0.1703086752
0.0369782170 -0.1487072813 -0.2061923261
0.0272942232 -0.1457886682 -0.1698327395
0.0098683413 -0.1358984308 -0.1669621854
-0.0177440873 -0.1680114319 -0.1544672677
0.0019253439 -0.1433319626 -0.1630128062
-0.0431925543 -0.1095891595 -0.1565277725
0.0249612694 -0.1360159573 -0.1702261288
0.0272410476 -0.1359213828 -0.1702535522
0.0301304059 -0.1358866650 -0.1705503024
0.0309203163 -0.1383534419 -0.1782518480
-0.0025355159 -0.1382249367 -0.1621605767
0.0328990309 -0.1403929364 -0.1823738419
0.0338241123 -0.1494519564 -0.1942127631
0.0373842586 -0.1433428082 -0.1945110791
0.0376809478 -0.1448720612 -0.1992593248
0.0390299967 -0.1468170593 -0.2054343931
-0.0411678054 -0.1332260682 -0.1480002749
-0.0449062601 -0.1780504371 -0.1415500681
0.0127055278 -0.1425350516 -0.1651279775
-0.0397187057 -0.1330749923 -0.1470266517
0.0096064187 -0.1428339785 -0.1651115347
-0.0420216341 -0.1276203506 -0.1470961235
-0.0272052815 -0.1352788509 -0.1540344144
-0.0249323131 -0.1725980881 -0.1516013887
-0.0243401374 -0.1353688703 -0.1548102522
-0.0268008802 -0.1655003944 -0.1509821193
0.0316193362 -0.1612907849 -0.1968340967
-0.0153596648 -0.1754440266 -0.1543983341
0.0300006730 -0.1501006467 -0.1846392884
-0.0347394279 -0.1353442832 -0.1509507816
-0.0220070141 -0.1347650084 -0.1554117076
-0.0197573438 -0.1356025833 -0.1588957950
-0.0194558663 -0.1390454070 -0.1556342322
0.0030847856 -0.1360011594 -0.1627480191
0.0056421980 -0.1373443715 -0.1650201787
0.0110911240 -0.1374076564 -0.1681644094
0.0149388236 -0.1378611580 -0.1685981659
0.0305921775 -0.1400874515 -0.1769002151
0.0178555856 -0.1404074027 -0.1685615132
0.0309014644 -0.1608525913 -0.1872947755
-0.0308364997 -0.1531314791 -0.1480694737
0.0027551392 -0.1381772109 -0.1644138490
0.0310086886 -0.1406874681 -0.1809699953
0.0356564471 -0.1457536363 -0.1943624762
0.0363294190 -0.1460932547 -0.1964266514
0.0367275985 -0.1476749722 -0.2030195287
-0.0223451052 -0.1358846794 -0.1568668286
-0.0194664387 -0.1375819105 -0.1587614313
-0.0173244509 -0.1378691986 -0.1593720635
-0.0125931695 -0.1379227922 -0.1595271139
-0.0347781425 -0.1605047867 -0.1465699332
0.0245365683 -0.1507704026 -0.1692351626
-0.0222615469 -0.1726504413 -0.1532245854
-0.0079536807 -0.1367891647 -0.1592153048
-0.0075230975 -0.1382351281 -0.1616214099
0.0277305634 -0.1380688659 -0.1710340491
0.0129579183 -0.1482150483 -0.1641716948
0.0298246076 -0.1404238244 -0.1734791841
0.0302134933 -0.1415649586 -0.1791108443
0.0154517302 -0.1073857248 -0.1908129454
0.0345925268 -0.1453799337 -0.1895414710
-0.0075270593 -0.1449653801 -0.1610826184
0.0302482018 -0.1426101664 -0.1822532014
0.0328312286 -0.1451712388 -0.1864717519
0.0324123565 -0.1431691003 -0.1842443593
0.0333026509 -0.1436000093 -0.1856667142
-0.0320800983 -0.1375409018 -0.1516879938
0.0327247052 -0.1517650006 -0.1963385594
-0.0321058148 -0.1730777388 -0.1458961628
-0.0298213483 -0.1377909121 -0.1522025079
0.0044308852 -0.1402913715 -0.1650552194
-0.0264890546 -0.1379813025 -0.1535579834
-0.0245520752 -0.1376985293 -0.1541073090
0.0032731951 -0.1397922028 -0.1644762182
0.0227259391 -0.1431505416 -0.1694620540
0.0050243123 -0.1403847835 -0.1664884736
0.0075098816 -0.1405567649 -0.1668554708
-0.0197788086 -0.1465926692 -0.1530788317
0.0245001799 -0.1406402878 -0.1694472671
0.0076111611 -0.1632908607 -0.1605568366
0.0224854424 -0.1557039845 -0.1673117125
0.0250550428 -0.1402827380 -0.1708737346
0.0306718815 -0.1532527506 -0.1968708783
0.0271784166 -0.1404277469 -0.1709738537
0.0335233974 -0.1457659190 -0.1883253157
0.0224677231 -0.1606171280 -0.1651100144
0.0353159768 -0.1468475376 -0.1912076708
-0.0441993997 -0.1234873831 -0.1474003643
-0.0389314598 -0.1383752409 -0.1485151317
0.0350939408 -0.1379791126 -0.1812421158
-0.0366375656 -0.1377662276 -0.1492257893
-0.0342417208 -0.1376673380 -0.1497270173
0.0116226682 -0.1077424735 -0.2048707604
-0.0152845777 -0.1399443562 -0.1577998040
-0.0104042266 -0.1408184007 -0.1602425768
0.0177812534 -0.1406179035 -0.1677257305
0.0216981609 -0.1410844693 -0.1678818542
0.0101236885 -0.1510473200 -0.1636130209
0.0280339902 -0.1428803890 -0.1712943782
0.0296917436 -0.1413423510 -0.1705082966
0.0300310426 -0.1466236992 -0.1853628424
0.0122333636 -0.1632327715 -0.1619956428
-0.0242308933 -0.1466495958 -0.1557043145
0.0348801549 -0.1526912091 -0.2043507181
-0.0423753249 -0.1604410827 -0.1425691126
-0.0345367702 -0.1404833803 -0.1493873937
-0.0226618646 -0.1409473377 -0.1544324302
-0.0369863001 -0.1658548911 -0.1464340736
-0.0171172709 -0.1404353858 -0.1583885521
-0.0074189021 -0.1428888804 -0.1617737617
-0.0052797861 -0.1429616184 -0.1621395428
-0.0023783524 -0.1429526851 -0.1614896379
-0.0468629636 -0.1616546214 -0.1402300596
-0.0247622692 -0.1857192591 -0.1492004733
0.0005372369 -0.1430406193 -0.1619610824
-0.0325498985 -0.1657131407 -0.1469619644
-0.0414827020 -0.1686517354 -0.1431973625
-0.0398411536 -0.1726225954 -0.1422379717
0.0072685116 -0.1428132513 -0.1660110459
0.0099037395 -0.1431017947 -0.1662337624
0.0155419988 -0.1426752337 -0.1666008686
0.0175908490 -0.1431389755 -0.1675709001
-0.0401341774 -0.1478494953 -0.1442709591
0.0071989547 -0.1505859425 -0.1625315624
-0.0304060858 -0.1179671623 -0.1542919055
0.0252037905 -0.1434769075 -0.1712066233
-0.0175388244 -0.1731726910 -0.1539332224
0.0300428774 -0.1550929099 -0.1870320067
0.0303652568 -0.1449499783 -0.1748076022
0.0304346617 -0.1477448584 -0.1818996093
-0.0498351194 -0.1783844382 -0.1387822777
0.0325279639 -0.1531650532 -0.2003593301
0.0055334200 -0.1634789854 -0.1632653922
0.0333646713 -0.1550076371 -0.2058161988
-0.0370787037 -0.1403704106 -0.1471229368
-0.0245957205 -0.1431532543 -0.1537908227
-0.0147130474 -0.1427306652 -0.1571579012
0.0115767950 -0.1077768877 -0.2117213160
0.0180219766 -0.1448362314 -0.1683644550
-0.0123151917 -0.1705611308 -0.1552650602
0.0250136987 -0.1456526994 -0.1692916880
-0.0029226991 -0.1634830534 -0.1578890085
0.0283830735 -0.1451003775 -0.1712672109
-0.0100029122 -0.1602809309 -0.1577416678
0.0297868232 -0.1449811558 -0.1720266403
-0.0002622009 -0.1234693974 -0.1690212786
0.0303579972 -0.1507027229 -0.1890853310
-0.0047416719 -0.1672238998 -0.1567443926
0.0302186999 -0.1528038264 -0.1919750121
0.0314511127 -0.1530051940 -0.1952996409
0.0314426465 -0.1555144427 -0.2024715468
0.0329449806 -0.1554788802 -0.2044178828
-0.0413588615 -0.1413209410 -0.1460872703
-0.0121043837 -0.1730686783 -0.1548194458
-0.0393105384 -0.1425731065 -0.1479005853
-0.0363984471 -0.1427195893 -0.1488049702
0.0302416528 -0.1608775604 -0.1991227719
-0.0346838952 -0.1428169294 -0.1489273561
-0.0323958372 -0.1426073352 -0.1495450867
-0.0274886059 -0.1429409417 -0.1521528262
-0.0272855640 -0.1436478930 -0.1533438718
-0.0133052830 -0.1438879739 -0.1580111114
-0.0149180200 -0.1650348344 -0.1565407924
-0.0097323152 -0.1452010515 -0.1614994372
-0.0049698655 -0.1450001170 -0.1614607076
0.0055402587 -0.1729109968 -0.1617412111
0.0000782538 -0.1439620281 -0.1603945514
0.0024255573 -0.1455033406 -0.1622330307
0.0053768316 -0.1451847827 -0.1636924259
0.0100332952 -0.1451510736 -0.1642388018
0.0127138722 -0.1453821509 -0.1645982257
0.0295722335 -0.1555780518 -0.1967571754
0.0302413055 -0.1578290888 -0.2022706860
0.0312685171 -0.1606512153 -0.1828301808
0.0321402312 -0.1580308034 -0.2048220216
-0.0416734463 -0.1435269292 -0.1467395442
-0.0372621785 -0.1430643022 -0.1466994005
-0.0270526916 -0.1452985531 -0.1541961966
-0.0023099413 -0.1505153659 -0.1594998905
-0.0220075804 -0.1445810941 -0.1546792289
-0.0372248180 -0.1550702825 -0.1466089264
-0.0196276435 -0.1453342301 -0.1569202383
-0.0118278295 -0.1452118337 -0.1595532796
-0.0072518831 -0.1462401557 -0.1599266537
-0.0451402713 -0.1797940740 -0.1395419931
0.0001497984 -0.1452407296 -0.1599392134
0.0000795017 -0.1453589901 -0.1617594563
0.0075725364 -0.1461665096 -0.1625271291
0.0103666522 -0.1463168514 -0.1626721123
0.0149280844 -0.1459735339 -0.1649772595
-0.0275976006 -0.1248484924 -0.1561341435
0.0200742603 -0.1479227585 -0.1675209631
-0.0148475083 -0.1677834789 -0.1559485843
0.0199688889 -0.1481672815 -0.1686483721
0.0142755414 -0.1604114144 -0.1625148218
0.0225886361 -0.1480973966 -0.1692730455
0.0252276460 -0.1477920974 -0.1694345595
0.0294919790 -0.1555255030 -0.1917955269
0.0313815132 -0.1618349400 -0.1859369364
0.0294730234 -0.1580357429 -0.1987160743
0.0307473083 -0.1580693005 -0.2033742058
-0.0245721255 -0.1802781644 -0.1489186498
0.0318216323 -0.1594080096 -0.2046401406
-0.0021207963 -0.1653224754 -0.1593945046
-0.0397767098 -0.1444068508 -0.1467849616
0.0391049273 -0.1427520961 -0.1941557527
-0.0365793092 -0.1448171920 -0.1484824188
-0.0272243423 -0.1457626667 -0.1517090681
-0.0259792064 -0.1467546281 -0.1556963531
-0.0224861086 -0.1465417804 -0.1557034992
-0.0041468744 -0.1183740869 -0.1656899005
-0.0212550373 -0.1473932004 -0.1562326580
-0.0175547636 -0.1478786738 -0.1563838548
-0.0149066400 -0.1478469906 -0.1569656904
-0.0119758235 -0.1476511806 -0.1592990608
-0.0097627184 -0.1477302925 -0.1595656839
0.0004443976 -0.1478117645 -0.1612646483
0.0024717164 -0.1482676090 -0.1623430720
-0.0246898824 -0.1251850401 -0.1560329099
0.0041198173 -0.1484850131 -0.1635591218
-0.0442574363 -0.1653387983 -0.1422124829
0.0059205355 -0.1480917572 -0.1624481215
0.0074917011 -0.1475284345 -0.1634896843
0.0107734036 -0.1480930847 -0.1632843776
0.0325298868 -0.1489197761 -0.1935398281
0.0120456113 -0.1481219636 -0.1624416473
0.0157941456 -0.1483667855 -0.1657306998
0.0168905880 -0.1613670359 -0.1630614606
0.0046378528 -0.1089598686 -0.1677930430
0.0288623307 -0.1557011285 -0.1895661724
0.0305761180 -0.1602180979 -0.2017892487
-0.0317821769 -0.1476429714 -0.1510209396
-0.0250277949 -0.1480037349 -0.1552259733
0.0046959219 -0.1552267622 -0.1618960292
-0.0320456721 -0.1580187405 -0.1491645401
-0.0221396725 -0.1485185579 -0.1547022794
0.0074850710 -0.1483964983 -0.1625735353
-0.0276531051 -0.1724489948 -0.1480179521
0.0153874401 -0.1494314793 -0.1660436264
0.0178453219 -0.1500314819 -0.1661571490
-0.0222933237 -0.1480507553 -0.1525830775
0.0197605283 -0.1508448976 -0.1671240121
0.0203310333 -0.1500320687 -0.1685079647
0.0285355360 -0.1573816096 -0.1899263082
0.0291470259 -0.1583523961 -0.1919181088
0.0288384906 -0.1594590179 -0.1961013433
0.0276475776 -0.1538932941 -0.1683776618
0.0037459133 -0.1507394903 -0.1636598059
-0.0368211103 -0.1478380643 -0.1464004816
-0.0347476474 -0.1474351596 -0.1469242142
-0.0343387668 -0.1486571367 -0.1493006713
-0.0176806174 -0.1478601629 -0.1547094413
0.0224531808 -0.1309588403 -0.1701618930
-0.0148592987 -0.1505389621 -0.1574800707
0.0326558462 -0.1653367479 -0.1773708350
-0.0321255438 -0.1800050768 -0.1488248528
-0.0125607892 -0.1503626339 -0.1578102466
-0.0095472327 -0.1506550632 -0.1591535513
-0.0069803806 -0.1502442793 -0.1592155573
-0.0050112248 -0.1504362475 -0.1599980108
-0.0013416916 -0.1508547683 -0.1611073838
0.0003885109 -0.1509043356 -0.1617040157
0.0322888384 -0.1631686658 -0.1816664267
0.0054978022 -0.1506181932 -0.1621481588
0.0298984725 -0.1580019255 -0.1866590307
0.0298527326 -0.1606149786 -0.1922582585
0.0329820177 -0.1674000680 -0.1771853442
0.0299812409 -0.1606619030 -0.1968797298
-0.0376175247 -0.1479160288 -0.1449216148
-0.0297819728 -0.1505479602 -0.1494818969
-0.0298708225 -0.1503407961 -0.1526538993
-0.0216060868 -0.1509562323 -0.1558065015
-0.0396301321 -0.1602827784 -0.1443251288
-0.0044895514 -0.1516335231 -0.1606764774
0.0002318921 -0.1528102929 -0.1618251706
-0.0373127413 -0.1730564061 -0.1450030102
0.0187493606 -0.1595008160 -0.1661326719
0.0245763479 -0.1681266079 -0.1662781338
0.0030076508 -0.1526504958 -0.1631964354
0.0077877948 -0.1528785072 -0.1635410153
0.0124590700 -0.1553523345 -0.1642965514
0.0002945705 -0.1678763374 -0.1593165640
0.0105594000 -0.1529807395 -0.1642959033
-0.0269888211 -0.1098222509 -0.1637142748
-0.0172864776 -0.1877646744 -0.1518656313
0.0200858738 -0.1530818655 -0.1674088361
0.0212822054 -0.1530728656 -0.1689931499
0.0182862151 -0.1075700372 -0.1979951411
-0.0416402034 -0.1118364558 -0.1492198557
0.0255057517 -0.1532015165 -0.1687547646
0.0301267968 -0.1603559898 -0.1892123727
0.0311240614 -0.1618410269 -0.1940472358
-0.0073920491 -0.1677505736 -0.1572191807
0.0323483885 -0.1626074345 -0.1947010215
-0.0376718281 -0.1486232146 -0.1426529920
-0.0201977425 -0.1527563386 -0.1545167961
-0.0144808654 -0.1528644605 -0.1567730151
-0.0077316388 -0.1531906144 -0.1590985685
-0.0020668521 -0.1530059918 -0.1601181238
0.0209768284 -0.1076952890 -0.1924503893
-0.0219837972 -0.1679624372 -0.1534226151
-0.0020005496 -0.1532907436 -0.1608765589
0.0117616232 -0.1539595032 -0.1658072085
0.0213600079 -0.1543515425 -0.1685095687
0.0226076813 -0.1544976884 -0.1691104892
0.0247269999 -0.1539553895 -0.1680416587
-0.0124089243 -0.1380196735 -0.1610425636
0.0370828696 -0.1398437917 -0.1850148439
0.0314366410 -0.1616781104 -0.1895615971
0.0018818374 -0.1750229071 -0.1603322903
0.0325158989 -0.1627022981 -0.1917376807
-0.0372175848 -0.1504784141 -0.1440775732
-0.0122892640 -0.1628619367 -0.1568440145
-0.0296941283 -0.1531479050 -0.1499418218
-0.0291371068 -0.1526083018 -0.1509130364
-0.0250335769 -0.1531887580 -0.1520509911
-0.0398082026 -0.1804163873 -0.1422449663
-0.0414206870 -0.1536830217 -0.1403196156
-0.0227318964 -0.1531324963 -0.1522114708
-0.0121599544 -0.1550877292 -0.1586363834
-0.0169834088 -0.1602610054 -0.1562824862
-0.0093517118 -0.1552712309 -0.1588607257
-0.0051177658 -0.1550674724 -0.1595124532
-0.0349823402 -0.1651340204 -0.1453496170
-0.0036155657 -0.1547227459 -0.1611921359
-0.0018926999 -0.1545647359 -0.1610898502
0.0075071287 -0.1550433931 -0.1623447678
-0.0425959562 -0.1787198720 -0.1423857876
0.0103284700 -0.1550670459 -0.1639575349
0.0098739909 -0.1525074318 -0.1626371518
-0.0275774691 -0.1094141230 -0.1621271521
0.0170319439 -0.1554959988 -0.1652354831
0.0027785014 -0.1606408156 -0.1614640932
0.0047860625 -0.1607537491 -0.1622773384
-0.0197569225 -0.1784161627 -0.1532051861
-0.0326038728 -0.1558558615 -0.1473702423
0.0178797957 -0.1554242250 -0.1659386882
0.0199506544 -0.1554159157 -0.1666430360
0.0247801841 -0.1558179507 -0.1690979730
0.0277115520 -0.1557525007 -0.1694345074
0.0310727419 -0.1571025068 -0.1735373613
0.0311141674 -0.1582849771 -0.1766302660
0.0396853350 -0.1397812515 -0.1896999925
0.0311794334 -0.1594678697 -0.1797278972
0.0323083863 -0.1623166604 -0.1873504317
-0.0413540337 -0.1525405475 -0.1421049612
-0.0396412971 -0.1530462608 -0.1437515762
-0.0373616692 -0.1525324207 -0.1438490490
-0.0342937687 -0.1526618584 -0.1442508435
-0.0446608247 -0.1777060285 -0.1402005202
0.0224481203 -0.1680226292 -0.1645169677
-0.0323848483 -0.1529772867 -0.1468434331
-0.0199419055 -0.1484648436 -0.1541332453
-0.0224643332 -0.1552162482 -0.1522772347
-0.0172500464 -0.1556311116 -0.1565400994
-0.0350664543 -0.1824318560 -0.1444228195
0.0368324779 -0.1425104588 -0.1885869950
-0.0145215390 -0.1555050576 -0.1570092299
-0.0022741990 -0.1555713929 -0.1602116698
0.0116268905 -0.1556635185 -0.1625575046
0.0145475738 -0.1556364762 -0.1630117357
0.0194800522 -0.1562544703 -0.1654898545
0.0199454481 -0.1580940664 -0.1664186492
0.0224258130 -0.1576221186 -0.1669493860
0.0247629723 -0.1582588190 -0.1690624295
0.0296341768 -0.1580774706 -0.1698395934
-0.0224346023 -0.1680711258 -0.1522100383
0.0319512257 -0.1579872602 -0.1716641953
0.0317867404 -0.1603390156 -0.1747319241
0.0316663219 -0.1604189739 -0.1783797831
0.0316068810 -0.1608942066 -0.1820735448
0.0330333400 -0.1630981250 -0.1842154165
-0.0325092286 -0.1536381804 -0.1452160347
-0.0298822070 -0.1556306801 -0.1496892087
-0.0267542917 -0.1798780933 -0.1512803286
-0.0215291257 -0.1552634805 -0.1539640956
-0.0170407621 -0.1576010130 -0.1565125712
-0.0147239591 -0.1580212995 -0.1572329487
-0.0122940844 -0.1571924617 -0.1582734685
-0.0095984287 -0.1574102512 -0.1587477517
-0.0257843826 -0.1380815804 -0.1527134627
-0.0070547008 -0.1573776340 -0.1578300752
-0.0408504419 -0.1334507614 -0.1452420503
-0.0053737036 -0.1565803874 -0.1580026787
-0.0040331636 -0.1579104156 -0.1591263978
-0.0003892340 -0.1651425434 -0.1598549600
-0.0021030286 -0.1574961374 -0.1596929925
-0.0000402054 -0.1580758069 -0.1615536620
-0.0364897437 -0.1616244614 -0.1461663991
0.0105499914 -0.1579230432 -0.1625011075
0.0129791648 -0.1577268736 -0.1624476465
0.0171597881 -0.1580619532 -0.1648418728
-0.0417747837 -0.1554396274 -0.1418090775
0.0104534337 -0.1731989682 -0.1645327310
-0.0041110148 -0.1502446979 -0.1579204649
-0.0403558781 -0.1552624122 -0.1424684936
-0.0330000044 -0.1552504908 -0.1454546570
0.0046445738 -0.1733868723 -0.1599880178
-0.0323062504 -0.1556571730 -0.1489759414
-0.0273197486 -0.1580063288 -0.1519983552
-0.0249674535 -0.1577688299 -0.1521920569
-0.0052876743 -0.1578575524 -0.1574976494
0.0326559208 -0.1500021517 -0.1966904700
0.0206197251 -0.1597280491 -0.1670468994
0.0237481845 -0.1600986549 -0.1685489734
0.0254794600 -0.1611408233 -0.1689972324
0.0303203112 -0.1605183065 -0.1694879293
0.0323513642 -0.1625247486 -0.1740720231
0.0318324027 -0.1630151893 -0.1773571452
0.0319393240 -0.1470741034 -0.1881067157
-0.0313313448 -0.1633615227 -0.1510502081
0.0323212264 -0.1638707555 -0.1796029012
0.0328267093 -0.1647259954 -0.1818501570
0.0343773818 -0.1653292723 -0.1817252531
-0.0424559563 -0.1301149800 -0.1458315700
-0.0377441397 -0.1578131316 -0.1445001698
0.0256350605 -0.1174472198 -0.1737627933
-0.0296964849 -0.1775479561 -0.1486860932
-0.0351926174 -0.1576202322 -0.1453537425
-0.0322432562 -0.1589030354 -0.1510873404
-0.0246432906 -0.1605471639 -0.1542140597
-0.0072518733 -0.1702749843 -0.1568735900
-0.0220837150 -0.1601793456 -0.1540033484
-0.0147624031 -0.1606540802 -0.1570871410
-0.0073835690 -0.1600054342 -0.1577598898
-0.0043165198 -0.1606582698 -0.1594902467
-0.0023291570 -0.1604660255 -0.1598605123
0.0001455297 -0.1605290477 -0.1611871451
-0.0303364638 -0.1389303282 -0.1502186358
0.0089553774 -0.1594883416 -0.1605716742
0.0103759907 -0.1606655520 -0.1622383977
0.0126476134 -0.1604507209 -0.1620208030
0.0152743194 -0.1607530474 -0.1635538660
0.0201061992 -0.1607051941 -0.1646968296
-0.0424895938 -0.1580421888 -0.1419024156
-0.0399378580 -0.1579670118 -0.1435326754
-0.0126016678 -0.1804941704 -0.1542110178
-0.0325548678 -0.1606470799 -0.1497101037
-0.0302367981 -0.1600409214 -0.1494837469
-0.0300299544 -0.1610078011 -0.1511258193
-0.0269665735 -0.1604512741 -0.1518299786
-0.0178819021 -0.1608496873 -0.1553774601
-0.0122462663 -0.1611273042 -0.1572138025
-0.0218867347 -0.1881236759 -0.1512388371
-0.0095938932 -0.1614420731 -0.1581787556
0.0316757560 -0.1457241178 -0.1820328534
0.0023448557 -0.1629207934 -0.1614379372
0.0051172278 -0.1622697893 -0.1621251566
0.0201595783 -0.1631927774 -0.1641183194
0.0229276944 -0.1629470228 -0.1662571400
-0.0272466596 -0.1230443716 -0.1573156305
0.0249591171 -0.1631943069 -0.1669888044
0.0277448279 -0.1629683114 -0.1673207001
0.0302113491 -0.1630400936 -0.1691708282
-0.0425935201 -0.1201833636 -0.1484983712
0.0341918504 -0.1662376777 -0.1782747184
-0.0371863707 -0.1604813194 -0.1444622921
-0.0295755427 -0.1631108057 -0.1520434919
-0.0222893817 -0.1625624778 -0.1536308091
-0.0397130144 -0.1705548170 -0.1446974373
-0.0352487187 -0.1803536787 -0.1448265608
0.0127763608 -0.1582355797 -0.1646676734
-0.0200840926 -0.1628225913 -0.1542005171
-0.0183288766 -0.1632385676 -0.1552889810
-0.0166882817 -0.1344804168 -0.1606665552
-0.0175287230 -0.1630586002 -0.1562348665
-0.0154383316 -0.1631856186 -0.1569813568
-0.0076572335 -0.1627325223 -0.1585038435
-0.0060390152 -0.1623930477 -0.1575186249
-0.0429136157 -0.1719153494 -0.1399518012
-0.0099537233 -0.1379276849 -0.1611603275
-0.0021150473 -0.1629462505 -0.1593673210
-0.0224683436 -0.1728948153 -0.1521891609
0.0073315394 -0.1634111260 -0.1616856796
0.0097691041 -0.1631273959 -0.1621480868
0.0235156361 -0.1142158806 -0.1735645682
0.0131275109 -0.1634060959 -0.1637218675
0.0150663298 -0.1629251407 -0.1633830374
0.0169782523 -0.1626294318 -0.1625449401
0.0174965582 -0.1632986110 -0.1636014770
-0.0025077985 -0.1756565347 -0.1579766273
-0.0100232356 -0.1677526017 -0.1572234478
-0.0420676582 -0.1102973521 -0.1513047591
0.0312053362 -0.1657724007 -0.1710543281
-0.0125737125 -0.1086215079 -0.1653817147
-0.0336719347 -0.1635546369 -0.1491676610
-0.0124544313 -0.1654660682 -0.1572002972
-0.0095704174 -0.1646455782 -0.1586495099
-0.0070928586 -0.1653926543 -0.1587074381
0.0007663992 -0.1656902701 -0.1612928774
0.0031081854 -0.1654661493 -0.1623051623
0.0048083731 -0.1655845027 -0.1623403674
0.0099607401 -0.1652290702 -0.1617825653
0.0328458205 -0.1682321185 -0.1719640843
0.0332282417 -0.1678740384 -0.1746985867
0.0351189017 -0.1681758596 -0.1743116283
-0.0327490953 -0.1151660507 -0.1500857472
-0.0424686928 -0.1629791978 -0.1428675076
-0.0415912233 -0.1757616550 -0.1437557191
-0.0400152290 -0.1632924226 -0.1437558527
0.0327691697 -0.1647349298 -0.1717293262
-0.0356808188 -0.1632629969 -0.1443429576
-0.0407789461 -0.1347458810 -0.1448040456
-0.0272955472 -0.1647397482 -0.1499648066
-0.0148754874 -0.1182415299 -0.1616768539
-0.0259595603 -0.1642513927 -0.1506417908
-0.0225408348 -0.1651359232 -0.1522760166
0.0151529247 -0.1076010466 -0.2044180632
0.0227907070 -0.1281143874 -0.1701128930
0.0348453857 -0.1369648427 -0.1803150177
-0.0206036535 -0.1647509276 -0.1529723179
0.0055528635 -0.1357571334 -0.1664022307
-0.0202229803 -0.1655972156 -0.1538498575
-0.0063612230 -0.1653079843 -0.1572387992
-0.0051382357 -0.1654979036 -0.1579441900
0.0028528619 -0.1655887476 -0.1597607857
0.0049431777 -0.1656694318 -0.1603689738
0.0077483385 -0.1651896527 -0.1597659412
0.0297771922 -0.1677341812 -0.1688304603
0.0309277308 -0.1680583721 -0.1710882226
0.0139649296 -0.1073842123 -0.1969614923
-0.0441468274 -0.1643012489 -0.1431692197
-0.0149735818 -0.1229425371 -0.1607603878
-0.0342746794 -0.1653683168 -0.1462888604
-0.0023559623 -0.1677690336 -0.1567366208
0.0024609397 -0.1672311296 -0.1600147166
0.0077928455 -0.1677337410 -0.1604842483
0.0125671224 -0.1672229548 -0.1624343311
-0.0399889238 -0.1284764856 -0.1477943361
0.0153202031 -0.1680399016 -0.1629261920
0.0151048718 -0.1681406806 -0.1635531262
-0.0355661698 -0.1366528422 -0.1469787061
0.0177738090 -0.1680808221 -0.1641745543
0.0202365267 -0.1679171193 -0.1642857627
0.0253336864 -0.1674005394 -0.1648943853
