-0.1726848325 -0.0258879818 -0.4536665237
-0.2078869582 -0.0006791909 -0.4440370269
-0.2159078641 -0.0259757454 -0.4388674000
-0.2023272622 -0.0160849755 -0.4476177842
-0.2332307260 -0.0165852184 -0.4314389784
-0.1598236515 0.0189823381 -0.4708304836
-0.1647148938 -0.0411795341 -0.4552481557
-0.1857252121 0.0109877978 -0.4542143941
-0.2124580830 0.0230026957 -0.4596925132
-0.1396377534 -0.0194640812 -0.2866868079
-0.1865854225 -0.0539748137 -0.4476840615
-0.1604706045 0.0216032421 -0.4769104593
-0.2027372207 0.0217785061 -0.4533968396
-0.1337975611 -0.0174297173 -0.2839977512
-0.2399721154 -0.0254855557 -0.4264240325
-0.2375234664 -0.0056584766 -0.4284464960
-0.1627995928 0.0227758635 -0.4641059366
-0.1848847231 0.0116425481 -0.4579716243
-0.2202029856 -0.0074660508 -0.4390512260
-0.1320726781 -0.0076323353 -0.2611288690
-0.1710610338 0.0248028105 -0.4702850936
-0.1726503012 0.0237395727 -0.4659031712
-0.2195790829 -0.0084217424 -0.4405707255
-0.2105339683 0.0199156747 -0.4441729942
-0.1906023905 0.0116130162 -0.4555084161
-0.2000841602 0.0222126962 -0.4537900139
-0.1683294289 0.0249838690 -0.4839961895
-0.2004396554 -0.0034465417 -0.4480353154
-0.1903142054 0.0123195565 -0.4525675247
-0.2210416916 0.0140556383 -0.4391466109
-0.1805840756 -0.0207450990 -0.4540132996
-0.2455831689 -0.0103037363 -0.4253905394
-0.1879581742 0.0165200382 -0.4535028929
-0.1609062253 -0.0436802680 -0.4587482112
-0.1579645282 0.0191877994 -0.4760310781
-0.2129330031 0.0120611699 -0.4437729738
-0.1653202453 -0.0103283730 -0.4556478376
-0.2132051914 -0.0355210319 -0.4401075519
-0.2225674790 0.0219922930 -0.4502861577
-0.1889420533 -0.0349907591 -0.4469504493
-0.1851549907 0.0240026900 -0.4711947316
-0.1614638350 -0.0036542900 -0.4633156331
-0.2055645182 0.0196871747 -0.4480717736
-0.2082438060 0.0212402696 -0.4493399813
-0.2590566389 0.0185671795 -0.4354719291
-0.1632072745 -0.0310693023 -0.4563207714
-0.1796027723 -0.0506507911 -0.4477232369
-0.2295276821 -0.0251755159 -0.4315172191
-0.1703060713 -0.0029948955 -0.4575158244
-0.1653023312 0.0220158514 -0.4609208870
-0.2221706508 -0.0150248728 -0.4388230087
-0.1673596955 -0.0410234636 -0.4530379381
-0.1877890700 -0.0205146007 -0.4488944571
-0.1673614705 0.0122650817 -0.4604662852
-0.2064791971 0.0242812219 -0.4749969833
-0.2254023096 0.0215646504 -0.4482483878
-0.2279636573 -0.0031217897 -0.4340715282
-0.2476964333 0.0045246472 -0.4262851996
-0.1879045848 -0.0281163389 -0.4484887588
-0.1776670137 -0.0131381159 -0.4550429625
-0.2156835073 0.0232381690 -0.4613205941
-0.2255064949 0.0068600873 -0.4363875832
-0.2106667459 0.0043720629 -0.4442894540
-0.2292210258 -0.0167055423 -0.4353840544
-0.1785187338 0.0045856072 -0.4557740051
-0.1752644183 -0.0078434053 -0.4559037488
-0.1851084046 -0.0306183436 -0.4502103447
-0.1730858097 0.0170840708 -0.4590322088
-0.1573986698 0.0024064438 -0.4675679504
-0.2233923726 0.0067666794 -0.4384410310
-0.2273223086 -0.0286971726 -0.4282100160
-0.2026689050 -0.0331408866 -0.4451269330
-0.2097971958 -0.0215522824 -0.4431921828
-0.1853253500 -0.0057380601 -0.4527374372
-0.1429374603 -0.0194706462 -0.2651044187
-0.1314226631 -0.0059140620 -0.2517897618
-0.1980742815 -0.0003861332 -0.4502148529
-0.1755498610 0.0108326760 -0.4568350328
-0.2247534440 -0.0316861859 -0.4308787471
-0.2306780378 0.0014367141 -0.4339317270
-0.1558686942 0.0135858585 -0.4682297897
-0.1860245761 -0.0288037920 -0.4523001045
-0.1828978648 0.0119369735 -0.4558495282
-0.1706914541 0.0021535324 -0.4586371612
-0.1632104371 -0.0133415620 -0.4610301957
-0.1658925222 0.0044782329 -0.4592899118
-0.1881286598 0.0241614198 -0.4742477458
-0.2478763302 0.0147289380 -0.4240285210
-0.2269703223 0.0111800892 -0.4380634111
-0.1753994946 0.0170823020 -0.4588300011
-0.1556303220 0.0041964537 -0.4693612435
-0.1878247450 0.0249734463 -0.4762004007
-0.2410547350 0.0201559276 -0.4341993877
-0.1883045686 0.0240742755 -0.4706872832
-0.1719828586 -0.0483963471 -0.4484968748
-0.1629653967 0.0069641049 -0.4609249761
-0.1802204735 -0.0110798195 -0.4548091774
-0.1855370402 -0.0223041053 -0.4527354836
-0.1871956132 0.0217193199 -0.4587692373
-0.1929522498 0.0235009145 -0.4667941239
-0.1928790292 -0.0080962407 -0.4506264145
-0.1699680519 0.0098231906 -0.4603483614
-0.1648887643 -0.0485330145 -0.4536964104
-0.2052750056 0.0019683738 -0.4463442875
-0.2154865048 -0.0147782191 -0.4403390446
-0.2307400816 0.0172837761 -0.4360624483
-0.2330146344 0.0041819502 -0.4330430226
-0.1909048697 -0.0083006799 -0.4508303365
-0.1657124033 0.0018532094 -0.4603646366
-0.1929477117 -0.0032074455 -0.4531518143
-0.1856297984 0.0070469387 -0.4553396488
-0.2430509009 0.0172876032 -0.4286917421
-0.2352283515 -0.0102338906 -0.4284770623
-0.1750344634 0.0234058965 -0.4591875970
-0.2102045100 0.0123162013 -0.4453332685
-0.1749900430 0.0254647154 -0.4773060679
-0.1467523986 -0.0145347852 -0.2784391382
-0.1874726042 -0.0208512023 -0.4524543285
-0.1410502378 -0.0112058933 -0.2625943301
-0.1612625517 -0.0231471139 -0.4602439683
-0.2037002808 -0.0329888453 -0.4416608697
-0.1984413961 0.0095554347 -0.4509741311
-0.1727326459 -0.0228524661 -0.4540552669
-0.2303180720 -0.0208484412 -0.4309614375
-0.2230784886 0.0118685847 -0.4406245941
-0.1645382826 0.0088705617 -0.4629485340
-0.1480837225 -0.0162132584 -0.2805031321
-0.1637761838 -0.0457176328 -0.4559360909
-0.1378804385 -0.0146142849 -0.2754988919
-0.2135593812 -0.0052806632 -0.4415965303
-0.1685254755 -0.0203687031 -0.4563586456
-0.1850814810 -0.0333767039 -0.4490956970
-0.2615345762 0.0171048767 -0.4359198249
-0.2312895426 0.0077487296 -0.4333416654
-0.1661314079 -0.0033756729 -0.4585727389
-0.2404493557 0.0118630778 -0.4287981276
-0.1850105727 0.0218750395 -0.4586852755
-0.1342206894 -0.0075579414 -0.2560509631
-0.2350011202 0.0070057658 -0.4329279897
-0.1853952843 -0.0127651598 -0.4507443509
-0.2103856780 0.0146551675 -0.4453365521
-0.1676295755 0.0148132019 -0.4608189478
-0.1703326786 -0.0102913533 -0.4581301801
-0.1681508490 -0.0206558115 -0.4584563169
-0.2128503834 -0.0055926019 -0.4431285222
-0.1948368209 0.0068726148 -0.4530650753
-0.2106922612 -0.0076863033 -0.4439582383
-0.1653600117 -0.0495757602 -0.4553323921
-0.1827506275 -0.0511544225 -0.4480720972
-0.1731628489 -0.0134291655 -0.4561374737
-0.2225771694 0.0015198630 -0.4362844041
-0.1977311343 0.0119764186 -0.4504365162
-0.1900514388 0.0015870536 -0.4551764835
-0.1681706318 -0.0125945854 -0.4576399763
-0.2005524580 -0.0003555313 -0.4485895634
-0.2402490036 0.0188837282 -0.4320603255
-0.1577987126 0.0189756650 -0.4714855789
-0.2189520547 0.0230423026 -0.4616043397
-0.1981394210 -0.0447244350 -0.4436369776
-0.1609335311 0.0203765334 -0.4789831547
-0.2019725077 -0.0280340962 -0.4450029192
-0.2373148392 -0.0276694991 -0.4257213121
-0.2271769883 -0.0254992212 -0.4310938090
-0.1705255788 -0.0054377952 -0.4541777848
-0.2283735842 -0.0053505351 -0.4349505587
-0.2152960609 -0.0075817110 -0.4413298274
-0.2204566078 0.0196309980 -0.4406161405
-0.2297760994 -0.0260294139 -0.4280566398
-0.1907354538 -0.0299031691 -0.4486610158
-0.2378548901 -0.0234909574 -0.4266531818
-0.1899373441 -0.0330978806 -0.4503239975
-0.1785085350 -0.0281405319 -0.4494517744
-0.2383177329 -0.0087070685 -0.4261145513
-0.1676996201 0.0219157031 -0.4658735245
-0.1931800473 0.0106770484 -0.4550287975
-0.2080627233 0.0096987179 -0.4446423352
-0.2190662329 -0.0431449056 -0.4348621680
-0.2255582846 -0.0133934454 -0.4339417246
-0.2047295087 0.0073740360 -0.4486875730
-0.2432637100 -0.0127685287 -0.4255589909
-0.1709260618 -0.0309418937 -0.4551929786
-0.2018916323 -0.0209926909 -0.4472806117
-0.1727597058 -0.0083429085 -0.4562445991
-0.1282626528 -0.0118290602 -0.2734399612
-0.2132414704 -0.0136307933 -0.4412205889
-0.2254064879 0.0208961025 -0.4441466602
-0.2202030452 0.0220558013 -0.4508738515
-0.2374847742 -0.0083592712 -0.4294230599
-0.1901569954 0.0136894322 -0.4564822341
-0.2203508798 -0.0135325743 -0.4364875686
-0.1129216867 0.0010904101 -0.2401882708
-0.1633788135 -0.0205045851 -0.4614570879
-0.1400382193 -0.0208661678 -0.2879290241
-0.1807076504 0.0255776057 -0.4791238543
-0.1982688465 -0.0189534515 -0.4442124047
-0.2195265576 -0.0383409462 -0.4365438235
-0.1910181732 -0.0005263135 -0.4511816893
-0.1853504785 -0.0248393583 -0.4503679890
-0.2050180313 -0.0258111976 -0.4436599421
-0.1955451776 0.0228416297 -0.4590222985
-0.1883067271 -0.0261795663 -0.4486967679
-0.2155318644 -0.0007507844 -0.4409840348
-0.1755063533 -0.0479737703 -0.4502791627
-0.1948286119 0.0242676585 -0.4674523827
-0.2358776010 0.0117642611 -0.4308997132
-0.1730507443 0.0196000276 -0.4587745591
-0.1701470962 -0.0006788646 -0.4583538799
-0.1803685581 0.0169987654 -0.4558920159
-0.1650779533 -0.0126834098 -0.4580328631
-0.2183667142 0.0150005567 -0.4413742467
-0.1612155125 -0.0108049318 -0.4615009060
-0.2422421490 0.0120613827 -0.4279672395
-0.1708386932 0.0149537045 -0.4601056953
-0.1950600275 0.0196532107 -0.4529942657
-0.2200490917 -0.0231021472 -0.4337427774
-0.2278559555 0.0200412961 -0.4425841064
-0.1777005928 -0.0131841719 -0.4533597086
-0.1750766237 0.0254184674 -0.4761129556
-0.1756124408 0.0254686641 -0.4805276725
-0.2355033144 -0.0055770685 -0.4288604991
-0.1923684173 -0.0361853637 -0.4462629946
-0.1596982932 0.0099186657 -0.4662862924
-0.1629915726 -0.0081110381 -0.4584759946
-0.2201267697 -0.0307201500 -0.4330297049
-0.1776989891 0.0125087956 -0.4580764445
-0.1848900140 -0.0359270689 -0.4499416616
-0.1974886213 -0.0132151887 -0.4460917762
-0.2180428442 0.0170289576 -0.4407515724
-0.2022924631 0.0095886882 -0.4498579942
-0.1674136205 0.0091770935 -0.4606422297
-0.2147241926 -0.0234860172 -0.4386497384
-0.1851134908 0.0230157957 -0.4638377224
-0.2156150728 0.0095800196 -0.4417259015
-0.2161318588 0.0019698815 -0.4413053954
-0.2355204596 0.0192293433 -0.4379667473
-0.1610915661 0.0207816046 -0.4709305167
-0.2030545252 0.0170799201 -0.4487652145
-0.1751177401 -0.0150628844 -0.4553345604
-0.1434552599 -0.0181839556 -0.2868901365
-0.2311720997 0.0207324978 -0.4468978345
-0.1801623484 0.0113937840 -0.4580661135
-0.1440925353 -0.0212172584 -0.2884460501
-0.1682267556 -0.0052334924 -0.4566033334
-0.2259275993 0.0046908117 -0.4362767683
-0.2030147149 0.0194757397 -0.4494272413
-0.2147345459 -0.0211733632 -0.4362569685
-0.1672839330 -0.0084501343 -0.4598157976
-0.1926399212 -0.0186250855 -0.4502054094
-0.1387319417 -0.0116547377 -0.2680658231
-0.1775150752 0.0145449148 -0.4580881792
-0.1677600550 -0.0102736418 -0.4582491548
-0.2252564275 0.0221356390 -0.4538801005
-0.1975557806 0.0167395216 -0.4512053673
-0.2130457906 0.0140714790 -0.4438968551
-0.1901190509 -0.0028001198 -0.4506596743
-0.1896270506 -0.0238694021 -0.4461350717
-0.1779203107 -0.0108008903 -0.4539554008
-0.1699177457 -0.0570387772 -0.4499512179
-0.2424430809 0.0065420968 -0.4288934299
-0.1873865340 -0.0105197917 -0.4510195713
-0.1455900680 -0.0160545399 -0.2715633960
-0.2424176179 0.0152350144 -0.4327650198
-0.1996257263 0.0017188415 -0.4509101680
-0.1904424950 -0.0104737096 -0.4527350962
-0.1799911954 0.0188356697 -0.4578961179
-0.1698784492 -0.0082180632 -0.4581608204
-0.2222574524 0.0170079823 -0.4379023138
-0.2224205218 0.0146057991 -0.4380307932
-0.2448940620 -0.0237844916 -0.4242714952
-0.1749980684 -0.0509533099 -0.4509880281
-0.2111265672 -0.0036723340 -0.4435423574
-0.1774576801 0.0220316278 -0.4585253671
-0.2398017010 -0.0087535783 -0.4243699477
-0.2351285873 -0.0291274523 -0.4279255923
-0.1616634542 -0.0256644578 -0.4597773501
-0.1980288178 0.0023857009 -0.4508277946
-0.2496066170 0.0189225718 -0.4367283981
-0.2050531307 0.0053302248 -0.4477413294
-0.1825841040 0.0236638057 -0.4634485060
-0.2018682943 0.0045379563 -0.4502261449
-0.1698906794 0.0011703220 -0.4610063795
-0.1683876741 0.0052465753 -0.4564349216
-0.1879565052 -0.0000343840 -0.4530899703
-0.1556702663 0.0115887205 -0.4679263577
-0.2182266861 -0.0065583596 -0.4422388673
-0.1830734162 -0.0253892663 -0.4509075916
-0.1954276523 0.0087312350 -0.4529800093
-0.1755667452 0.0062763594 -0.4565768801
-0.2123180072 -0.0030093047 -0.4456978324
-0.2049657585 -0.0103226372 -0.4456968408
-0.1731225600 0.0145656419 -0.4603444908
-0.1675186118 0.0165034685 -0.4601952244
-0.1702275952 -0.0103491255 -0.4557865883
-0.1675754103 0.0239109821 -0.4656258293
-0.1702786280 -0.0080105388 -0.4565736194
-0.2423501029 0.0205183425 -0.4484199618
-0.2427853261 -0.0081551712 -0.4259382513
-0.2381144319 0.0126621106 -0.4289659713
-0.1652448005 -0.0405121702 -0.4576740664
-0.1681307880 -0.0154139424 -0.4558421468
-0.1885099113 0.0069051264 -0.4520323575
-0.1608713691 -0.0154979441 -0.4641223111
-0.1953768889 -0.0057410605 -0.4492578140
-0.2021428240 -0.0183509483 -0.4474596845
-0.2001475810 -0.0014375923 -0.4467825170
-0.2428646982 0.0097324192 -0.4254997969
-0.1338564154 -0.0053574498 -0.2498669305
-0.1614353040 -0.0139589630 -0.4648576871
-0.2154710636 0.0189082313 -0.4410571362
-0.1635686591 0.0014884367 -0.4592629280
-0.2046102881 -0.0158142825 -0.4459490509
-0.2226876964 -0.0189141798 -0.4317056998
-0.1871719673 0.0047091617 -0.4553344583
-0.1804510556 -0.0073783538 -0.4536141979
-0.1832606059 0.0224265144 -0.4607558278
-0.1844960618 -0.0405206917 -0.4486180705
-0.1673801310 -0.0261196168 -0.4562124062
-0.1730386068 0.0044904119 -0.4601686408
-0.2057544266 -0.0386150483 -0.4426400196
-0.2259083231 -0.0345249130 -0.4291526159
-0.2129145649 0.0020591808 -0.4436335970
-0.2270144503 -0.0382059066 -0.4300566624
-0.2307850650 0.0203458581 -0.4419517383
-0.2353050651 0.0171625441 -0.4312535757
-0.2201877165 0.0018200932 -0.4384379101
-0.1797105034 -0.0058448644 -0.4550719894
-0.1903233946 -0.0354292606 -0.4476464469
-0.2232847590 -0.0031794972 -0.4354804765
-0.2503612494 0.0046183273 -0.4265511609
-0.2119387038 -0.0189165947 -0.4437580107
-0.2077792923 0.0146220421 -0.4478241311
-0.2131005512 0.0096404306 -0.4435358638
-0.2104320325 0.0163952781 -0.4442261797
-0.2029856014 0.0018751632 -0.4468433414
-0.2029955417 0.0041651866 -0.4464431128
-0.1856970076 0.0046163438 -0.4558395760
-0.1727434685 -0.0553572648 -0.4538490893
-0.2256298320 0.0176586355 -0.4341670158
-0.1732903643 -0.0559477417 -0.4510312464
-0.1885704160 -0.0310351474 -0.4525895707
-0.1728332077 -0.0106752905 -0.4577322763
-0.1901731296 0.0217010649 -0.4558991877
-0.1652825140 0.0237491867 -0.4641807215
-0.1977999156 0.0230290425 -0.4583405764
-0.1874888993 0.0143983338 -0.4556710246
-0.1733407142 0.0004719335 -0.4600800252
-0.1648463690 0.0119744743 -0.4632272991
-0.2308021816 -0.0080174207 -0.4311742851
-0.1977201381 0.0009349017 -0.4531554588
-0.1829055671 0.0097794139 -0.4555823229
-0.1653192780 -0.0183008330 -0.4561454481
-0.2056756268 -0.0209006257 -0.4442803477
-0.2028477858 -0.0003448592 -0.4465950236
-0.1801195991 0.0251709077 -0.4718306959
-0.1830289839 -0.0230962713 -0.4514299108
-0.1662013173 -0.0579858670 -0.4525325540
-0.2219936123 -0.0287700105 -0.4336711114
-0.1852804411 -0.0377406372 -0.4489258750
-0.2177768165 -0.0031535179 -0.4412010420
-0.1785446921 -0.0229993865 -0.4513154803
-0.2185815538 -0.0033485185 -0.4385231428
-0.1799077829 -0.0003485966 -0.4554538846
-0.1802414922 0.0018016202 -0.4558674914
-0.1621377063 -0.0290138384 -0.4542818929
-0.1968253998 -0.0099444607 -0.4501583959
-0.1670782865 -0.0456170433 -0.4572395470
-0.1725493460 -0.0291593050 -0.4552156849
-0.1569203247 0.0046648532 -0.4697181896
-0.2174207568 0.0019339730 -0.4432998002
-0.1452074294 -0.0133613333 -0.2685353260
-0.1778355105 -0.0204233021 -0.4537988068
-0.1788793301 -0.0052473275 -0.4516586199
-0.1654400724 0.0236548205 -0.4657702422
-0.1774301303 0.0251748788 -0.4784168259
-0.1724071436 -0.0356411307 -0.4550573399
-0.1854086141 -0.0033023477 -0.4512450744
-0.2478965714 -0.0104727441 -0.4244135884
-0.2275633096 -0.0056626607 -0.4335454104
-0.2006572915 -0.0097065006 -0.4504870974
-0.2230769784 -0.0133085475 -0.4361300437
-0.1780164753 0.0238982305 -0.4663820577
-0.1721715002 -0.0404106912 -0.4532917294
-0.1777457589 0.0189411361 -0.4584206954
-0.1626186002 -0.0182611244 -0.4584978270
-0.2247476713 -0.0126458004 -0.4353859349
-0.2350056817 -0.0349372364 -0.4277099022
-0.1629315755 -0.0009554183 -0.4587758746
-0.2498261550 0.0091722430 -0.4244878022
-0.2080423818 0.0235295452 -0.4610662129
-0.2051971138 -0.0229263799 -0.4431317673
-0.1632815637 0.0020101451 -0.4625495892
-0.1831624870 -0.0102571812 -0.4546908662
-0.2228728537 -0.0131032587 -0.4381481743
-0.1721916748 -0.0276936925 -0.4530997563
-0.1897848258 0.0225477085 -0.4612140244
-0.1711014679 0.0021161169 -0.4569089292
-0.2028227504 -0.0276066330 -0.4435653268
-0.1827104958 -0.0079210955 -0.4531082134
-0.2147610425 -0.0285651046 -0.4365943062
-0.1648840066 -0.0231089317 -0.4564438826
-0.1855815663 -0.0057330464 -0.4554705131
-0.2134794857 -0.0035984288 -0.4418067024
-0.1678988617 -0.0182361830 -0.4560827694
-0.1859038728 0.0235794687 -0.4655595459
-0.1656949017 -0.0057100132 -0.4585266036
-0.2328315010 -0.0021230054 -0.4339734937
-0.2246602584 -0.0227586642 -0.4327339961
-0.2027916824 -0.0238675708 -0.4439170993
-0.2443434134 0.0206461389 -0.4405788061
-0.1673638968 -0.0058491381 -0.4589492865
-0.2422018968 0.0019525788 -0.4276261433
-0.1926104376 0.0071738433 -0.4530870714
-0.1620421378 -0.0010975363 -0.4660155181
-0.1956678234 -0.0208820970 -0.4477926548
-0.1901791404 -0.0201850747 -0.4505125132
-0.1979783466 0.0218297061 -0.4536023052
-0.2078582878 0.0031440793 -0.4485911313
-0.1626655284 0.0218152201 -0.4607909500
-0.1881007793 -0.0355539267 -0.4484258269
-0.1754893108 -0.0230181052 -0.4532922536
-0.1925591000 0.0226717876 -0.4589918847
-0.2076679820 -0.0284005258 -0.4413617981
-0.2107047131 -0.0288784998 -0.4408231291
-0.1959085306 -0.0230820345 -0.4475039028
-0.2005022805 0.0201226329 -0.4511883743
-0.1700476860 -0.0356643376 -0.4558796201
-0.2248566343 -0.0275242270 -0.4311216618
-0.2379936448 0.0041461939 -0.4306280843
-0.2054102665 0.0045532242 -0.4460914387
-0.1573758032 0.0237495983 -0.4671243934
-0.1943373748 -0.0145322098 -0.4502353332
-0.1984478682 0.0111725023 -0.4494675696
-0.2079698221 0.0166258961 -0.4455171118
-0.2127494707 -0.0152756019 -0.4410206006
-0.2102380457 -0.0283099402 -0.4389014657
-0.1383893319 -0.0169226115 -0.2705537497
-0.2014344568 -0.0223851292 -0.4409012622
-0.2105124040 0.0067506283 -0.4453897819
-0.1947060871 -0.0234626246 -0.4461138125
-0.2167608034 -0.0214403444 -0.4392328356
-0.2127995134 0.0145200963 -0.4457569108
-0.2412768674 -0.0299227058 -0.4253619581
-0.1603154129 -0.0031019352 -0.4654074853
-0.1677974891 -0.0008245192 -0.4586243506
-0.1756341649 0.0240517762 -0.4633699081
-0.1879453686 0.0225754624 -0.4611915914
-0.2305372797 -0.0005858980 -0.4316941101
-0.1228097285 0.0008352170 -0.2444554176
-0.2332344744 0.0167262986 -0.4312930848
-0.1483144312 -0.0193033097 -0.2735976460
-0.1756939052 -0.0360905549 -0.4530264201
-0.2383842595 -0.0021988164 -0.4290937651
-0.1976953273 -0.0449770664 -0.4449404201
-0.2149790913 -0.0077154314 -0.4432926852
-0.1622117858 0.0153408056 -0.4676601769
-0.1804412830 0.0222108401 -0.4583911474
-0.2205215529 0.0018610206 -0.4406374524
-0.2023925903 -0.0006332161 -0.4477776276
-0.1424698636 -0.0176577578 -0.2733484085
-0.1847869174 0.0194261464 -0.4583367478
-0.1978631606 -0.0057072183 -0.4503869697
-0.2326626480 0.0023015951 -0.4316630425
-0.2103422557 -0.0114671701 -0.4409109839
-0.1829298101 -0.0431499487 -0.4521578839
-0.2001817238 0.0039322977 -0.4502352822
-0.1929171454 -0.0232959722 -0.4478226433
-0.1575652991 0.0191754133 -0.4811031123
-0.2181264199 -0.0112738962 -0.4382543551
-0.1778797588 -0.0532418589 -0.4498456078
-0.2383240438 0.0202085978 -0.4431478601
-0.1599566539 0.0173507887 -0.4612402158
-0.1829856937 0.0162088381 -0.4579036144
-0.2021808556 -0.0105692638 -0.4463997360
-0.2349430536 -0.0105695575 -0.4315252762
-0.2021172760 -0.0112461612 -0.4481679952
-0.2429064868 0.0171954694 -0.4306143279
-0.1841244693 -0.0389602470 -0.4526084139
-0.2226858922 -0.0259828135 -0.4324131204
-0.2282061042 0.0010764988 -0.4343475302
-0.2000983798 -0.0054655317 -0.4506593035
-0.2256900033 -0.0080796535 -0.4341306794
-0.2102751016 0.0213445046 -0.4487114886
-0.2144270326 0.0243154489 -0.4639101959
-0.1943965562 -0.0062205296 -0.4525042609
-0.1653744651 -0.0157060451 -0.4553163390
-0.2189245819 0.0117052862 -0.4388134212
-0.1949343755 -0.0207261284 -0.4465987519
-0.1757227243 -0.0078285741 -0.4536091926
-0.1926934855 0.0021273695 -0.4526966344
-0.2435275147 -0.0107540235 -0.4242107975
-0.1951430544 -0.0161218639 -0.4483793362
-0.2175309806 -0.0135046888 -0.4388390215
-0.1575808011 0.0196434005 -0.4833294275
-0.2204225596 0.0214899491 -0.4462147797
-0.2257060282 -0.0057761500 -0.4341190326
-0.2250529962 -0.0025102577 -0.4382065328
-0.1801135438 -0.0031329059 -0.4550333884
-0.2506179103 -0.0069263542 -0.4245776226
-0.1830901288 0.0252055722 -0.4728331170
-0.2071495711 0.0190975810 -0.4491526157
-0.1833498185 -0.0286776440 -0.4502377913
-0.2131490143 -0.0334423900 -0.4365505354
-0.2458648758 0.0188588243 -0.4330010041
-0.1758074313 -0.0322008431 -0.4496877193
-0.1660284441 -0.0377682449 -0.4573319920
-0.1930568481 -0.0113060869 -0.4492655657
-0.2307147573 0.0192265980 -0.4388973251
-0.1930753663 0.0240492588 -0.4635045826
-0.2558928483 -0.0001439957 -0.4237667944
-0.2362398797 -0.0355443854 -0.4260792900
-0.1927152103 0.0232458548 -0.4632967791
-0.2602436696 0.0091999735 -0.4271254058
-0.1628432435 -0.0007070001 -0.4607675122
-0.1677270945 -0.0328219994 -0.4575061263
-0.1578358514 0.0085905306 -0.4630490216
-0.1982465014 0.0190514970 -0.4494240097
-0.1731708480 -0.0509293233 -0.4487960169
-0.1955087225 0.0220388370 -0.4556294731
-0.2053665254 0.0219597760 -0.4537506533
-0.1624660329 0.0046658532 -0.4629506657
-0.2072831019 -0.0258548449 -0.4430694819
-0.1351344785 -0.0106508757 -0.2659752061
-0.1699638802 0.0240200570 -0.4662518592
-0.1579229174 0.0114879553 -0.4662446823
-0.2075106400 -0.0056581444 -0.4444502122
-0.2330010706 -0.0282865724 -0.4272982247
-0.2280902507 0.0190864374 -0.4369529051
-0.1831688864 -0.0007795990 -0.4535140676
-0.1676633764 0.0253537765 -0.4757718009
-0.1728844768 0.0018841600 -0.4564206367
-0.2081565186 0.0074430450 -0.4441964328
-0.1747902762 -0.0207643143 -0.4548604977
-0.2321237244 -0.0214862246 -0.4314250912
-0.2428115207 0.0194722579 -0.4362127808
-0.1603267739 0.0217315004 -0.4724419030
-0.1880050557 -0.0206804908 -0.4513881247
-0.2150692147 0.0233721227 -0.4568022220
-0.2479946688 -0.0158642370 -0.4236633727
-0.1380174347 -0.0128959991 -0.2750509899
-0.2084781685 -0.0378979420 -0.4390639476
-0.2130881441 -0.0001730015 -0.4432914198
-0.1812072169 0.0229196077 -0.4621252098
-0.1944340238 -0.0430669838 -0.4433745614
-0.1975337961 0.0212395393 -0.4519038488
-0.1952734615 -0.0031486850 -0.4528558120
-0.2071025909 -0.0129863664 -0.4454047782
-0.1779980502 0.0211104956 -0.4567465417
-0.2131729291 -0.0208812124 -0.4382773002
-0.1909431792 -0.0132696119 -0.4491154013
-0.1607203688 0.0038385827 -0.4613983900
-0.1998015223 -0.0008452731 -0.4506823157
-0.2257477370 0.0124833944 -0.4359101693
-0.1897642868 -0.0230259320 -0.4502796611
-0.1931774244 -0.0056434401 -0.4504694335
-0.2103660436 -0.0182435708 -0.4415643443
-0.2209336697 0.0016190700 -0.4367838192
-0.1420479845 -0.0169476135 -0.2756070473
-0.2227426048 0.0194332966 -0.4412942545
-0.1703392180 0.0120344557 -0.4610273607
-0.2046125337 -0.0103429617 -0.4480607769
-0.2211235602 -0.0006946753 -0.4371239815
-0.2011620718 0.0166345584 -0.4468797870
-0.2412208201 -0.0032102006 -0.4255707542
-0.2318594842 -0.0349632901 -0.4288997589
-0.1635253113 -0.0114477643 -0.4567929160
-0.1781730715 0.0016961076 -0.4565741811
-0.2350795567 -0.0207902972 -0.4285503121
-0.1800598814 -0.0186872026 -0.4510111928
-0.1830728139 -0.0484253949 -0.4481237875
-0.1671849178 0.0222699465 -0.4641213908
-0.1800551957 -0.0181496871 -0.4534068305
-0.1925343606 -0.0206670797 -0.4464305845
-0.2045234376 -0.0009872859 -0.4481301407
-0.2106971920 0.0093306128 -0.4442518586
-0.2371196355 0.0069819995 -0.4313467815
-0.2031944217 -0.0208652369 -0.4414444842
-0.2335047931 -0.0054503504 -0.4304560243
-0.1956632950 0.0171642685 -0.4508707970
-0.1802505179 -0.0278963163 -0.4510111785
-0.1873519882 -0.0055635832 -0.4528113860
-0.2450398715 0.0046489039 -0.4262862668
-0.1976718294 -0.0012796920 -0.4491616605
-0.2046621260 -0.0052828769 -0.4477652026
-0.2257654426 0.0018274279 -0.4363947589
-0.1899810561 -0.0256598632 -0.4486812003
-0.1874792539 -0.0086229397 -0.4513481514
-0.1752041040 -0.0554792311 -0.4486617725
-0.1904250636 0.0043987877 -0.4538470752
-0.2355997860 0.0096824855 -0.4315154340
-0.2028608629 0.0092963851 -0.4489909317
-0.2183501565 -0.0002601474 -0.4393402733
-0.1776341122 -0.0186805415 -0.4549046393
-0.2004549978 0.0240608445 -0.4665306033
-0.1998878144 -0.0450195289 -0.4418693875
-0.1628385264 0.0078641967 -0.4650836179
-0.1808419052 0.0040020188 -0.4541234287
-0.2400981152 -0.0110684486 -0.4259061853
-0.2057245919 -0.0129713309 -0.4442741467
-0.2451594908 0.0170132152 -0.4303562640
-0.1729334915 -0.0165511125 -0.4539466052
-0.1821104852 0.0087901151 -0.4583590446
-0.1943394755 0.0014576463 -0.4530114212
-0.1881733669 0.0233742185 -0.4640892338
-0.2097352807 -0.0382611709 -0.4398661245
-0.1853496200 0.0121123133 -0.4552976021
-0.1948280751 0.0167150595 -0.4527514190
-0.1987692612 0.0236953210 -0.4666159611
-0.1950553598 -0.0078051161 -0.4506250115
-0.1684818035 -0.0265093815 -0.4537046512
-0.2376965361 -0.0134775731 -0.4282948114
-0.1854887592 -0.0048691660 -0.4517279172
-0.2006817527 0.0191887978 -0.4493666840
-0.1702212701 0.0213074980 -0.4628941470
-0.1555354119 0.0097226430 -0.4689487142
-0.1804766874 -0.0055071193 -0.4529754348
-0.1954531956 -0.0032156741 -0.4503639182
-0.2386757577 0.0022474253 -0.4287438002
-0.1442126916 -0.0137031326 -0.2768085192
-0.1824399537 -0.0305334538 -0.4501278773
-0.1650217818 0.0245609513 -0.4685671791
-0.1597381273 0.0211727190 -0.4816518909
-0.1927177642 -0.0315677635 -0.4503006633
-0.2380362190 0.0147229328 -0.4293645322
-0.1728975251 -0.0350452164 -0.4528407982
-0.1730828703 -0.0187107803 -0.4534107158
-0.2103412785 -0.0156141098 -0.4410680793
-0.1999746077 0.0243100408 -0.4701364098
-0.2385382288 0.0142140633 -0.4303759243
-0.1723326430 0.0233027189 -0.4618279845
-0.1933277088 0.0172658036 -0.4534754347
-0.2358277144 -0.0261132704 -0.4242644343
-0.2109276041 -0.0137143358 -0.4380493411
-0.2334045119 0.0145132916 -0.4318477943
-0.1583466756 0.0042717280 -0.4631043141
-0.1874735744 -0.0081130334 -0.4530698709
-0.1754713167 -0.0005088699 -0.4556301316
-0.2033086872 -0.0410098847 -0.4416196958
-0.2526215826 0.0162485682 -0.4251083799
-0.1778826946 -0.0404602326 -0.4511012741
-0.2454424354 0.0150688219 -0.4262693766
-0.2375982594 0.0136660588 -0.4328439249
-0.1702940166 0.0070674847 -0.4601243705
-0.1893575518 0.0228509734 -0.4641627819
-0.2051249006 -0.0299559883 -0.4387677824
-0.2120093619 0.0236498670 -0.4715799984
-0.2285002825 -0.0199231956 -0.4287982836
-0.1604581667 0.0193368731 -0.4679079249
-0.2296583372 -0.0386621030 -0.4262807431
-0.2003049297 -0.0132579868 -0.4465692183
-0.2031595417 0.0227503581 -0.4559516966
-0.1730864560 -0.0029813352 -0.4576139513
-0.2198494418 -0.0004412939 -0.4401217275
-0.1555692513 0.0121607630 -0.4700582853
-0.1654862899 -0.0031003704 -0.4603469638
-0.1390062451 -0.0186882540 -0.2882499358
-0.2032412698 -0.0352863488 -0.4404051343
-0.1620868193 -0.0025012589 -0.4636374143
-0.1700187003 -0.0411489740 -0.4533403463
-0.1703321335 0.0092938904 -0.4588794182
-0.1637226492 -0.0175363822 -0.4560732543
-0.1955176545 0.0219156033 -0.4536175334
-0.2330708682 -0.0131703769 -0.4292048447
-0.2150913376 -0.0212737260 -0.4409677894
-0.2356496168 0.0172596229 -0.4331466120
-0.1857540980 -0.0007417616 -0.4530329922
-0.2155469412 -0.0192777513 -0.4424179581
-0.2175177466 -0.0006441656 -0.4410751851
-0.1882192096 0.0234131912 -0.4690392026
-0.1700302378 0.0253650924 -0.4821865024
-0.1185864103 -0.0016328943 -0.2452457979
-0.1680395851 -0.0082007877 -0.4558337534
-0.1878580205 -0.0026991102 -0.4513312137
-0.1854667018 0.0223644893 -0.4606679600
-0.1891345239 -0.0473205112 -0.4459372746
-0.2223515713 -0.0303673443 -0.4311620849
-0.1722142351 -0.0208850649 -0.4547381180
-0.1670476165 -0.0354405148 -0.4542851162
-0.2076105887 -0.0205386848 -0.4456627204
-0.2055522678 0.0209562985 -0.4480290767
-0.2300857116 0.0140952539 -0.4352209861
-0.2077621530 -0.0229372494 -0.4431208495
-0.1977236727 0.0018319674 -0.4489793543
-0.1876691438 -0.0482271893 -0.4472772652
-0.1880587019 -0.0128685723 -0.4509883712
-0.2180795019 0.0146578412 -0.4396240035
-0.2284323409 -0.0081037782 -0.4326865757
-0.2353778469 -0.0154534053 -0.4281496390
-0.1705988224 0.0165821003 -0.4589194182
-0.1883877111 -0.0178611479 -0.4507365092
-0.1907405470 0.0089667847 -0.4559334235
-0.1755240690 -0.0206551958 -0.4539860905
-0.2568380413 0.0042352390 -0.4248767259
-0.2525918250 0.0188686247 -0.4322550370
-0.1851447614 -0.0134274954 -0.4527610920
-0.1658675878 0.0018771726 -0.4590073925
-0.2347812132 0.0025328930 -0.4331015780
-0.1924232730 -0.0029430625 -0.4502867741
-0.2175901341 -0.0061821498 -0.4393693717
-0.2131931059 -0.0155066518 -0.4368036463
-0.2211076905 0.0044490793 -0.4390431366
-0.2303333313 0.0105508404 -0.4321884096
-0.1701101732 0.0120587903 -0.4590237491
-0.1878530250 -0.0234726532 -0.4510953294
-0.1981628027 -0.0053302698 -0.4492124851
-0.1700629757 -0.0373643185 -0.4558418610
-0.1824712823 0.0070160815 -0.4581109151
-0.1926027811 0.0117547135 -0.4533430045
-0.1801269216 0.0137907649 -0.4584666110
-0.2010065431 0.0045069762 -0.4492241635
-0.2198304896 0.0229034771 -0.4551992422
-0.2186462439 0.0039209144 -0.4407529968
-0.1904938014 0.0242017716 -0.4710085931
-0.1682266731 -0.0453725591 -0.4549033062
-0.1651350670 -0.0203778205 -0.4556305841
-0.2453020896 -0.0002306850 -0.4263687331
-0.1628775125 0.0235896621 -0.4686133614
-0.1972416455 0.0242109889 -0.4718099086
-0.2081404155 0.0118803538 -0.4457610011
-0.2053852549 0.0211073780 -0.4504370329
-0.1901013454 0.0093086377 -0.4542807046
-0.1702665480 -0.0131547848 -0.4574228657
-0.1410445124 -0.0129994294 -0.2706075907
-0.2126134075 -0.0312528458 -0.4386230200
-0.1635502569 0.0166014431 -0.4617882644
-0.2252207445 0.0025317446 -0.4375694386
-0.1657626571 -0.0282509745 -0.4561095339
-0.2164927050 -0.0380383261 -0.4346654510
-0.2456174995 0.0141320700 -0.4277436276
-0.1805642482 -0.0033643816 -0.4535907129
-0.1673330127 -0.0477263267 -0.4538205711
-0.1775320317 0.0234421632 -0.4626953631
-0.2201833889 0.0043113687 -0.4407884312
-0.1818073491 -0.0251281409 -0.4528159934
-0.2045737491 0.0236703172 -0.4612740615
-0.2163192079 0.0121551199 -0.4419107534
-0.2303595135 -0.0003924814 -0.4332772939
-0.1679925508 -0.0080034251 -0.4581474681
-0.1926333060 -0.0181214418 -0.4483612840
-0.1833220894 0.0047280575 -0.4535815673
-0.2277331111 -0.0152328854 -0.4336879126
-0.2602793548 0.0131902734 -0.4293708325
-0.2132200666 0.0193092334 -0.4439693885
-0.2475980774 0.0192352014 -0.4330254479
-0.1682115454 -0.0163021436 -0.4578260229
-0.2379671938 0.0071548114 -0.4293566742
-0.1802897628 0.0068114873 -0.4557179237
-0.1902239182 -0.0053117447 -0.4530075282
-0.2215634995 -0.0031095473 -0.4363949862
-0.1829018818 -0.0207822682 -0.4504960715
-0.1945416201 -0.0307675363 -0.4477608730
-0.1684446652 0.0020551287 -0.4589692208
-0.1831834069 0.0145133543 -0.4556690397
-0.2499200285 -0.0044144397 -0.4235165848
-0.1902611454 -0.0307042766 -0.4503043539
-0.1923602682 -0.0005112004 -0.4531587089
-0.1977974203 0.0045559081 -0.4512970575
-0.1652290954 -0.0306186287 -0.4579359942
-0.2069366157 -0.0514629104 -0.4403830341
-0.2252809386 0.0217182434 -0.4502816841
-0.2252485611 -0.0085705543 -0.4317998814
-0.2401249915 0.0174861824 -0.4335551435
-0.2023158376 -0.0077734177 -0.4476199353
-0.2028791048 -0.0054949871 -0.4466432959
-0.2377315300 -0.0322774914 -0.4258216232
-0.2026475683 -0.0036309192 -0.4477544032
-0.2049410111 0.0118541426 -0.4485364503
-0.2251345987 -0.0188275011 -0.4311953603
-0.2124727749 -0.0340150268 -0.4385969605
-0.1979345515 -0.0034196181 -0.4527291117
-0.1314336877 -0.0119785229 -0.2678367065
-0.1870397560 -0.0251353619 -0.4498426842
-0.1758826223 -0.0282200074 -0.4529274612
-0.2134911416 0.0165098551 -0.4443878688
-0.1727401683 0.0046771048 -0.4580259799
-0.2146167104 0.0232308204 -0.4665460917
-0.2301867753 -0.0052026808 -0.4349566043
-0.1629796789 -0.0330739022 -0.4576557442
-0.1876986845 0.0116496725 -0.4554417636
-0.1898955263 -0.0107662680 -0.4492875619
-0.2328053747 -0.0078588406 -0.4304268039
-0.1995608814 -0.0127878052 -0.4478546721
-0.2251180126 0.0197531075 -0.4414508365
-0.1731697406 -0.0226950780 -0.4515800044
-0.1832192951 -0.0059389216 -0.4526456788
-0.1403373807 -0.0204840738 -0.2923855058
-0.1624239322 0.0120342140 -0.4628209649
-0.2129805179 0.0226235296 -0.4539451632
-0.1767831897 -0.0073977631 -0.4574829329
-0.2205084157 -0.0127446021 -0.4389097472
-0.1631922648 -0.0055652472 -0.4588583608
-0.1903606298 0.0147424795 -0.4529991810
-0.2353581550 0.0142248783 -0.4306790456
-0.1950148915 -0.0020879985 -0.4482046359
-0.1731380355 -0.0005848845 -0.4581762832
-0.1903586204 0.0072080611 -0.4532601713
-0.2151516314 -0.0103182971 -0.4426086816
-0.1976586571 -0.0124731866 -0.4479403008
-0.2073294073 -0.0084530348 -0.4475063384
-0.2089720007 0.0114481400 -0.4437912922
-0.2194240034 0.0168324765 -0.4428853803
-0.1921158260 -0.0277842942 -0.4480085100
-0.2078493059 -0.0084234792 -0.4457070926
-0.1613518412 -0.0109643641 -0.4655577466
-0.1703326317 0.0142681864 -0.4593742619
-0.1828676384 0.0067158733 -0.4557681680
-0.1908277541 -0.0156148253 -0.4505932431
-0.1648787297 0.0064998367 -0.4603727107
-0.1851303862 0.0234371395 -0.4638661321
-0.1800556019 -0.0110452843 -0.4534897482
-0.1708916575 0.0262324866 -0.4814943969
-0.2023895246 -0.0257361974 -0.4429973755
-0.1732565336 -0.0073223176 -0.4541963666
-0.2405970341 -0.0050376913 -0.4268898471
-0.2231364860 0.0173932124 -0.4367904218
-0.2273474294 -0.0280143304 -0.4313619658
-0.1735216347 -0.0058690884 -0.4577632128
-0.2278726520 -0.0213793358 -0.4307511395
-0.1673588439 -0.0239292572 -0.4533790118
-0.1683184532 -0.0029775992 -0.4563694562
-0.1806748130 0.0096071474 -0.4556427073
-0.1604950729 0.0067879687 -0.4608129395
-0.2125933551 -0.0084855779 -0.4449717290
-0.1977824241 -0.0390754976 -0.4440535776
-0.1676478511 0.0095773476 -0.4586052899
-0.1677928172 0.0120211658 -0.4584266344
-0.1552463839 0.0024898629 -0.4656024015
-0.1926465276 -0.0356394407 -0.4479027802
-0.1626196286 -0.0080647662 -0.4616774778
-0.1883471815 0.0020424443 -0.4518397326
-0.1886772789 -0.0441422760 -0.4460930278
-0.2375652352 -0.0111082818 -0.4286941281
-0.1632700393 -0.0280501148 -0.4585682564
-0.1893472199 -0.0513901320 -0.4456603970
-0.1980085739 -0.0079117916 -0.4467393847
-0.1931062587 0.0137049607 -0.4516086518
-0.1933168652 0.0221629289 -0.4535815286
-0.2358472558 0.0065845735 -0.4311957489
-0.1798521568 -0.0412182947 -0.4481118617
-0.1727612807 -0.0107784940 -0.4539243798
-0.1652731001 0.0217717737 -0.4658679664
-0.1701770883 -0.0015785304 -0.4561875899
-0.1829937288 -0.0356287296 -0.4484965712
-0.2180712182 0.0018872919 -0.4392495173
-0.2116971463 0.0234274007 -0.4573938549
-0.2001261220 -0.0355915269 -0.4454731574
-0.1968192670 -0.0406206286 -0.4444220749
-0.1926387718 -0.0157931082 -0.4506190978
-0.2073192361 -0.0008431793 -0.4457473567
-0.1855166723 -0.0156698411 -0.4513059422
-0.1778134690 -0.0215078415 -0.4551669055
-0.1630013799 0.0187523275 -0.4638411606
-0.2276123488 -0.0005122715 -0.4355234158
-0.1361822933 -0.0084642721 -0.2671859562
-0.1625529286 -0.0235900947 -0.4562294484
-0.2125121884 -0.0282501942 -0.4389130719
-0.1633009796 -0.0257630284 -0.4585517783
-0.1634691507 -0.0258783717 -0.4608636498
-0.2130701886 -0.0238577913 -0.4367361004
-0.1628293600 -0.0531210880 -0.4551095730
-0.2036268797 0.0093255201 -0.4469602164
-0.1989419294 -0.0361129340 -0.4408013360
-0.1626529550 -0.0508427031 -0.4547983262
-0.2452183263 0.0020859912 -0.4264177233
-0.1575945006 0.0059197048 -0.4607850521
-0.2020838513 -0.0055696162 -0.4480063337
-0.1649723524 0.0040705424 -0.4602525260
-0.1801795722 -0.0463035662 -0.4486922568
-0.1575211266 0.0038734581 -0.4661551454
-0.1831175384 0.0193514707 -0.4559182694
-0.2046006910 -0.0213264815 -0.4463143856
-0.2031539351 -0.0008405349 -0.4444897044
-0.2075782051 -0.0384209010 -0.4400158341
-0.2400100123 -0.0206378980 -0.4276146052
-0.1731189042 -0.0303844139 -0.4515711069
-0.2253105786 -0.0388862178 -0.4336797327
-0.1654856998 -0.0156389744 -0.4581014455
-0.2206231962 0.0114394905 -0.4393725211
-0.1703273795 0.0171445893 -0.4605111726
-0.2403632517 0.0138065632 -0.4332028892
-0.2129833433 -0.0084957673 -0.4411263954
-0.2025770605 0.0235428147 -0.4595038810
-0.2475806953 0.0199290363 -0.4390549957
-0.2028039661 0.0232266516 -0.4606378966
-0.1821520871 -0.0042832106 -0.4517179976
-0.1927412303 -0.0004628729 -0.4492546072
-0.1924637256 -0.0005554659 -0.4509883093
-0.1701970106 -0.0492001748 -0.4508947687
-0.2019304061 -0.0135693093 -0.4480125471
-0.2119831610 -0.0308942597 -0.4409539158
-0.1781346880 -0.0055749513 -0.4534072734
-0.1921339459 -0.0190310665 -0.4461324092
-0.1908414581 -0.0237835579 -0.4478082449
-0.1571750031 0.0166904576 -0.4640601735
-0.2020723136 0.0111082147 -0.4526347485
-0.1801764908 -0.0481901563 -0.4480322533
-0.1977457804 -0.0099720972 -0.4487403016
-0.1434699191 -0.0128205387 -0.2654777048
-0.1652958641 -0.0057199118 -0.4602364699
-0.1702675720 0.0195316440 -0.4592807882
-0.2255915730 -0.0048471425 -0.4357297005
-0.2198624543 0.0201574892 -0.4437008117
-0.1586359684 -0.0012157010 -0.4614247526
-0.1964966263 -0.0155649676 -0.4467292182
-0.1747314832 -0.0531891430 -0.4501661955
-0.1852429658 0.0007905525 -0.4519250989
-0.2047552821 0.0234907451 -0.4591262035
-0.2471372871 -0.0128273166 -0.4243459046
-0.1643694456 0.0089374891 -0.4656278914
-0.2404060063 0.0071788017 -0.4305938046
-0.2127804788 -0.0078819469 -0.4432951722
-0.1837600575 -0.0132373270 -0.4514370271
-0.1924029938 -0.0354894173 -0.4499041930
-0.1671229841 -0.0383170560 -0.4527778124
-0.1647346328 0.0249268441 -0.4711960910
-0.1680504356 0.0215228521 -0.4592895184
-0.1678222542 0.0191687800 -0.4592940340
-0.1634378586 0.0143723515 -0.4616782030
-0.2384530209 0.0210447377 -0.4511876737
-0.2176936446 0.0200786949 -0.4433817412
-0.2424497201 -0.0285208601 -0.4262058698
-0.2099493239 0.0037593656 -0.4454844035
-0.2300376915 -0.0152132825 -0.4334162176
-0.2257622820 -0.0007681748 -0.4363490488
-0.1857921779 0.0083090584 -0.4520189613
-0.2006742417 -0.0161077076 -0.4466762331
-0.1748857346 0.0199697365 -0.4566972659
-0.2259474683 -0.0029546713 -0.4354926935
-0.2454703305 0.0172384977 -0.4281660139
-0.2102787838 -0.0082882919 -0.4451989988
-0.2323357671 0.0016953510 -0.4335523292
-0.2105311506 -0.0128574660 -0.4430894310
-0.2105581710 -0.0152606801 -0.4430165481
-0.2074920192 -0.0179864030 -0.4456056131
-0.1858116251 -0.0460109639 -0.4489685303
-0.1679188423 0.0163078975 -0.4634788600
-0.1676103770 0.0138568974 -0.4631155126
-0.1630669876 0.0137693891 -0.4656885368
-0.2176639734 -0.0337822761 -0.4335405274
-0.2061343846 0.0187023099 -0.4465969916
-0.1608319630 -0.0156065448 -0.4589044400
-0.2183576612 0.0095860492 -0.4412431117
-0.2252099881 0.0045074702 -0.4383337868
-0.1920930498 -0.0036552050 -0.4551765322
-0.2078563675 -0.0038187437 -0.4418590353
-0.1909170073 -0.0275167091 -0.4490009298
-0.1693396339 -0.0161420136 -0.4574911139
-0.1783682544 -0.0261247968 -0.4511295386
-0.2093837601 -0.0312850906 -0.4408337421
-0.2120329021 -0.0333297182 -0.4403091311
-0.2287868904 -0.0394406441 -0.4274515207
-0.1430172151 -0.0202893683 -0.2898570381
-0.1798806879 0.0248251946 -0.4688658089
-0.1603121379 0.0135572249 -0.4655582282
-0.1580256739 0.0069294575 -0.4650775555
-0.1599961467 0.0071146638 -0.4594145135
-0.1675005263 -0.0199390709 -0.4596979980
-0.1701071813 0.0052969227 -0.4567628133
-0.2300780957 0.0121035563 -0.4357163643
-0.1968365754 0.0039959463 -0.4532400450
-0.2431615762 0.0141526070 -0.4256675401
-0.1898264851 -0.0009756347 -0.4554619207
-0.1827420128 -0.0406076252 -0.4484599636
-0.1730939971 -0.0129497421 -0.4539590304
-0.2516735591 -0.0004203815 -0.4231679742
-0.1704526070 -0.0178351680 -0.4542739793
-0.1758885437 -0.0206229734 -0.4505046970
-0.2372094904 -0.0186610538 -0.4283120788
-0.1723495871 0.0255812034 -0.4752261043
-0.1863085613 0.0184142856 -0.4543585768
-0.2455252100 -0.0176218019 -0.4223791809
-0.1780188711 -0.0303098639 -0.4505098292
-0.1869317647 0.0141689119 -0.4578812964
-0.2122412053 -0.0262059178 -0.4410191233
-0.1143451615 0.0015967633 -0.2437953416
-0.1950483369 0.0145607629 -0.4525647271
-0.2082856159 -0.0430222255 -0.4400937417
-0.2308128999 -0.0420849151 -0.4268198953
-0.1260218090 -0.0062413241 -0.2621753383
-0.2162174731 0.0225226376 -0.4556874633
-0.2130979977 -0.0105056568 -0.4390842884
-0.1697381352 0.0190289297 -0.4632850593
-0.1579145718 0.0169419146 -0.4686606610
-0.1868014065 0.0164148804 -0.4582895016
-0.1609752631 -0.0255053024 -0.4723459520
-0.1875156754 0.0117840730 -0.4583361636
-0.1668816222 0.0069626745 -0.4631151525
-0.1645136552 0.0068972463 -0.4630920493
-0.1649908990 0.0044402457 -0.4635231203
-0.1601358888 0.0038558203 -0.4650060541
-0.1679200500 0.0043596903 -0.4610604192
-0.2015891075 0.0240112953 -0.4679964781
-0.1581896182 0.0020988710 -0.4655204879
-0.1605843536 -0.0002845580 -0.4629910259
-0.1953777460 -0.0006561839 -0.4535648906
-0.1978370029 -0.0011843682 -0.4532479396
-0.1703543162 -0.0033862545 -0.4561349961
-0.1552373497 0.0138648433 -0.4737246432
-0.1610893691 -0.0048047244 -0.4590055298
-0.1608106445 -0.0053473525 -0.4608476119
-0.1900885608 -0.0052939093 -0.4549046661
-0.1628194281 -0.0106245353 -0.4609242426
-0.2380771692 0.0003056915 -0.4305846898
-0.2273010882 -0.0024615978 -0.4356129905
-0.2229682025 -0.0023137970 -0.4381726411
-0.1598567643 0.0194219342 -0.4730420369
-0.1628200201 -0.0155399226 -0.4591002091
-0.1609141364 -0.0178746768 -0.4584868393
-0.1992443701 -0.0145215656 -0.4500390954
-0.1900219829 -0.0153575638 -0.4488153187
-0.1785381727 -0.0160298611 -0.4515274718
-0.1752086580 0.0264818389 -0.4817491770
-0.1875491120 0.0228666093 -0.4644151781
-0.2125222129 -0.0121167895 -0.4390547269
-0.1609204934 -0.0199692550 -0.4577756508
-0.2071114275 -0.0158145429 -0.4450870395
-0.2330176207 -0.0106386728 -0.4292148216
-0.2280186276 -0.0128260399 -0.4334731513
-0.1608587520 -0.0252826827 -0.4592999231
-0.2193495171 -0.0206828298 -0.4372836629
-0.2202148804 -0.0226231007 -0.4354497356
-0.2127644908 -0.0244470757 -0.4429062762
-0.1829958331 -0.0326013361 -0.4489188657
-0.2381154785 -0.0260245095 -0.4276455993
-0.1696326458 -0.0375837696 -0.4525262260
-0.1645920142 -0.0374229563 -0.4534172057
-0.1634072852 -0.0526342822 -0.4534659490
-0.1666258519 -0.0526914073 -0.4513697354
-0.1713873114 -0.0557290389 -0.4493350023
-0.1401440499 -0.0153253176 -0.2677107885
-0.1661855943 0.0242650594 -0.4835172475
-0.1655743769 0.0238729439 -0.4859262102
-0.1822889090 0.0252902728 -0.4783523404
-0.1796748270 0.0248340131 -0.4763246597
-0.1770275208 0.0249174082 -0.4742562925
-0.1650751492 0.0243154599 -0.4737000425
-0.1630592358 0.0221564661 -0.4820021522
-0.1630998908 0.0224128653 -0.4835381088
-0.1624730063 0.0220165090 -0.4859405084
-0.1897342441 0.0242163959 -0.4757727278
-0.1853916015 0.0245871550 -0.4739404556
-0.1620160302 0.0218337318 -0.4736908249
-0.1624322127 0.0217770169 -0.4760219021
-0.1628703137 -0.0029546146 -0.4581727427
-0.1594823792 0.0213117746 -0.4783858199
-0.1584800968 0.0200068346 -0.4782173548
-0.2047995108 0.0238084604 -0.4676629613
-0.1952631690 0.0231394619 -0.4659493771
-0.1924840991 0.0230364833 -0.4664252512
-0.1756050655 0.0218627588 -0.4585286991
-0.1414647916 -0.0206203160 -0.2900994754
-0.1575178969 0.0190765369 -0.4735900654
-0.2078883310 0.0234767377 -0.4633612618
-0.1932629547 0.0224566950 -0.4612182446
-0.1562959055 0.0163935470 -0.4730885020
-0.1558384149 0.0166740282 -0.4760452613
-0.1910992485 0.0216139009 -0.4542903243
-0.1855473322 0.0211770248 -0.4565409637
-0.1629569329 0.0169195986 -0.4657255271
-0.1599121666 0.0166369506 -0.4682952018
-0.2155945211 0.0227063724 -0.4535685795
-0.2012158770 0.0214498914 -0.4479754928
-0.1932878275 0.0207153303 -0.4518222228
-0.2025280632 0.0172837609 -0.4460465454
-0.1880146676 0.0189771977 -0.4529399803
-0.1601774520 0.0146744335 -0.4677222749
-0.1578141999 0.0141631441 -0.4683037720
-0.1568124386 0.0146071865 -0.4698903928
-0.2075908277 0.0215001175 -0.4471120452
-0.2027836556 0.0209081734 -0.4475666904
-0.1804781655 -0.0053593518 -0.4516805609
-0.1856804446 0.0172309721 -0.4538527736
-0.1828120280 0.0172526801 -0.4554757917
-0.1783623306 0.0172153381 -0.4567719175
-0.1975073872 0.0178582927 -0.4525327767
-0.1626779501 0.0117940236 -0.4658307347
-0.2201504701 0.0200160021 -0.4455724520
-0.2174585601 0.0197392762 -0.4454726275
-0.2003787022 0.0165312624 -0.4490836208
-0.1856462043 0.0142858606 -0.4537731253
-0.1647268244 0.0113296556 -0.4648425785
-0.2305794842 0.0199570945 -0.4431934809
-0.1754440883 0.0114615219 -0.4598153045
-0.1581589262 0.0091947287 -0.4657555595
-0.1552698723 0.0089087783 -0.4663957083
-0.2226051802 0.0194367786 -0.4382984906
-0.2083681011 0.0143035659 -0.4456601577
-0.2056592225 0.0144209088 -0.4462332948
-0.2022912443 0.0148432408 -0.4464127345
-0.2059730853 0.0119247564 -0.4460948052
-0.2038692178 0.0117863120 -0.4467607883
-0.2449089616 0.0187487334 -0.4285924359
-0.2280293257 0.0146381876 -0.4358161489
-0.2151134833 0.0119821053 -0.4437433533
-0.2079053199 0.0097202246 -0.4466285673
-0.2055635881 0.0101134037 -0.4463788053
-0.1627071511 0.0046171879 -0.4609886816
-0.2177229630 0.0096051295 -0.4429190052
-0.2230809234 -0.0087320509 -0.4341233132
-0.2026311893 0.0074302417 -0.4503749497
-0.1780410983 0.0041663853 -0.4544787149
-0.1751032668 0.0045027432 -0.4566619350
-0.1608379785 0.0013723362 -0.4615827723
-0.2208709669 0.0097850581 -0.4394363896
-0.2073465919 0.0071266796 -0.4452032943
-0.1756285148 0.0020656976 -0.4563630006
-0.1702017933 0.0205424018 -0.4656419158
-0.1590174310 0.0003995386 -0.4633167787
-0.2302870249 0.0099975069 -0.4357214308
-0.2159592322 0.0068489252 -0.4435206784
-0.1609603501 -0.0003739749 -0.4600930489
-0.1598649278 -0.0014317714 -0.4648172390
-0.2340730347 0.0101059143 -0.4318048529
-0.2219551925 0.0069971982 -0.4402892491
-0.2081566348 0.0048342825 -0.4443932832
-0.1642337888 0.0057698213 -0.4595434070
-0.2056784065 0.0023540417 -0.4440191987
-0.2454166436 0.0096921050 -0.4251279828
-0.2389292614 0.0087505650 -0.4276765586
-0.2178417099 0.0024369390 -0.4413023881
-0.2152063170 0.0018537296 -0.4428744279
-0.2076989879 0.0025628787 -0.4441338162
-0.1955238800 -0.0005102590 -0.4494428129
-0.1607504181 -0.0060900020 -0.4624796042
-0.1606340686 -0.0079765227 -0.4631002648
-0.2359958620 0.0039523575 -0.4327035598
-0.1810683310 -0.0122368271 -0.4521628320
-0.2279045063 0.0021459795 -0.4355004078
-0.2025254845 -0.0025109591 -0.4461136974
-0.1976153905 -0.0029826798 -0.4486814758
-0.2383785874 0.0044282962 -0.4290713330
-0.2382670775 0.0020997006 -0.4305206388
-0.2149742190 -0.0023539861 -0.4427381922
-0.2068744257 -0.0031906337 -0.4446392228
-0.2412379724 0.0018471140 -0.4261976134
-0.1799828857 0.0258240197 -0.4771887064
-0.2348890877 -0.0009599479 -0.4332218630
-0.2303065292 -0.0004602914 -0.4352580841
-0.1856636015 -0.0080640714 -0.4515488914
-0.1617908993 -0.0126609106 -0.4661069142
-0.1961770022 -0.0080102256 -0.4490662255
-0.1804794505 -0.0101968261 -0.4516313174
-0.1636400610 -0.0136613339 -0.4578549210
-0.2364406479 -0.0009565272 -0.4292086736
-0.2204119092 -0.0056471467 -0.4366157550
-0.1619334811 -0.0152603037 -0.4599503599
-0.1613157311 -0.0177669131 -0.4673829671
-0.2327498882 -0.0060379596 -0.4329590641
-0.2221469216 -0.0084305101 -0.4385049828
-0.2181037582 -0.0100129364 -0.4412119810
-0.2133151192 -0.0107789698 -0.4435075842
-0.1608124064 -0.0179057149 -0.4606403121
-0.1603257012 -0.0183359214 -0.4659348816
-0.2225802067 -0.0105262731 -0.4387171083
-0.2103555578 -0.0125454406 -0.4449191007
-0.1889432004 -0.0149380908 -0.4487696806
