-0.1083519012 -0.1374996603 -0.5924185514
-0.1071358249 -0.1376706809 -0.5923082829
-0.1059297323 -0.1373174936 -0.5913407803
-0.1047034636 -0.1380035430 -0.5920763612
-0.1035050005 -0.1376432478 -0.5911020041
-0.1022925973 -0.1378016025 -0.5909768939
-0.1011057198 -0.1374337077 -0.5899961591
-0.0999265984 -0.1370618045 -0.5890125036
-0.0987219810 -0.1372100711 -0.5888768435
-0.0975545719 -0.1368307024 -0.5878868699
-0.0963128880 -0.1374975145 -0.5885942578
-0.0951533690 -0.1371111870 -0.5875977874
-0.0939529166 -0.1372469068 -0.5874475241
-0.0927525833 -0.1373796165 -0.5872935057
-0.0915523991 -0.1375093013 -0.5871358514
-0.0903523788 -0.1376359612 -0.5869743824
-0.0891525224 -0.1377595663 -0.5868091583
-0.0880210176 -0.1373521388 -0.5857937336
-0.0867534280 -0.1379977167 -0.5864675045
-0.0854783580 -0.1386409849 -0.5871364474
-0.0843552649 -0.1382237226 -0.5861109495
-0.0831565857 -0.1383321732 -0.5859270096
-0.1267106831 -0.1471518427 -0.6117517352
-0.1253151894 -0.1463494450 -0.6099797487
-0.1239348426 -0.1455411464 -0.6082044840
-0.1225286648 -0.1442102790 -0.6055708528
-0.1211454049 -0.1428723186 -0.6029344201
-0.1197187379 -0.1404912323 -0.5985859632
-0.1184183359 -0.1396567523 -0.5967993736
-0.1171077564 -0.1382974088 -0.5941556692
-0.1158632487 -0.1379711032 -0.5932174921
-0.1146616191 -0.1386816353 -0.5939834714
-0.1134382561 -0.1388691515 -0.5938915610
-0.1122047827 -0.1385319829 -0.5929427743
-0.1109849587 -0.1387128383 -0.5928435922
-0.1097650155 -0.1388906389 -0.5927403569
-0.1085466072 -0.1385420561 -0.5917814970
-0.1073358431 -0.1381893307 -0.5908192992
-0.1061139032 -0.1388813853 -0.5915568471
-0.1048974618 -0.1390464902 -0.5914388895
-0.1036809608 -0.1392085701 -0.5913169980
-0.1024644151 -0.1393675506 -0.5911912918
-0.1012727991 -0.1389970034 -0.5902121067
-0.1000889614 -0.1386224180 -0.5892299414
-0.0989128798 -0.1382438093 -0.5882447362
-0.0977445990 -0.1378612518 -0.5872566700
-0.0965437144 -0.1380031705 -0.5871139169
-0.0953429192 -0.1381420195 -0.5869672894
-0.0941422135 -0.1382778883 -0.5868169665
-0.0929416344 -0.1384107172 -0.5866629481
-0.0917412043 -0.1385404915 -0.5865049958
-0.0905409083 -0.1386672705 -0.5863434672
-0.0893408135 -0.1387910098 -0.5861781836
-0.0881408975 -0.1389116794 -0.5860090852
-0.0869412050 -0.1390293092 -0.5858362913
-0.0857417434 -0.1391439438 -0.5856596828
-0.0845425278 -0.1392555386 -0.5854794979
-0.0833435804 -0.1393640637 -0.5852955580
-0.1268696934 -0.1477430612 -0.6102147102
-0.1254765987 -0.1469336450 -0.6084467769
-0.1240532026 -0.1455989629 -0.6058222651
-0.1226526722 -0.1442570984 -0.6031948924
-0.1213126853 -0.1434288323 -0.6014177203
-0.1199202761 -0.1415522397 -0.5979322195
-0.1186184064 -0.1407113820 -0.5961494446
-0.1173317432 -0.1398649216 -0.5943638682
-0.1160825193 -0.1395361871 -0.5934273601
-0.1148591265 -0.1397269815 -0.5933391452
-0.1136355326 -0.1399147362 -0.5932471156
-0.1124012098 -0.1395744383 -0.5923001766
-0.1111811474 -0.1397555023 -0.5922007561
-0.1099581495 -0.1394073665 -0.5912470818
-0.1087427586 -0.1390551031 -0.5902902484
-0.1075300947 -0.1392259151 -0.5901800394
-0.1063085273 -0.1399214715 -0.5909153819
-0.1050918326 -0.1400867701 -0.5907971859
-0.1038585603 -0.1407778263 -0.5915238261
-0.1026379019 -0.1409374774 -0.5913976431
-0.1014415696 -0.1405642629 -0.5904198885
-0.1002811715 -0.1396567076 -0.5885918736
-0.0991042182 -0.1392749548 -0.5876085758
-0.0978991762 -0.1394204944 -0.5874689221
-0.0966941565 -0.1395629793 -0.5873254538
-0.0954892486 -0.1397023946 -0.5871783495
-0.0942844152 -0.1398388445 -0.5870273709
-0.0930797234 -0.1399722099 -0.5868726969
-0.0919304565 -0.1395690739 -0.5858702064
-0.0907299370 -0.1396959722 -0.5857084990
-0.0895295963 -0.1398197860 -0.5855430961
-0.0883294269 -0.1399405897 -0.5853738785
-0.0870586857 -0.1405933499 -0.5860428810
-0.0858551040 -0.1407084316 -0.5858656764
-0.0846517682 -0.1408204436 -0.5856847763
-0.0835311040 -0.1403933018 -0.5846599936
-0.1270277947 -0.1483248323 -0.6086775064
-0.1256370693 -0.1475084275 -0.6069136262
-0.1242154092 -0.1461634487 -0.6042951941
-0.1228166297 -0.1448112875 -0.6016739607
-0.1215173081 -0.1445000768 -0.6007517576
-0.1201566011 -0.1431351453 -0.5981248021
-0.1188493595 -0.1422885358 -0.5963458419
-0.1175573543 -0.1414363384 -0.5945637822
-0.1163262203 -0.1416316330 -0.5944787264
-0.1150759459 -0.1412967592 -0.5935402513
-0.1138482541 -0.1414853185 -0.5934477448
-0.1126092002 -0.1411425173 -0.5925024152
-0.1113777310 -0.1407954693 -0.5915538073
-0.1101573110 -0.1409736872 -0.5914503932
-0.1089371964 -0.1406188756 -0.5904951692
-0.1077204347 -0.1407904029 -0.5903844833
-0.1065035686 -0.1409589201 -0.5902699828
-0.1052745953 -0.1416559666 -0.5909985304
-0.1040537432 -0.1418188661 -0.5908759236
-0.1028130725 -0.1425113231 -0.5915957093
-0.1016119942 -0.1421355009 -0.5906195045
-0.1004186794 -0.1417555809 -0.5896403193
-0.0992017016 -0.1419057250 -0.5895029306
-0.0980200917 -0.1415182203 -0.5885174274
-0.0968462974 -0.1411267370 -0.5875290036
-0.0956372544 -0.1412667781 -0.5873812437
-0.0943813846 -0.1419396698 -0.5880725384
-0.0932195261 -0.1415376961 -0.5870743394
-0.0920108333 -0.1416685432 -0.5869152546
-0.0908608884 -0.1412591636 -0.5859109759
-0.0895939842 -0.1419210732 -0.5865858197
-0.0883858278 -0.1420427710 -0.5864154696
-0.0872480720 -0.1416230202 -0.5854015946
-0.0859701931 -0.1422769129 -0.5860635042
-0.0847627297 -0.1423893869 -0.5858819485
-0.0836373493 -0.1419593394 -0.5848584771
-0.1271849424 -0.1488972008 -0.6071399450
-0.1257460713 -0.1475484818 -0.6045308113
-0.1243766919 -0.1467185318 -0.6027679443
-0.1229796708 -0.1453561038 -0.6001529098
-0.1216833815 -0.1450411975 -0.5992328525
-0.1203945205 -0.1447218508 -0.5983092785
-0.1190819517 -0.1438695639 -0.5965338349
-0.1177846044 -0.1430116296 -0.5947555900
-0.1165493652 -0.1432077587 -0.5946700573
-0.1152943596 -0.1428704113 -0.5937330723
-0.1140468940 -0.1425287724 -0.5927929282
-0.1128069982 -0.1421828568 -0.5918494463
-0.1115826294 -0.1423649490 -0.5917494893
-0.1103540584 -0.1420111656 -0.5907992125
-0.1091332957 -0.1421865076 -0.5906918049
-0.1079124287 -0.1423587948 -0.5905805826
-0.1066839024 -0.1430623978 -0.5913107395
-0.1054589972 -0.1432290673 -0.5911915898
-0.1042340621 -0.1433926672 -0.5910685062
-0.1030090675 -0.1435531825 -0.5909416080
-0.1018071622 -0.1431741714 -0.5899673104
-0.1006130055 -0.1427910924 -0.5889899731
-0.0993957743 -0.1429413855 -0.5888524652
-0.0982133225 -0.1425507516 -0.5878688693
-0.0969615355 -0.1432327628 -0.5885661840
-0.0957869664 -0.1428350508 -0.5875759125
-0.0945739150 -0.1429726034 -0.5874236822
-0.0933610052 -0.1431070715 -0.5872678161
-0.0921482071 -0.1432384700 -0.5871081352
-0.0909935310 -0.1428263038 -0.5861052871
-0.0897231326 -0.1434920430 -0.5867773890
-0.0885765776 -0.1430729330 -0.5857681632
-0.0874379650 -0.1426500082 -0.5847562551
-0.0860870034 -0.1438492686 -0.5862531662
-0.0849527419 -0.1434198171 -0.5852342844
-0.0838265270 -0.1429865509 -0.5842128396
-0.0827082917 -0.1425495595 -0.5831889510
-0.1273411363 -0.1494601220 -0.6056023240
-0.1258528680 -0.1475726217 -0.6021521091
-0.1245370582 -0.1472642571 -0.6012406349
-0.1231417879 -0.1458915919 -0.5986318588
-0.1218880638 -0.1461035758 -0.5985605717
-0.1205983683 -0.1457811892 -0.5976388454
-0.1193161383 -0.1454543769 -0.5967136621
-0.1180134341 -0.1445907652 -0.5949389935
-0.1167741492 -0.1447877437 -0.5948531032
-0.1154942140 -0.1439142078 -0.5930723548
-0.1142459139 -0.1435695142 -0.5921340585
-0.1130051687 -0.1432205141 -0.5911924839
-0.1117720380 -0.1428673267 -0.5902477503
-0.1105511859 -0.1430459321 -0.5901440382
-0.1093301997 -0.1432214528 -0.5900364518
-0.1081060469 -0.1439310759 -0.5907685757
-0.1068810076 -0.1441009939 -0.5906530023
-0.1056558862 -0.1442678869 -0.5905336738
-0.1044454202 -0.1438928992 -0.5895680189
-0.1032240838 -0.1440530568 -0.5894413590
-0.1020027623 -0.1442101598 -0.5893109441
-0.1008077338 -0.1438239664 -0.5883355737
-0.0995903090 -0.1439743936 -0.5881980658
-0.0984070078 -0.1435806155 -0.5872163773
-0.0971556008 -0.1442660391 -0.5879114270
-0.0959383622 -0.1444072276 -0.5877624750
-0.0947212130 -0.1445453465 -0.5876097083
-0.0935537741 -0.1441374272 -0.5866147876
-0.0923942104 -0.1437255740 -0.5856171846
-0.0911852345 -0.1438536197 -0.5854541659
-0.0899764076 -0.1439785659 -0.5852873921
-0.0888328776 -0.1435558796 -0.5842805505
-0.0876283571 -0.1436742991 -0.5841068625
-0.0863512158 -0.1443349570 -0.5847644806
-0.0851432830 -0.1444475800 -0.5845826864
-0.0840161964 -0.1440111101 -0.5835632086
-0.0828126743 -0.1441172361 -0.5833745003
-0.1274964064 -0.1500136405 -0.6040645838
-0.1260092407 -0.1481126547 -0.6006225348
-0.1246964559 -0.1478006244 -0.5997132659
-0.1233470216 -0.1469509304 -0.5979555845
-0.1220931038 -0.1471631229 -0.5978841186
-0.1208025664 -0.1468377411 -0.5969642401
-0.1195519343 -0.1470430195 -0.5968850851
-0.1182438880 -0.1461737007 -0.5951142311
-0.1169758216 -0.1458351463 -0.5941841602
-0.1156944409 -0.1449552625 -0.5924074650
-0.1144452915 -0.1446075141 -0.5914710760
-0.1132037267 -0.1442554891 -0.5905314684
-0.1119881347 -0.1449766159 -0.5912734866
-0.1107540056 -0.1446172893 -0.5903267860
-0.1095303819 -0.1453334242 -0.5910605192
-0.1083013415 -0.1455071568 -0.5909482241
-0.1070785075 -0.1451368481 -0.5899911523
-0.1058531702 -0.1453038752 -0.5898715854
-0.1046418697 -0.1449258029 -0.5889079571
-0.1034203321 -0.1450861692 -0.5887811780
-0.1022206172 -0.1447003931 -0.5878111720
-0.1010286286 -0.1443105787 -0.5868382454
-0.0997852758 -0.1450046748 -0.5875395536
-0.0986011401 -0.1446077079 -0.5865598321
-0.0973501131 -0.1452965587 -0.5872526765
-0.0961326584 -0.1454379112 -0.5871036053
-0.0949152932 -0.1455761045 -0.5869506598
-0.0937470198 -0.1451650560 -0.5859578252
-0.0925337747 -0.1452966928 -0.5857979059
-0.0913774148 -0.1448781937 -0.5847990513
-0.0901683569 -0.1450032592 -0.5846320987
-0.0890239924 -0.1445773691 -0.5836273432
-0.0878192261 -0.1446959078 -0.5834535360
-0.0866146982 -0.1448113024 -0.5832759142
-0.0853343084 -0.1454726607 -0.5839270353
-0.0841264203 -0.1455822885 -0.5837414265
-0.0829188079 -0.1456888169 -0.5835520625
-0.1289867908 -0.1508623660 -0.6034272909
-0.1275943965 -0.1500233561 -0.6016834378
-0.1261647046 -0.1486433148 -0.5990930796
-0.1248063818 -0.1477918178 -0.5973429084
-0.1234631911 -0.1469345242 -0.5955896378
-0.1222168207 -0.1471456587 -0.5955183506
-0.1209701374 -0.1473536938 -0.5954432487
-0.1196901128 -0.1470202208 -0.5945221186
-0.1184175685 -0.1466823518 -0.5935975909
-0.1171525344 -0.1463401467 -0.5926696658
-0.1158735752 -0.1454533637 -0.5908972621
-0.1146274731 -0.1451019049 -0.5899630785
-0.1134026572 -0.1452876329 -0.5898663402
-0.1121874824 -0.1460122615 -0.5906060934
-0.1109584570 -0.1461923718 -0.5905013084
-0.1097293198 -0.1463694274 -0.5903928280
-0.1085000709 -0.1465433687 -0.5902804136
-0.1072764173 -0.1461699754 -0.5893252492
-0.1060604379 -0.1457924396 -0.5883669853
-0.1048387215 -0.1459560245 -0.5882439017
-0.1036343053 -0.1455707401 -0.5872792006
-0.1024164259 -0.1457276493 -0.5871489644
-0.1011985391 -0.1458814442 -0.5870148540
-0.0999806896 -0.1460321546 -0.5868769884
-0.0987628624 -0.1461798400 -0.5867353082
-0.0975083858 -0.1468725502 -0.5874254107
-0.0963274017 -0.1464658529 -0.5864406228
-0.0951098427 -0.1466042250 -0.5862876773
-0.0938923657 -0.1467394531 -0.5861308575
-0.0927272663 -0.1463217288 -0.5851367712
-0.0915700495 -0.1459000409 -0.5841398239
-0.0903607979 -0.1460251957 -0.5839729309
-0.0892155990 -0.1455961466 -0.5829700828
-0.0880783349 -0.1451632828 -0.5819647908
-0.0868058428 -0.1458302885 -0.5826184750
-0.0856013298 -0.1459427178 -0.5824370980
-0.0843177214 -0.1466046721 -0.5830817223
-0.0831099078 -0.1467112899 -0.5828922391
-0.1291370839 -0.1514008045 -0.6018874049
-0.1277471036 -0.1505548656 -0.6001476049
-0.1263191551 -0.1491646320 -0.5975636244
-0.1249632612 -0.1483062208 -0.5958176851
-0.1237131357 -0.1485214233 -0.5957499146
-0.1224212572 -0.1481930763 -0.5948377252
-0.1211743876 -0.1484013498 -0.5947624445
-0.1199272424 -0.1486064494 -0.5946831703
-0.1186499968 -0.1482661963 -0.5937602520
-0.1173802540 -0.1479215622 -0.5928341150
-0.1160959601 -0.1470291018 -0.5910654664
-0.1148451641 -0.1466752142 -0.5901328921
-0.1136019528 -0.1463170499 -0.5891972184
-0.1123872027 -0.1470451504 -0.5899347067
-0.1111580059 -0.1472254544 -0.5898297429
-0.1099313498 -0.1479490399 -0.5905585289
-0.1086980179 -0.1481236815 -0.5904455781
-0.1074696630 -0.1477477998 -0.5894921422
-0.1062489673 -0.1473677009 -0.5885354280
-0.1050231829 -0.1475319713 -0.5884118080
-0.1038140580 -0.1471440792 -0.5874487162
-0.1025920883 -0.1473016441 -0.5873178840
-0.1013945788 -0.1469060779 -0.5863483548
-0.1001481786 -0.1476074457 -0.5870447755
-0.0989584923 -0.1472047418 -0.5860686302
-0.0977405161 -0.1473494321 -0.5859230161
-0.0964826494 -0.1480429024 -0.5866066813
-0.0953048468 -0.1476294696 -0.5856205821
-0.0940871611 -0.1477648914 -0.5854637027
-0.0928696021 -0.1478971988 -0.5853030682
-0.0917076990 -0.1474727392 -0.5843076706
-0.0905537158 -0.1470444351 -0.5833096504
-0.0893444270 -0.1471666098 -0.5831387639
-0.0882024765 -0.1467308998 -0.5821348429
-0.0869974867 -0.1468465030 -0.5819570422
-0.0857927725 -0.1469590515 -0.5817756653
-0.0845095664 -0.1476243436 -0.5824179649
-0.0833015069 -0.1477310210 -0.5822284222
-0.0820937455 -0.1478346437 -0.5820351839
-0.1279563755 -0.1516179144 -0.5994510651
-0.1265800595 -0.1507598162 -0.5977120996
-0.1252188534 -0.1498958468 -0.5959700346
-0.1239646524 -0.1501119286 -0.5959018469
-0.1226680949 -0.1497812718 -0.5949914455
-0.1214171574 -0.1499904245 -0.5949155688
-0.1201316193 -0.1496515125 -0.5939980745
-0.1188535467 -0.1493082792 -0.5930771828
-0.1176095828 -0.1495067328 -0.5929902196
-0.1163199767 -0.1486085951 -0.5912253261
-0.1150644869 -0.1482522339 -0.5902944803
-0.1138165519 -0.1478916258 -0.5893604159
-0.1125983819 -0.1486237347 -0.5900952816
-0.1113578901 -0.1482557207 -0.5891540647
-0.1101316959 -0.1489827782 -0.5898805857
-0.1088981703 -0.1491575688 -0.5897675157
-0.1076645479 -0.1493293345 -0.5896506310
-0.1064391509 -0.1489467025 -0.5886955261
-0.1052092910 -0.1491116434 -0.5885713696
-0.1039954647 -0.1487212032 -0.5876098871
-0.1027694121 -0.1488793939 -0.5874784589
-0.1015433744 -0.1490344852 -0.5873432755
-0.1003173441 -0.1491864771 -0.5872042775
-0.0991229564 -0.1487810910 -0.5862296820
-0.0979009122 -0.1489263922 -0.5860835314
-0.0966789275 -0.1490685642 -0.5859335661
-0.0954570696 -0.1492076218 -0.5857798457
-0.0941881761 -0.1498995870 -0.5864522457
-0.0930136666 -0.1494763494 -0.5854610801
-0.0917921886 -0.1496060789 -0.5852960348
-0.0906296223 -0.1491753757 -0.5842989087
-0.0894749910 -0.1487408131 -0.5832991004
-0.0883283317 -0.1483023316 -0.5822967291
-0.0871192738 -0.1484183967 -0.5821183324
-0.0859104469 -0.1485313773 -0.5819361806
-0.0847019032 -0.1486412436 -0.5817502737
-0.0834116414 -0.1493074596 -0.5823854804
-0.0821997970 -0.1494114548 -0.5821915865
-0.1281660050 -0.1526780427 -0.5987502337
-0.1268425435 -0.1523585916 -0.5978521109
-0.1254255474 -0.1509435624 -0.5952773690
-0.1241246015 -0.1506137550 -0.5943725705
-0.1228310838 -0.1502793878 -0.5934643149
-0.1215838417 -0.1504881382 -0.5933885574
-0.1203363314 -0.1506937593 -0.5933089256
-0.1190574542 -0.1503474414 -0.5923900008
-0.1178133041 -0.1505461186 -0.5923027992
-0.1165222377 -0.1496417522 -0.5905420184
-0.1152854040 -0.1498329341 -0.5904476643
-0.1140327826 -0.1494698524 -0.5895152092
-0.1127994731 -0.1496542394 -0.5894135237
-0.1115660146 -0.1498355120 -0.5893080235
-0.1103363633 -0.1505665332 -0.5900318027
-0.1090987846 -0.1507420838 -0.5899182558
-0.1078648865 -0.1503605694 -0.5889682770
-0.1066310182 -0.1505293399 -0.5888473392
-0.1054086313 -0.1501399875 -0.5878908634
-0.1041785404 -0.1503019780 -0.5877628326
-0.1029484197 -0.1504608542 -0.5876308084
-0.1017182991 -0.1506165862 -0.5874950290
-0.1005152985 -0.1502121985 -0.5865253806
-0.0992891118 -0.1503611803 -0.5863824487
-0.0980978310 -0.1499491036 -0.5854064822
-0.0968756676 -0.1500914246 -0.5852565169
-0.0956535786 -0.1502306014 -0.5851026773
-0.0943851396 -0.1509259194 -0.5857727528
-0.0932097957 -0.1504995674 -0.5847836137
-0.0919881091 -0.1506294161 -0.5846184492
-0.0908247083 -0.1501955986 -0.5836234689
-0.0896692649 -0.1497578472 -0.5826257467
-0.0885217786 -0.1493162364 -0.5816253424
-0.0873125121 -0.1494323760 -0.5814468265
-0.0860298723 -0.1501074284 -0.5820884705
-0.0848172456 -0.1502177268 -0.5819019079
-0.0836048871 -0.1503249109 -0.5817115903
-0.0823928341 -0.1504289806 -0.5815175772
-0.0810919926 -0.1510932595 -0.5821412802
-0.0450709313 -0.1520986259 -0.5736716986
-0.0438784249 -0.1521021277 -0.5733602643
-0.0424747281 -0.1526708156 -0.5738400817
-0.0417120866 -0.1515312493 -0.5719324946
-0.0377027020 -0.1526404917 -0.5725396276
-0.0365122259 -0.1526249796 -0.5722054243
-0.1283759028 -0.1537353247 -0.5980452299
-0.1270516217 -0.1534128636 -0.5971490741
-0.1256836504 -0.1525371671 -0.5954149365
-0.1243780330 -0.1522050351 -0.5945119262
-0.1230798140 -0.1518683881 -0.5936054587
-0.1218285486 -0.1520779878 -0.5935292840
-0.1205769926 -0.1522844434 -0.5934491754
-0.1193251684 -0.1524877548 -0.5933651328
-0.1180730835 -0.1526878923 -0.5932772756
-0.1167728230 -0.1517784745 -0.5915201306
-0.1155079454 -0.1514172554 -0.5905925632
-0.1142506376 -0.1510517597 -0.5896617770
-0.1130009368 -0.1506819129 -0.5887278318
-0.1117672846 -0.1508633792 -0.5886220932
-0.1105381027 -0.1515978575 -0.5893436670
-0.1093010232 -0.1523302495 -0.5900606513
-0.1080592871 -0.1525034010 -0.5899426341
-0.1068245023 -0.1521156877 -0.5889909267
-0.1055974439 -0.1517237425 -0.5880360007
-0.1043780819 -0.1513276696 -0.5870781541
-0.1031477824 -0.1514866948 -0.5869460702
-0.1018949077 -0.1522023082 -0.5876384377
-0.1006871909 -0.1517953128 -0.5866704583
-0.0994569436 -0.1519449502 -0.5865269303
-0.0982267484 -0.1520914435 -0.5863795877
-0.0970347449 -0.1516731232 -0.5854018927
-0.0958085880 -0.1518128812 -0.5852474570
-0.0945366845 -0.1525119692 -0.5859147906
-0.0933566317 -0.1520829499 -0.5849272609
-0.0921308771 -0.1522132605 -0.5847615004
-0.0910202935 -0.1512129456 -0.5829439759
-0.0898026451 -0.1513362229 -0.5827717185
-0.0886504725 -0.1508918256 -0.5817728639
-0.0874371231 -0.1510084420 -0.5815936923
-0.0862240195 -0.1511219591 -0.5814107656
-0.0849343166 -0.1517979354 -0.5820452571
-0.0837178826 -0.1519055367 -0.5818542838
-0.0825017616 -0.1520099640 -0.5816595554
-0.0811974555 -0.1526779085 -0.5822803974
-0.0474496037 -0.1536682248 -0.5744022131
-0.0462512746 -0.1536779851 -0.5740969181
-0.0448499359 -0.1542561352 -0.5745828748
-0.0436495468 -0.1542595327 -0.5742694139
-0.0424501114 -0.1542597413 -0.5739523172
-0.0414669327 -0.1536852270 -0.5728398561
-0.0376619436 -0.1542288512 -0.5726478696
-0.0364673957 -0.1542131901 -0.5723127127
-0.1272054166 -0.1539129913 -0.5956094861
-0.1258915961 -0.1535823792 -0.5947118998
-0.1245851740 -0.1532472372 -0.5938107967
-0.1233301684 -0.1534608752 -0.5937381387
-0.1220748499 -0.1536713839 -0.5936614871
-0.1208192483 -0.1538787335 -0.5935809612
-0.1195633709 -0.1540828794 -0.5934965014
-0.1183072701 -0.1542838514 -0.5934081674
-0.1170016751 -0.1533688009 -0.5916548371
-0.1157113835 -0.1524481624 -0.5898987651
-0.1144364104 -0.1515219957 -0.5881400704
-0.1132157221 -0.1522649825 -0.5888676643
-0.1119689271 -0.1518884599 -0.5879321098
-0.1107402071 -0.1526263058 -0.5886513591
-0.1095035896 -0.1533621103 -0.5893660188
-0.1082616821 -0.1535354257 -0.5892478824
-0.1070196778 -0.1537055820 -0.5891259909
-0.1057776138 -0.1538726389 -0.5890001655
-0.1045496836 -0.1534744948 -0.5880435705
-0.1033114269 -0.1536346823 -0.5879104137
-0.1020731851 -0.1537917107 -0.5877735615
-0.1008607745 -0.1533820778 -0.5868070126
-0.0996561870 -0.1529683769 -0.5858377218
-0.0984257907 -0.1531149894 -0.5856902599
-0.0971954837 -0.1532584429 -0.5855389833
-0.0960066244 -0.1528334618 -0.5845600963
-0.0947804004 -0.1529701948 -0.5844017863
-0.0935052112 -0.1536699086 -0.5850624442
-0.0923283622 -0.1532342285 -0.5840737820
-0.0911594555 -0.1527945250 -0.5830823183
-0.0899377391 -0.1529182494 -0.5829093456
-0.0887808725 -0.1524711102 -0.5819121003
-0.0875634551 -0.1525881737 -0.5817322135
-0.0863462985 -0.1527021378 -0.5815486908
-0.0851293951 -0.1528129429 -0.5813613534
-0.0838326216 -0.1534897685 -0.5819885731
-0.0826964453 -0.1530251503 -0.5809755325
-0.0814804360 -0.1531265378 -0.5807770491
-0.0634371638 -0.1536954343 -0.5765475631
-0.0584618710 -0.1544534117 -0.5763006806
-0.0536435358 -0.1545871794 -0.5751890540
-0.0524408557 -0.1546127200 -0.5749019384
-0.0514231212 -0.1540604085 -0.5738139153
-0.0502258502 -0.1540795416 -0.5735204816
-0.0488375649 -0.1546702534 -0.5740190148
-0.0476381332 -0.1546830684 -0.5737174749
-0.0464395620 -0.1546927243 -0.5734122992
-0.0450385623 -0.1552740484 -0.5738961101
-0.0438379981 -0.1552773565 -0.5735826492
-0.0428492166 -0.1547026485 -0.5724750161
-0.0416542925 -0.1546995789 -0.5721553564
-0.0404603146 -0.1546933651 -0.5718321800
-0.0390450209 -0.1552587301 -0.5722929239
-0.0378492139 -0.1552461237 -0.5719614029
-0.0366544425 -0.1552303135 -0.5716263652
-0.0352269895 -0.1557859927 -0.5720720291
-0.1274144650 -0.1549582183 -0.5949003100
-0.1260474473 -0.1540695131 -0.5931746364
-0.1247441098 -0.1537307352 -0.5922757387
-0.1234928295 -0.1539440006 -0.5922030807
-0.1222412363 -0.1541540474 -0.5921264291
-0.1210262403 -0.1549187452 -0.5928751826
-0.1197371855 -0.1545647383 -0.5919616222
-0.1184847727 -0.1547652781 -0.5918733478
-0.1172068939 -0.1544030160 -0.5909528136
-0.1159365401 -0.1540364623 -0.5900290608
-0.1146562472 -0.1531046480 -0.5882741809
-0.1134185418 -0.1532902122 -0.5881717205
-0.1121709496 -0.1529106200 -0.5872381926
-0.1109368354 -0.1530893147 -0.5871283412
-0.1097045690 -0.1538280249 -0.5878410935
-0.1084663644 -0.1540009528 -0.5877231359
-0.1072280630 -0.1541707963 -0.5876014233
-0.1059897020 -0.1543374509 -0.5874758959
-0.1047512963 -0.1545009315 -0.5873464942
-0.1035303250 -0.1540955454 -0.5863887668
-0.1022957787 -0.1542522013 -0.5862522125
-0.1010864452 -0.1538390815 -0.5852883458
-0.0998849198 -0.1534218043 -0.5843213797
-0.0986252800 -0.1541357189 -0.5849969387
-0.0974316224 -0.1537111998 -0.5840234160
-0.0962051228 -0.1538512111 -0.5838687420
-0.0949787199 -0.1539880484 -0.5837102532
-0.0937524363 -0.1541217417 -0.5835480690
-0.0925786644 -0.1536825001 -0.5825619102
-0.0913565978 -0.1538094729 -0.5823926926
-0.0901346877 -0.1539332867 -0.5822196603
-0.0889770016 -0.1534830481 -0.5812245011
-0.0877594128 -0.1536002010 -0.5810445547
-0.0865420625 -0.1537142396 -0.5808608532
-0.0853249505 -0.1538251042 -0.5806735158
-0.0840286314 -0.1545052528 -0.5812984705
-0.0828082412 -0.1546101719 -0.5811029673
-0.0815881714 -0.1547119021 -0.5809037685
-0.0803684518 -0.1548105478 -0.5807008147
-0.0648338571 -0.1546510160 -0.5761143565
-0.0625728965 -0.1541787088 -0.5748009682
-0.0613726489 -0.1542260796 -0.5745411515
-0.0601730905 -0.1542703062 -0.5742778182
-0.0588136166 -0.1548886448 -0.5748112798
-0.0576115660 -0.1549266875 -0.5745397806
-0.0562419854 -0.1555391103 -0.5750634074
-0.0550375544 -0.1555709094 -0.5747836828
-0.0538338460 -0.1555995643 -0.5745003819
-0.0528106727 -0.1550472528 -0.5734171271
-0.0517959706 -0.1544915885 -0.5723322034
-0.0506022982 -0.1545105577 -0.5720397830
-0.0492182113 -0.1551043540 -0.5725370646
-0.0480223969 -0.1551170498 -0.5722364783
-0.0466285311 -0.1557046473 -0.5727237463
-0.0454306193 -0.1557110399 -0.5724150538
-0.0442336127 -0.1557142586 -0.5721026063
-0.0432478376 -0.1551361978 -0.5709981918
-0.0420564972 -0.1551330388 -0.5706796646
-0.0408661291 -0.1551266909 -0.5703574419
-0.0394549742 -0.1556952596 -0.5708170533
-0.0380372256 -0.1562604904 -0.5712710619
-0.0368422270 -0.1562445909 -0.5709360838
-0.0356482528 -0.1562254876 -0.5705974698
-0.0344552882 -0.1562031657 -0.5702553391
-0.0335041136 -0.1555999368 -0.5691296458
-0.0323171206 -0.1555713117 -0.5687813759
-0.0313794799 -0.1549620032 -0.5676519275
-0.0301984642 -0.1549271345 -0.5672976971
-0.1276807040 -0.1565581858 -0.5950151682
-0.1263083667 -0.1556639969 -0.5932934284
-0.1250003874 -0.1553229541 -0.5923963189
-0.1237450615 -0.1555370837 -0.5923231840
-0.1224894449 -0.1557480693 -0.5922461748
-0.1212710664 -0.1565168053 -0.5929922462
-0.1199773476 -0.1561604440 -0.5920804143
-0.1186911240 -0.1557996422 -0.5911653042
-0.1174124554 -0.1554343849 -0.5902467370
-0.1161412969 -0.1550648063 -0.5893250704
-0.1148777083 -0.1546908170 -0.5883999467
-0.1136359498 -0.1548771709 -0.5882969499
-0.1123836860 -0.1544951200 -0.5873651505
-0.1111455336 -0.1546745747 -0.5872547626
-0.1099046394 -0.1542845815 -0.5863164067
-0.1086688787 -0.1550240219 -0.5870225430
-0.1074304208 -0.1551939845 -0.5869006515
-0.1062009111 -0.1547928900 -0.5859519243
-0.1049662381 -0.1549560428 -0.5858227611
-0.1037315354 -0.1551160216 -0.5856897831
-0.1024968252 -0.1552728564 -0.5855531693
-0.1012621373 -0.1554265469 -0.5854125619
-0.1000274718 -0.1555770189 -0.5852681398
-0.0987928510 -0.1557243764 -0.5851200223
-0.0975945294 -0.1552972794 -0.5841481686
-0.0964040533 -0.1548660845 -0.5831733942
-0.0951774716 -0.1550030410 -0.5830147862
-0.0939510167 -0.1551368684 -0.5828525424
-0.0927764624 -0.1546945274 -0.5818684697
-0.0915542021 -0.1548215896 -0.5816991329
-0.0903321132 -0.1549455225 -0.5815260410
-0.0891102329 -0.1550662965 -0.5813491940
-0.0879558474 -0.1546093673 -0.5803529024
-0.0867383033 -0.1547234803 -0.5801691413
-0.0854460225 -0.1554096937 -0.5807961822
-0.0842251554 -0.1555178612 -0.5806044340
-0.0830045715 -0.1556228399 -0.5804088712
-0.0817843005 -0.1557246745 -0.5802095532
-0.0698539391 -0.1554106176 -0.5764005184
-0.0686461255 -0.1554771066 -0.5761619210
-0.0673058480 -0.1561198235 -0.5767237544
-0.0660953000 -0.1561801732 -0.5764769316
-0.0648853332 -0.1562373936 -0.5762265921
-0.0635313690 -0.1568712592 -0.5767741799
-0.0624671765 -0.1563422233 -0.5757147074
-0.0614113398 -0.1558096260 -0.5746530890
-0.0602077357 -0.1558539718 -0.5743887424
-0.0590048097 -0.1558951437 -0.5741208792
-0.0578025468 -0.1559331715 -0.5738493800
-0.0566009842 -0.1559679806 -0.5735741258
-0.0552287064 -0.1565804780 -0.5740910769
-0.0540248007 -0.1566090733 -0.5738077164
-0.0530008115 -0.1560534537 -0.5727267861
-0.0518023074 -0.1560755819 -0.5724370480
-0.0506045856 -0.1560945809 -0.5721437335
-0.0492170639 -0.1566915959 -0.5726379752
-0.0480172075 -0.1567042321 -0.5723364353
-0.0468181968 -0.1567137241 -0.5720313191
-0.0456201024 -0.1567199826 -0.5717226267
-0.0444228537 -0.1567231268 -0.5714102983
-0.0434362814 -0.1561417431 -0.5703081489
-0.0422447100 -0.1561384797 -0.5699896216
-0.0408367626 -0.1567132920 -0.5704516768
-0.0394221991 -0.1572849154 -0.5709081292
-0.0380010530 -0.1578532010 -0.5713587999
-0.0370307639 -0.1572559625 -0.5702418089
-0.0356040224 -0.1578178108 -0.5706832409
-0.0346433856 -0.1572142690 -0.5695612431
-0.0336913690 -0.1566077024 -0.5684378147
-0.0325041711 -0.1565789729 -0.5680897832
-0.0313180462 -0.1565469950 -0.5677379966
-0.0301330630 -0.1565118730 -0.5673828125
-0.0292043630 -0.1558930427 -0.5662507415
-0.1266245544 -0.1578235030 -0.5942294598
-0.1252582520 -0.1569186002 -0.5925083756
-0.1239989176 -0.1571336538 -0.5924348831
-0.1227392703 -0.1573454887 -0.5923573971
-0.1214793175 -0.1575541496 -0.5922760367
-0.1201848313 -0.1571947932 -0.5913663507
-0.1188978180 -0.1568310112 -0.5904531479
-0.1176183298 -0.1564628035 -0.5895366669
-0.1163463965 -0.1560902148 -0.5886169076
-0.1150632575 -0.1551460475 -0.5868706107
-0.1138401255 -0.1558997482 -0.5875906944
-0.1125870571 -0.1555147618 -0.5866610408
-0.1113416031 -0.1551254392 -0.5857280493
-0.1101070568 -0.1553013474 -0.5856140852
-0.1088711396 -0.1566141993 -0.5871394873
-0.1076331511 -0.1562143266 -0.5861958265
-0.1064028740 -0.1558101773 -0.5852491856
-0.1051680222 -0.1559734941 -0.5851199031
-0.1039331630 -0.1561336219 -0.5849868655
-0.1027183533 -0.1557179987 -0.5840303898
-0.1014634296 -0.1564444304 -0.5847092867
-0.1002286002 -0.1565950364 -0.5845648050
-0.0989938229 -0.1567425132 -0.5844165683
-0.0977947041 -0.1563123465 -0.5834467411
-0.0966034159 -0.1558780819 -0.5824741125
-0.0954200327 -0.1554397941 -0.5814986229
-0.0941972807 -0.1555732936 -0.5813367367
-0.0929746851 -0.1557036191 -0.5811710358
-0.0917522535 -0.1558307856 -0.5810016394
-0.0905299932 -0.1559548378 -0.5808284283
-0.0893079564 -0.1560757160 -0.5806515217
-0.0881527439 -0.1556156874 -0.5796573758
-0.0870055482 -0.1551517248 -0.5786605477
-0.0857919902 -0.1552624106 -0.5784736872
-0.0845004171 -0.1559487432 -0.5790947080
-0.0832835361 -0.1560534835 -0.5788996816
-0.0820669606 -0.1561550349 -0.5787009001
-0.0808507279 -0.1562534571 -0.5784984827
-0.0723480433 -0.1568536311 -0.5769776106
-0.0711351708 -0.1569266617 -0.5767455697
-0.0700474977 -0.1564143896 -0.5757063627
-0.0688394979 -0.1564808786 -0.5754676461
-0.0674996451 -0.1571267694 -0.5760272145
-0.0662888959 -0.1571871489 -0.5757805109
-0.0649385825 -0.1578272730 -0.5763303041
-0.0637251735 -0.1578814238 -0.5760753751
-0.0626602098 -0.1573491395 -0.5750181079
-0.0616035499 -0.1568133384 -0.5739587545
-0.0603997298 -0.1568576247 -0.5736944675
-0.0591966063 -0.1568987519 -0.5734265447
-0.0579941384 -0.1569367200 -0.5731549859
-0.0567923896 -0.1569715291 -0.5728797913
-0.0555913933 -0.1570031047 -0.5726009607
-0.0543911196 -0.1570315659 -0.5723185539
-0.0531916283 -0.1570567936 -0.5720324516
-0.0519928969 -0.1570789069 -0.5717427731
-0.0506087951 -0.1576821506 -0.5722393990
-0.0492178611 -0.1582822800 -0.5727304220
-0.0480139442 -0.1582949609 -0.5724279881
-0.0470085852 -0.1577198952 -0.5713350177
-0.0456087850 -0.1583105624 -0.5718123317
-0.0446128286 -0.1577291042 -0.5707139969
-0.0436254106 -0.1571444124 -0.5696141124
-0.0422207229 -0.1577255726 -0.5700786114
-0.0410261042 -0.1577190012 -0.5697555542
-0.0396119244 -0.1582936645 -0.5702098012
-0.0381911583 -0.1588650793 -0.5706584454
-0.0369918942 -0.1588488221 -0.5703224540
-0.0357936956 -0.1588293612 -0.5699830055
-0.0348322503 -0.1582224816 -0.5688632131
-0.0338793993 -0.1576126069 -0.5677421689
-0.0326919705 -0.1575836837 -0.5673940778
-0.0315056182 -0.1575515717 -0.5670425296
-0.0303204227 -0.1575163007 -0.5666873455
-0.0291363243 -0.1574778259 -0.5663287044
-0.1255176812 -0.1585177034 -0.5926120281
-0.1242077425 -0.1581676006 -0.5917150378
-0.1229479834 -0.1583796591 -0.5916373730
-0.1216490939 -0.1580212116 -0.5907333493
-0.1203227565 -0.1570902467 -0.5890034437
-0.1190737709 -0.1572908759 -0.5889149308
-0.1177973971 -0.1569190770 -0.5880008936
-0.1165518463 -0.1571127325 -0.5879048109
-0.1153060943 -0.1573032141 -0.5878050327
-0.1140601560 -0.1574904919 -0.5877013206
-0.1128024384 -0.1571030170 -0.5867732167
-0.1115523279 -0.1567112952 -0.5858421922
-0.1103137508 -0.1568879187 -0.5857275724
-0.1090750620 -0.1570613980 -0.5856092572
-0.1078401431 -0.1566579491 -0.5846680999
-0.1066052169 -0.1568245739 -0.5845425129
-0.1053702161 -0.1569880247 -0.5844130516
-0.1041352004 -0.1571483165 -0.5842798948
-0.1029001623 -0.1573054343 -0.5841428638
-0.1016651466 -0.1574594229 -0.5840020776
-0.1004301533 -0.1576101929 -0.5838574767
-0.0992262736 -0.1571805626 -0.5828931332
-0.0980302468 -0.1567468643 -0.5819258690
-0.0968420729 -0.1563090533 -0.5809558034
-0.0956617445 -0.1558672935 -0.5799830556
-0.0943961143 -0.1565794349 -0.5806354880
-0.0931733623 -0.1567098945 -0.5804697275
-0.0919507667 -0.1568371505 -0.5803001523
-0.0906701013 -0.1575414836 -0.5809393525
-0.0895061195 -0.1570822746 -0.5799498558
-0.0883501396 -0.1566191018 -0.5789579153
-0.0871322528 -0.1567333788 -0.5787739158
-0.0859883949 -0.1562627852 -0.5777762532
-0.0847749338 -0.1563704014 -0.5775854588
-0.0834802389 -0.1570572108 -0.5781998634
-0.0822634995 -0.1571588218 -0.5780010819
-0.0809578449 -0.1578402370 -0.5786061287
-0.0797378942 -0.1579358429 -0.5783993006
-0.0737567097 -0.1577814221 -0.5765057206
-0.0725431517 -0.1578576565 -0.5762772560
-0.0713301003 -0.1579307467 -0.5760452151
-0.0702415928 -0.1574152857 -0.5750082135
-0.0690334141 -0.1574817747 -0.5747694969
-0.0676939785 -0.1581308842 -0.5753268003
-0.0664830878 -0.1581912488 -0.5750800371
-0.0652726889 -0.1582483798 -0.5748295784
-0.0639195964 -0.1588886827 -0.5753727555
-0.0628538132 -0.1583531648 -0.5743175745
-0.0617963411 -0.1578141153 -0.5732604861
-0.0605923235 -0.1578584015 -0.5729962587
-0.0593889952 -0.1578995287 -0.5727282763
-0.0581863634 -0.1579374373 -0.5724567175
-0.0569844134 -0.1579721719 -0.5721815228
-0.0557832122 -0.1580037177 -0.5719027519
-0.0545827597 -0.1580321193 -0.5716204047
-0.0533830710 -0.1580573022 -0.5713343024
-0.0523658879 -0.1574918330 -0.5702560544
-0.0508004613 -0.1586856842 -0.5715390444
-0.0494099148 -0.1592889577 -0.5720279217
-0.0483990572 -0.1587138772 -0.5709397793
-0.0471996479 -0.1587232053 -0.5706347823
-0.0458002351 -0.1593169570 -0.5711098909
-0.0448034741 -0.1587322354 -0.5700138807
-0.0438152440 -0.1581442356 -0.5689162612
-0.0424109735 -0.1587284654 -0.5693786740
-0.0410000198 -0.1593094170 -0.5698353648
-0.0398023464 -0.1592995077 -0.5695077181
-0.0386056677 -0.1592864394 -0.5691764951
-0.0371825248 -0.1598576307 -0.5696183443
-0.0359840728 -0.1598380655 -0.5692788959
-0.0350218043 -0.1592278183 -0.5681613684
-0.0340681486 -0.1586146355 -0.5670426488
-0.0328805186 -0.1585855335 -0.5666946173
-0.0319403931 -0.1579661816 -0.5655720830
-0.0305085275 -0.1585178524 -0.5659880638
-0.0293242540 -0.1584791839 -0.5656295419
-0.0281411130 -0.1584373862 -0.5652675033
-0.0269591454 -0.1583923399 -0.5649018288
-0.1258297712 -0.1606887579 -0.5935281515
-0.1245113388 -0.1603369862 -0.5926327109
-0.1232003346 -0.1599807143 -0.5917338729
-0.1218967885 -0.1596199572 -0.5908315182
-0.1205651611 -0.1586835384 -0.5891057849
-0.1193121746 -0.1588850021 -0.5890167356
-0.1180311218 -0.1585108340 -0.5881043673
-0.1167815551 -0.1587052792 -0.5880079269
-0.1155317798 -0.1588965505 -0.5879075527
-0.1142818257 -0.1590846330 -0.5878034234
-0.1130317375 -0.1592694819 -0.5876953602
-0.1117730662 -0.1588758677 -0.5867655873
-0.1105220690 -0.1584779322 -0.5858326554
-0.1092793271 -0.1586521417 -0.5857137442
-0.1080397815 -0.1582462043 -0.5847743154
-0.1068079323 -0.1578360200 -0.5838317871
-0.1055837944 -0.1574216634 -0.5828863382
-0.1043525115 -0.1575815827 -0.5827533603
-0.1031212136 -0.1577384025 -0.5826166868
-0.1018899158 -0.1578919739 -0.5824761987
-0.1006586626 -0.1580424309 -0.5823319554
-0.0994274542 -0.1581897140 -0.5821838975
-0.0982306227 -0.1577529311 -0.5812187195
-0.0970416516 -0.1573120505 -0.5802507401
-0.0958184674 -0.1574489325 -0.5800924301
-0.0945494622 -0.1581648141 -0.5807420611
-0.0933226496 -0.1582957953 -0.5805756450
-0.0920960084 -0.1584236175 -0.5804054737
-0.0908119380 -0.1591316164 -0.5810417533
-0.0896432847 -0.1586696655 -0.5800538659
-0.0884826407 -0.1582037508 -0.5790634751
-0.0872607008 -0.1583184600 -0.5788788199
-0.0861121789 -0.1578451395 -0.5778827071
-0.0848946646 -0.1579531729 -0.5776913166
-0.0835965723 -0.1586435735 -0.5783027411
-0.0823757723 -0.1587455273 -0.5781032443
-0.0811553225 -0.1588443518 -0.5778999925
-0.0799352303 -0.1589400023 -0.5776931047
-0.0787155107 -0.1590324491 -0.5774824023
-0.0775964111 -0.1585347056 -0.5764647126
-0.0762772411 -0.1592078209 -0.5770500302
-0.0750587434 -0.1592906862 -0.5768282413
-0.0739525333 -0.1587825716 -0.5758016109
-0.0727388039 -0.1588588357 -0.5755731463
-0.0714059845 -0.1595202386 -0.5761407614
-0.0704362839 -0.1584132910 -0.5743062496
-0.0691006258 -0.1590685695 -0.5748656988
-0.0677577779 -0.1597210020 -0.5754199624
-0.0665428042 -0.1597815752 -0.5751724243
-0.0653284118 -0.1598388851 -0.5749210715
-0.0641146079 -0.1598930210 -0.5746660829
-0.0630480275 -0.1593543142 -0.5736132860
-0.0618393011 -0.1594018787 -0.5733518004
-0.0607855693 -0.1588563025 -0.5722940564
-0.0595820509 -0.1588973552 -0.5720261931
-0.0585411936 -0.1583449990 -0.5709638596
-0.0573428907 -0.1583795846 -0.5706894994
-0.0561453253 -0.1584110111 -0.5704116225
-0.0549485050 -0.1584392488 -0.5701301694
-0.0535751767 -0.1590549201 -0.5706322789
-0.0523760654 -0.1590768397 -0.5703426600
-0.0509927794 -0.1596863121 -0.5708348155
-0.0496026687 -0.1602926850 -0.5713214874
-0.0485909991 -0.1597143561 -0.5702356100
-0.0473913699 -0.1597235650 -0.5699306726
-0.0459923930 -0.1603204459 -0.5704035163
-0.0449948125 -0.1597324014 -0.5693098903
-0.0440057926 -0.1591411084 -0.5682145357
-0.0426019020 -0.1597284377 -0.5686746836
-0.0411913767 -0.1603124887 -0.5691293478
-0.0399935097 -0.1603024602 -0.5688017011
-0.0387966149 -0.1602892280 -0.5684705973
-0.0373738408 -0.1608635038 -0.5689102411
-0.0361752324 -0.1608437449 -0.5685707331
-0.0352121629 -0.1602302492 -0.5674557090
-0.0342576914 -0.1596136987 -0.5663392544
-0.0330698416 -0.1595844626 -0.5659913421
-0.0321289226 -0.1589617878 -0.5648710728
-0.0309470724 -0.1589263082 -0.5645172596
-0.0295129735 -0.1594776511 -0.5649265647
-0.0283295941 -0.1594356894 -0.5645645857
-0.0274083409 -0.1588006616 -0.5634347200
-0.0259664375 -0.1593420655 -0.5638300180
-0.1247699335 -0.1619437039 -0.5927188396
-0.1234542876 -0.1615851372 -0.5918217301
-0.1221461073 -0.1612220854 -0.5909212828
-0.1208091602 -0.1602801681 -0.5891994238
-0.1195198074 -0.1599075347 -0.5882925391
-0.1182380021 -0.1595304012 -0.5873821378
-0.1169883013 -0.1597250402 -0.5872855186
-0.1157383993 -0.1599165201 -0.5871850252
-0.1144883111 -0.1601048112 -0.5870806575
-0.1132380813 -0.1602898538 -0.5869724751
-0.1119876951 -0.1604717076 -0.5868604183
-0.1107320115 -0.1600713730 -0.5859292746
-0.1094852611 -0.1602462977 -0.5858098865
-0.1082436666 -0.1592577398 -0.5840576291
-0.1070110127 -0.1588445604 -0.5831171870
-0.1057757437 -0.1590083241 -0.5829874873
-0.1045404151 -0.1591689289 -0.5828540325
-0.1033232361 -0.1587441862 -0.5819038749
-0.1020697877 -0.1594805866 -0.5825756788
-0.1008345038 -0.1596316397 -0.5824308991
-0.0996290520 -0.1591958851 -0.5814706683
-0.0984314457 -0.1587560624 -0.5805076957
-0.0972416773 -0.1583122015 -0.5795419216
-0.0960183665 -0.1584491730 -0.5793834329
-0.0947498009 -0.1591683626 -0.5800306797
-0.0935228467 -0.1592994183 -0.5798642039
-0.0922960639 -0.1594273299 -0.5796939135
-0.0910124704 -0.1601385623 -0.5803278089
-0.0898430422 -0.1596735567 -0.5793421268
-0.0886816010 -0.1592045575 -0.5783538818
-0.0874595121 -0.1593193412 -0.5781691670
-0.0862376988 -0.1594309509 -0.5779807568
-0.0850925073 -0.1589510143 -0.5769837499
-0.0837948769 -0.1596446335 -0.5775929093
-0.0825739428 -0.1597466767 -0.5773932934
-0.0813533291 -0.1598455608 -0.5771900415
-0.0801330656 -0.1599412709 -0.5769830346
-0.0788174272 -0.1606236994 -0.5775740743
-0.0776936784 -0.1601230651 -0.5765579343
-0.0764745772 -0.1602091938 -0.5763397813
-0.0752559006 -0.1602920890 -0.5761179924
-0.0740376785 -0.1603718251 -0.5758925080
-0.0728199258 -0.1604483575 -0.5756632686
-0.0716026500 -0.1605216861 -0.5754303932
-0.0705086961 -0.1600001007 -0.5743970871
-0.0692963079 -0.1600667983 -0.5741575360
-0.0679539070 -0.1607224792 -0.5747095942
-0.0667387918 -0.1607830077 -0.5744619370
-0.0655242130 -0.1608403027 -0.5742106438
-0.0643102378 -0.1608944088 -0.5739556551
-0.0630968884 -0.1609453410 -0.5736969709
-0.0618841387 -0.1609930396 -0.5734346509
-0.0608257428 -0.1604444236 -0.5723784566
-0.0596181899 -0.1604855806 -0.5721096992
-0.0584113374 -0.1605235338 -0.5718373656
-0.0573703907 -0.1599647850 -0.5707736015
-0.0561687909 -0.1599962115 -0.5704947710
-0.0547950976 -0.1606181860 -0.5709983110
-0.0535912067 -0.1606433541 -0.5707113743
-0.0523880683 -0.1606652886 -0.5704208612
-0.0510014035 -0.1612779349 -0.5709098577
-0.0497960784 -0.1612935066 -0.5706111193
-0.0487835817 -0.1607118994 -0.5695276260
-0.0475837886 -0.1607210338 -0.5692226291
-0.0461852141 -0.1613209844 -0.5696933866
-0.0451868251 -0.1607296914 -0.5686020255
-0.0439897440 -0.1607291847 -0.5682862997
-0.0425824523 -0.1613195240 -0.5687432289
-0.0413834602 -0.1613125801 -0.5684192777
-0.0399666689 -0.1618964374 -0.5688660145
-0.0387658216 -0.1618830711 -0.5685338378
-0.0373396315 -0.1624603122 -0.5689702034
-0.0363671221 -0.1618465781 -0.5678589344
-0.0351693630 -0.1618234813 -0.5675160289
-0.0342103057 -0.1612035334 -0.5664007664
-0.0330184512 -0.1611740887 -0.5660519004
-0.0320729539 -0.1605479419 -0.5649328828
-0.0308871102 -0.1605121940 -0.5645780563
-0.0297023971 -0.1604732275 -0.5642197132
-0.0285188761 -0.1604310572 -0.5638577938
-0.0273364540 -0.1603856683 -0.5634923577
-0.0258912165 -0.1609298736 -0.5638843179
-0.0247074496 -0.1608779281 -0.5635107160
-0.0237965267 -0.1602303088 -0.5623751283
-0.0220683198 -0.1613566428 -0.5635101199
-0.1250786334 -0.1641292274 -0.5936127305
-0.1237098202 -0.1631928533 -0.5919011831
-0.1223969981 -0.1628275067 -0.5910024047
-0.1210547611 -0.1618801206 -0.5892846584
-0.1197607815 -0.1615051478 -0.5883795023
-0.1184743270 -0.1611257046 -0.5874710083
-0.1172206029 -0.1613211632 -0.5873739123
-0.1159453616 -0.1609334797 -0.5864584446
-0.1147126183 -0.1617024541 -0.5871680379
-0.1134447679 -0.1613072306 -0.5862455964
-0.1121942475 -0.1614892632 -0.5861334205
-0.1109378114 -0.1610859036 -0.5852043033
-0.1096909270 -0.1612610221 -0.5850847960
-0.1084459499 -0.1608495861 -0.5841491222
-0.1072028056 -0.1610177606 -0.5840222836
-0.1059693396 -0.1605983675 -0.5830802321
-0.1047436297 -0.1601748019 -0.5821351409
-0.1035256609 -0.1597470492 -0.5811871290
-0.1022941098 -0.1599009335 -0.5810464025
-0.1010878384 -0.1594653577 -0.5800921321
-0.0998602137 -0.1596124172 -0.5799443126
-0.0986657143 -0.1591690928 -0.5789839625
-0.0974421427 -0.1593093574 -0.5788291097
-0.0962186679 -0.1594464332 -0.5786704421
-0.0949506164 -0.1601689458 -0.5793153644
-0.0937235281 -0.1603000760 -0.5791487694
-0.0924965665 -0.1604280919 -0.5789784193
-0.0912698209 -0.1605528593 -0.5788043737
-0.0901034847 -0.1600843668 -0.5778214335
-0.0889451206 -0.1596119404 -0.5768358707
-0.0876587927 -0.1603172719 -0.5774556398
-0.0865086839 -0.1598377675 -0.5764638782
-0.0852908567 -0.1599459052 -0.5762723088
-0.0839937031 -0.1606427729 -0.5768790841
-0.0827726126 -0.1607449055 -0.5766794682
-0.0815518424 -0.1608438492 -0.5764761567
-0.0803314075 -0.1609395295 -0.5762690306
-0.0790162459 -0.1616252214 -0.5768578053
-0.0778917074 -0.1611214429 -0.5758438706
-0.0766724423 -0.1612075865 -0.5756256580
-0.0754536167 -0.1612905413 -0.5754038692
-0.0742352307 -0.1613702923 -0.5751783252
-0.0731317848 -0.1608524173 -0.5741531253
-0.0717998818 -0.1615201831 -0.5747161508
-0.0707051381 -0.1609954387 -0.5736850500
-0.0694925636 -0.1610621512 -0.5734454989
-0.0682805702 -0.1611256748 -0.5732023120
-0.0670690984 -0.1611859947 -0.5729554296
-0.0659958348 -0.1606474370 -0.5719136000
-0.0646479428 -0.1612970531 -0.5724507570
-0.0634382665 -0.1613477916 -0.5721929669
-0.0622291900 -0.1613953263 -0.5719314814
-0.0610208176 -0.1614396423 -0.5716663599
-0.0598130785 -0.1614807844 -0.5713976026
-0.0586060844 -0.1615186632 -0.5711251497
-0.0573997311 -0.1615533680 -0.5708491802
-0.0561941378 -0.1615848839 -0.5705695748
-0.0549892858 -0.1616131514 -0.5702863336
-0.0537852012 -0.1616382599 -0.5699993968
-0.0525818877 -0.1616601199 -0.5697088838
-0.0513793901 -0.1616788059 -0.5694148540
-0.0501777269 -0.1616942734 -0.5691171288
-0.0489768945 -0.1617065370 -0.5688158274
-0.0475816987 -0.1623127460 -0.5692889094
-0.0463787504 -0.1623185724 -0.5689793229
-0.0453795828 -0.1617240161 -0.5678902864
-0.0441822894 -0.1617234200 -0.5675746202
-0.0429858826 -0.1617196351 -0.5672553778
-0.0415762067 -0.1623097658 -0.5677054524
-0.0403779447 -0.1622995436 -0.5673781037
-0.0391807109 -0.1622860283 -0.5670471191
-0.0377587751 -0.1628663987 -0.5674823523
-0.0365597233 -0.1628464013 -0.5671431422
-0.0355950519 -0.1622262746 -0.5660327077
-0.0344019420 -0.1621998996 -0.5656874180
-0.0332098939 -0.1621702909 -0.5653386116
-0.0325081944 -0.1609442234 -0.5634576082
-0.0313259363 -0.1609084457 -0.5631040335
-0.0298926551 -0.1614658386 -0.5635089874
-0.0287088696 -0.1614234895 -0.5631471872
-0.0275262985 -0.1613779366 -0.5627818704
-0.0258179922 -0.1625210941 -0.5639302135
-0.0246302728 -0.1624687910 -0.5635555983
-0.0234438013 -0.1624132693 -0.5631774068
-0.0219838228 -0.1629499197 -0.5635505915
-0.0207961518 -0.1628877223 -0.5631641746
-0.1240122318 -0.1653831452 -0.5927857161
-0.1226908788 -0.1650161743 -0.5918886065
-0.1213019639 -0.1634833813 -0.5893613696
-0.1200369745 -0.1636873335 -0.5892710686
-0.1187122241 -0.1627243012 -0.5875512362
-0.1174545363 -0.1629205942 -0.5874536633
-0.1161746308 -0.1625305712 -0.5865401030
-0.1149204150 -0.1627197862 -0.5864350796
-0.1136518195 -0.1623215824 -0.5855147839
-0.1124011651 -0.1625038236 -0.5854023695
-0.1111439541 -0.1620974988 -0.5844753981
-0.1098969504 -0.1622727215 -0.5843557119
-0.1086511835 -0.1618583649 -0.5834221840
-0.1074079201 -0.1620266736 -0.5832951665
-0.1061737016 -0.1616043001 -0.5823552608
-0.1049342230 -0.1617657095 -0.5822210908
-0.1037116274 -0.1613354236 -0.5812748075
-0.1024760380 -0.1614899039 -0.5811334848
-0.1012651101 -0.1610518247 -0.5801808834
-0.1000334769 -0.1611994803 -0.5800325274
-0.0988343284 -0.1607535779 -0.5790739059
-0.0976067334 -0.1608944088 -0.5789183974
-0.0963792130 -0.1610320508 -0.5787591934
-0.0951077864 -0.1617581695 -0.5794011950
-0.0939246044 -0.1612977833 -0.5784295797
-0.0926975310 -0.1614258885 -0.5782591105
-0.0914706364 -0.1615507752 -0.5780848861
-0.0903035104 -0.1610792279 -0.5771042109
-0.0890809000 -0.1611973345 -0.5769230723
-0.0877911896 -0.1619062871 -0.5775398612
-0.0866364166 -0.1614240408 -0.5765496492
-0.0854145586 -0.1615325958 -0.5763574243
-0.0841140300 -0.1622330397 -0.5769612789
-0.0828888938 -0.1623355448 -0.5767609477
-0.0817508399 -0.1618391424 -0.5757583380
-0.0804396644 -0.1625309139 -0.5763490796
-0.0792155862 -0.1626237780 -0.5761376023
-0.0780902579 -0.1621168852 -0.5751258731
-0.0768708438 -0.1622030437 -0.5749077201
-0.0756518617 -0.1622860283 -0.5746858716
-0.0744333193 -0.1623657942 -0.5744602084
-0.0732152537 -0.1624423712 -0.5742309093
-0.0718799457 -0.1631135792 -0.5747908950
-0.0707805455 -0.1625858992 -0.5737613440
-0.0696894154 -0.1620545536 -0.5727295876
-0.0684772208 -0.1621180922 -0.5724864006
-0.0672655851 -0.1621783972 -0.5722395182
-0.0661915764 -0.1616366506 -0.5711999536
-0.0649849623 -0.1616904140 -0.5709465742
-0.0636342615 -0.1623400897 -0.5714769959
-0.0624250509 -0.1623876244 -0.5712155104
-0.0612164959 -0.1624318957 -0.5709504485
-0.0598523356 -0.1630725712 -0.5714665055
-0.0586413145 -0.1631105393 -0.5711932778
-0.0572670288 -0.1637451798 -0.5716996193
-0.0562213324 -0.1631768942 -0.5706359148
-0.0550124981 -0.1632052213 -0.5703517795
-0.0538044050 -0.1632303298 -0.5700640082
-0.0527763739 -0.1626520306 -0.5689930916
-0.0515737124 -0.1626706570 -0.5686990023
-0.0503718443 -0.1626860052 -0.5684013963
-0.0489800461 -0.1632985026 -0.5688766837
-0.0477760844 -0.1633074433 -0.5685709119
-0.0463745333 -0.1639136076 -0.5690361857
-0.0451685302 -0.1639161557 -0.5687221885
-0.0441694781 -0.1633150578 -0.5676318407
-0.0429690965 -0.1633111537 -0.5673116446
-0.0415560231 -0.1639043093 -0.5677585006
-0.0403538123 -0.1638939232 -0.5674301982
-0.0389312841 -0.1644805074 -0.5678668022
-0.0375021845 -0.1650637835 -0.5682976842
-0.0365242660 -0.1644433886 -0.5671899319
-0.0353222936 -0.1644199938 -0.5668461919
-0.0341214053 -0.1643932760 -0.5664988160
-0.0329216197 -0.1643633544 -0.5661479235
-0.0319669507 -0.1637304127 -0.5650313497
-0.0310209375 -0.1630944461 -0.5639135242
-0.0298320707 -0.1630550027 -0.5635542870
-0.0286443550 -0.1630123854 -0.5631914139
-0.0271987114 -0.1635657996 -0.5635825396
-0.0257467385 -0.1641156375 -0.5639678240
-0.0242884848 -0.1646619141 -0.5643472075
-0.0230942834 -0.1646058410 -0.5639666915
-0.0216272119 -0.1651450843 -0.5643354058
-0.0207097065 -0.1644839346 -0.5631951690
-0.0195193384 -0.1644180864 -0.5628041625
-0.1230296865 -0.1677974313 -0.5935727954
-0.1216270849 -0.1662573814 -0.5910515785
-0.1203160509 -0.1658790410 -0.5901493430
-0.1113504767 -0.1631060243 -0.5837424994
