0.0380908383 -0.0676609463 -0.4669516063
-0.0065790593 -0.1084157763 -0.4777351307
-0.0689174143 -0.0753379635 -0.4562853233
-0.0303882954 -0.0755830061 -0.4468407252
-0.0748474107 -0.0346384231 -0.5074049329
-0.0538615012 -0.0656997480 -0.4488212648
-0.1708033110 0.1016067032 -0.3883894875
-0.0614192055 -0.0536555934 -0.4609099861
0.0306957359 -0.0519412703 -0.4528747894
-0.0193467238 -0.0454507558 -0.4710226139
-0.0533909834 -0.0751582505 -0.4551510012
0.0211152326 -0.0582115330 -0.4525981097
-0.0550786541 -0.0890468209 -0.4607504394
-0.0746053621 -0.1045849249 -0.4798356704
0.0121604251 -0.0368498340 -0.4708039165
0.0319389274 -0.0931840213 -0.4715164524
0.0339723493 -0.0481497192 -0.4722401354
-0.1840876898 0.0163271250 -0.4201729125
-0.1888064891 0.0193990666 -0.4250773634
-0.1840801266 0.0217372815 -0.4115193484
-0.0008604687 -0.0571961180 -0.2524684885
-0.0148423420 -0.1134894582 -0.4855363079
-0.0256402231 -0.0485547347 -0.4629517625
0.0063632878 -0.0628779266 -0.4508380765
0.0022593088 -0.0382460999 -0.4695403772
-0.0490582668 -0.1001074928 -0.4595495065
-0.1787898486 0.0714024333 -0.4167349823
-0.1860744954 0.1053851212 -0.4304783206
0.0139588828 -0.0927544482 -0.4450079411
-0.0152735746 -0.0750413426 -0.4555089069
0.0028419387 -0.0907311473 -0.2502064474
-0.0179495713 -0.0327154225 -0.4839228783
-0.0322391652 -0.0893379822 -0.4595231414
-0.0781171517 -0.0331890906 -0.4717191285
-0.1749610454 0.0340927914 -0.4133410752
-0.0257202597 -0.0457719782 -0.4604380788
-0.0412101987 -0.0527962781 -0.4504723140
-0.0599348281 -0.0412909711 -0.4819065767
-0.1895753129 0.0131433044 -0.4364598634
-0.0299100505 -0.1005465281 -0.4662250501
0.0186102726 -0.0411033309 -0.4627697910
-0.0510169111 -0.0535260278 -0.4654138740
-0.0583149975 -0.0475388909 -0.4537838014
0.0027910282 -0.0845105598 -0.2407970267
-0.0308530591 -0.0832507014 -0.4572637081
-0.1751050575 0.0396678250 -0.4151763261
0.0184214539 -0.0551902799 -0.2870324655
-0.0883722783 -0.0534585629 -0.4589307648
-0.0881643387 -0.0558215843 -0.4582563772
0.0070028780 -0.0392333448 -0.4825307990
-0.0528006866 -0.0897409807 -0.4575271401
-0.0956844906 -0.0807226994 -0.4720960153
-0.0710147528 -0.0531260094 -0.4554129469
-0.0512381361 -0.0463218834 -0.4579918738
-0.0457392559 -0.0408420313 -0.4777104400
-0.1879243434 0.0862114783 -0.4223752924
-0.2053927332 -0.0289931566 -0.4531877273
-0.1965523011 0.1734620807 -0.4565617115
-0.1775316149 0.0266806558 -0.4138199389
-0.0086838099 -0.2019191680 -0.2437913098
0.0119195581 -0.0432084080 -0.4657973267
-0.1780157131 0.0793237369 -0.4657531349
-0.1804238660 0.0587731144 -0.4010030216
-0.0525122803 -0.0443552586 -0.5016374610
-0.0636393427 -0.0786154639 -0.4580328909
-0.0117297887 -0.0820733025 -0.2485695008
0.1002727370 -0.0292573221 -0.4446756000
-0.1942743820 0.0064941079 -0.4282357107
-0.0033437729 -0.0956463913 -0.2450274318
-0.1831238846 0.0785341832 -0.4141169689
-0.0815662251 -0.0483892911 -0.4598111405
-0.0010593448 -0.0325949193 -0.2434219889
-0.1782658313 0.0745138269 -0.4528849219
-0.0738667888 -0.0702281071 -0.4589803679
0.0086253118 -0.0975249862 -0.4609173335
0.0080945346 -0.0950207965 -0.2624740409
-0.1720990860 0.1067711061 -0.3983402359
-0.0141294001 -0.1029749588 -0.4726482360
-0.1826370593 0.1001026973 -0.4074609538
-0.1808342069 0.0460870958 -0.4380766868
-0.1741032179 0.0759605260 -0.3932568584
0.0907900074 -0.0138201057 -0.4627676725
-0.0241141423 -0.0406097859 -0.4560315531
-0.0084343870 -0.0383789611 -0.4758039306
-0.0238806307 -0.0362155773 -0.5128062963
-0.0589181550 -0.0413421258 -0.4685148632
-0.0921285981 -0.0369128534 -0.4792428002
0.0163144719 -0.1046887637 -0.2833165896
-0.0567399729 -0.0655308515 -0.4588626673
-0.1792549952 0.0988817000 -0.4130629958
-0.0168173137 -0.0812279154 -0.2271274260
-0.1984804730 0.0164380853 -0.4357906435
-0.1836670386 0.0904273708 -0.4105691126
0.0146105522 -0.0338768291 -0.4743616959
-0.1990423576 -0.0064258560 -0.4449973397
0.0309123638 -0.0641940002 -0.4545721934
0.0359689711 -0.0573621749 -0.4586018965
-0.0329311160 -0.0424625870 -0.4744968795
-0.1835951277 0.0415523524 -0.4184826488
0.0039548978 -0.0890576256 -0.4447732634
0.0071210841 -0.0280247517 -0.2609150312
-0.0229096291 -0.0294860509 -0.4810385334
-0.1745575680 0.1242705873 -0.3964778363
-0.1909605062 0.0194692037 -0.4324810239
-0.0140341020 -0.0682264988 -0.4523866713
-0.1792932601 0.0296529209 -0.3964447413
-0.1849903982 0.0142295358 -0.4272958394
0.0949370897 -0.0265279583 -0.4337852198
-0.1735899767 0.1181220450 -0.3936088842
-0.1842862895 0.0639747962 -0.4158769848
-0.2010429226 -0.0136791711 -0.4432793975
-0.0062235848 -0.0294209560 -0.2357197103
-0.0835299604 -0.0313108439 -0.4928966307
0.0151889396 -0.2281174838 -0.2683186127
0.0350634558 -0.0694569440 -0.4669639160
-0.0951015302 -0.0947879268 -0.4950800701
-0.2007788653 -0.0129072002 -0.4399059903
-0.0224439930 -0.0560692548 -0.4612029721
-0.0501009131 -0.0314066030 -0.4741667580
0.0188375036 -0.0533124190 -0.4528849372
-0.0197757278 -0.0835113078 -0.4565605521
-0.1836405298 0.0065549760 -0.4255230564
-0.0142034875 -0.1059086780 -0.4769028856
-0.1820895975 0.0261814007 -0.4269798800
-0.1800056222 0.1021504901 -0.4219804218
0.0289598949 -0.0757840062 -0.4600291150
-0.0461873830 -0.0391105185 -0.4643618835
-0.0811137035 -0.0428102575 -0.4632414597
0.0198924253 -0.1132876390 -0.4826415961
0.0136513876 -0.0484110441 -0.4579424598
-0.0609705740 -0.0861317911 -0.4581167949
-0.1781170646 0.0946495116 -0.4090694051
-0.2086728530 -0.0066736792 -0.4475887787
-0.0510567077 -0.0638595474 -0.4499053880
-0.0134987168 -0.0831569559 -0.4578886555
0.0236687038 -0.0488727616 -0.4549822194
0.0080161083 -0.0889681444 -0.4471197356
-0.0917909434 -0.0765635244 -0.4658860317
-0.1956490700 0.0855084438 -0.4597362202
-0.0352243694 -0.0995839947 -0.4788521946
0.0184015688 -0.0687773896 -0.4512783125
0.0726621054 -0.0213771473 -0.4020265767
-0.0207726634 -0.1214913009 -0.4853770072
-0.0518477366 -0.0623811044 -0.4537793470
-0.2134358015 -0.0090951868 -0.4472272935
-0.1788512534 0.0944569755 -0.4175608821
-0.0744673877 -0.0253782094 -0.4805613711
-0.2181708021 -0.0261949721 -0.4540445432
0.0293377699 -0.0682434444 -0.4583675068
0.0163386824 -0.1231037178 -0.2644170457
-0.1849777026 0.1752945220 -0.4243984764
0.0038589748 -0.0491825371 -0.4500858590
-0.1838959789 0.0375892111 -0.3959351964
-0.1870091284 0.0375034778 -0.4504346145
-0.1985547917 0.0015631625 -0.4358587180
-0.2072051777 -0.0253000193 -0.4635207044
-0.1779916007 0.0681388569 -0.4051518182
-0.0698545939 -0.0421589305 -0.4879929458
-0.1885785626 0.0515964531 -0.4205555600
0.0208311379 -0.0561773496 -0.4645720422
-0.0070335291 -0.0481689411 -0.4526830831
-0.0336259176 -0.0851882240 -0.4487000657
-0.0810201981 -0.0355725695 -0.4739773247
-0.1900345049 0.1592443078 -0.4386518904
-0.0766190915 -0.0411823407 -0.4633596039
0.0299435563 -0.0740933411 -0.4455274266
-0.0109216819 -0.0434414922 -0.4703737421
-0.0083700535 -0.0829997986 -0.4579676360
-0.1909889933 0.0042691450 -0.4324322739
-0.0542512124 -0.0368145075 -0.4793464251
-0.0622810367 -0.0609359350 -0.4546243101
-0.1832991269 0.0916161836 -0.4053644360
0.0191743116 -0.0936992010 -0.4709363862
-0.1962923864 -0.0132987477 -0.4406063668
-0.0581505925 -0.0413261366 -0.4924445225
-0.1809323213 0.1415831168 -0.4107755993
-0.0293263366 -0.0527489649 -0.4650775245
-0.0667320440 -0.0770351717 -0.4506453451
-0.1876058728 0.1784733789 -0.4316982206
-0.0267165847 -0.0768669205 -0.4523956398
-0.0161784060 -0.0754145881 -0.4571386360
-0.0866258886 -0.0354465545 -0.4714591981
-0.2183672806 -0.0147141987 -0.4516355270
-0.0162467118 -0.0389465948 -0.4739091817
-0.0156851548 -0.0916337447 -0.4557400055
-0.0934299440 -0.0482096381 -0.4663082155
0.0107405483 -0.0661194709 -0.4422295065
-0.0135445369 -0.0854957861 -0.4576590624
-0.0153202121 -0.1055531430 -0.4659827186
-0.1791239281 0.0438075410 -0.3962593487
-0.0374626802 -0.0338154842 -0.4807593610
0.0192811178 -0.0912723993 -0.4579621057
-0.1710366037 0.1185679152 -0.3891441522
-0.0986080794 -0.0735042094 -0.4725337730
0.0194673487 -0.0485056734 -0.4676659726
-0.0532464021 -0.0425762022 -0.4554903942
-0.0882488369 -0.0278013638 -0.4736678141
-0.0393939157 -0.0364183959 -0.4636600501
-0.1911240099 0.0314581083 -0.4211622367
-0.1875143200 0.1337435842 -0.4241459072
-0.1804988894 0.1103973136 -0.4115874228
-0.0020155765 -0.0401803112 -0.4721222260
-0.0242302842 -0.1015516660 -0.4781063196
-0.0192619178 -0.0859109523 -0.4501892738
-0.0437879180 -0.0978598795 -0.4769662447
-0.1816349698 0.0685242019 -0.4013325331
-0.1906536862 0.0341256564 -0.4284396364
-0.1760653193 0.1532070472 -0.4082570534
-0.1820432327 0.1459898067 -0.4227679892
-0.1978464266 0.0193487799 -0.4356650756
-0.1950192098 0.1618703845 -0.4411285329
0.0305337277 -0.0386848474 -0.4842269670
-0.0890090521 -0.0327133958 -0.4915381831
-0.0838160811 -0.0784772346 -0.4582355325
-0.1904757452 0.0650084520 -0.4152167161
-0.1896698329 0.1361405750 -0.4282874946
0.0035726765 -0.0612814779 -0.4502206539
-0.0432418058 -0.0478804620 -0.4680677203
-0.1949480326 0.0156685282 -0.4382921546
-0.1845043304 0.0306814436 -0.4492621820
0.0256861352 -0.0605929250 -0.4514829870
-0.2068335429 -0.0236584764 -0.4596363964
-0.1948779306 0.0067653554 -0.4145635023
-0.0164400088 -0.0530230812 -0.4511144956
0.0316662091 -0.0812844700 -0.4503668203
-0.1064463879 -0.0674730887 -0.4760730465
-0.1761364079 0.0490488767 -0.4114082200
-0.0018733668 -0.0649191563 -0.4550382328
-0.0164450629 -0.0830768411 -0.4576595714
-0.1829334276 0.0358540305 -0.3995209138
-0.0411708198 -0.0805861420 -0.4561092895
-0.1777273081 0.0567435688 -0.4085605236
-0.1867671224 0.0307455727 -0.4156901556
-0.2056056531 -0.0308232012 -0.4534880698
-0.2002678641 -0.0012832872 -0.4460654939
-0.0892934055 -0.0429847855 -0.4679120925
-0.0089391456 -0.0725986923 -0.4512092918
-0.0129391179 -0.0728183843 -0.4496361366
-0.0708210946 -0.0688521652 -0.4537502639
0.0060476949 -0.0449033849 -0.4532912408
-0.0208727252 -0.0355959944 -0.4660922786
0.0198679994 -0.0514832787 -0.4478930649
-0.0108888555 -0.2031118087 -0.2568326284
-0.1883382954 0.0089590807 -0.4266366303
0.0058766638 -0.0901229816 -0.4438788113
-0.1936602250 0.0341463839 -0.4298764720
-0.0867499933 -0.0423306562 -0.4675796330
-0.1740848455 0.0669694272 -0.3824754777
-0.1663515201 0.1252123852 -0.3756549372
-0.1576184301 0.0827224988 -0.3906891034
-0.0544252608 -0.0889800770 -0.4552728276
-0.1905190035 0.0089063371 -0.4223067694
-0.1740386723 0.0864957466 -0.4123892395
-0.1861461563 0.0722021171 -0.4108451264
0.0240554734 -0.0741999899 -0.4527074596
-0.1831472958 0.0763944771 -0.4160488332
-0.0615096681 -0.0784577038 -0.4529227190
-0.0146192321 -0.0344116010 -0.4803779089
-0.0716200970 -0.0935417077 -0.4577855924
-0.0053528003 -0.0435762025 -0.5090522786
-0.1820530075 0.0508715617 -0.4162909690
-0.1809352395 0.0311451490 -0.3930774171
0.0284482570 -0.0486363277 -0.4586782835
-0.0078072117 -0.1121628415 -0.4755164168
-0.1026331394 -0.0638638247 -0.4707421264
-0.1948491740 0.0117654723 -0.4119366366
-0.1855664998 0.0435892567 -0.4176800549
-0.1785569566 0.0670919798 -0.4099582372
-0.0002946855 -0.1001982246 -0.4583665297
-0.0445801315 -0.0993592652 -0.4696283459
0.0258700855 -0.0908985401 -0.4534417358
0.0135557414 -0.0765908040 -0.4504828735
0.0151766008 -0.0413397037 -0.5033495043
-0.0135555676 -0.0415128384 -0.4865524990
0.0321455071 -0.0655427107 -0.4569309656
0.1003931875 -0.0487776746 -0.4445800714
-0.1779192378 0.0691125373 -0.3957583643
-0.0687389895 -0.0541894659 -0.4532086849
-0.0739248812 -0.0513989350 -0.4560507198
-0.0788802631 -0.0542533534 -0.4626706077
-0.1861490792 0.0110806481 -0.4278529061
-0.0112750306 -0.0337009710 -0.4801315744
0.0257990527 -0.0911458973 -0.4800555309
0.0186371791 -0.0475691758 -0.4551944944
-0.0574138068 -0.0660542605 -0.4437309077
-0.0593551952 -0.0368006746 -0.4861335332
-0.0815728839 -0.0407738130 -0.4659519680
-0.0756052085 -0.0356315219 -0.4742685127
0.0313363358 -0.0426858791 -0.4725027667
-0.1793892458 0.0743360184 -0.4131228179
-0.0483976258 -0.0509385117 -0.4685593163
0.0059335030 -0.0475410346 -0.4521791338
-0.1859341875 0.1148716606 -0.4206307108
-0.0866197477 -0.0959022990 -0.4759954394
-0.0167428064 -0.1196345075 -0.4870077449
-0.0311510993 -0.0345518498 -0.4853717116
-0.0022876572 -0.0530265095 -0.4496900335
-0.1854369137 0.0535865217 -0.4051327667
-0.0710910841 -0.0435281460 -0.4602625766
-0.0548820756 -0.0462655127 -0.4678126276
-0.1838397193 0.0395091614 -0.4158533858
-0.0084542303 -0.0531705938 -0.4529565065
0.0933854637 -0.0478743408 -0.4280856082
-0.1750267711 0.0587459134 -0.3880059127
-0.1966342131 0.0466755360 -0.4237270520
-0.0434364509 -0.0338482306 -0.4795676309
0.0137938704 -0.0760720577 -0.4548298255
-0.2072651322 -0.0286412007 -0.4597865059
-0.1727333722 0.0576269826 -0.4291224315
-0.0932073664 -0.0309273026 -0.4790685576
-0.1883980315 0.0302439157 -0.4581152264
0.0933390613 -0.0418353553 -0.4231309553
-0.1847373207 0.0307659910 -0.4233810873
-0.0858308562 -0.0924231051 -0.4736230051
-0.1709078131 0.1191791449 -0.3860317825
-0.1701266321 0.1418022521 -0.3955112790
-0.0468042281 -0.1017142761 -0.4814018977
-0.1825100301 0.0554392681 -0.4048521186
-0.1809970757 0.0662019862 -0.4049967287
0.0032371305 -0.1037959415 -0.4634653008
-0.0915745654 -0.0507897036 -0.4681106118
-0.2012207821 0.0096971565 -0.4338399049
-0.1714798029 0.1274729130 -0.3916111114
-0.0763581730 -0.0636648452 -0.4582201380
-0.0044654533 -0.2170187530 -0.2659298618
-0.0666418036 -0.0436101697 -0.4561842792
-0.1708659345 0.0654638882 -0.3781902831
0.0330968158 -0.0682301874 -0.4645639540
-0.1938158448 0.1689463580 -0.4451824889
-0.0283287847 -0.0335072105 -0.4803160864
-0.0341637793 -0.0478601176 -0.4554744857
-0.0582490736 -0.0387912133 -0.4632324413
-0.0541287300 -0.1152989543 -0.4829258302
-0.1870934349 0.0341373783 -0.4328068559
-0.1758491728 0.0632214966 -0.3997187139
-0.1008850496 -0.0606419992 -0.4798405966
-0.0096821912 -0.0903051382 -0.2536522207
-0.1942077292 0.0123738523 -0.4312040476
-0.0285243278 -0.0405664021 -0.4648606768
-0.0665803956 -0.0438338184 -0.4859063328
-0.1712708771 0.0490787439 -0.4097047448
-0.1856801084 0.1039842185 -0.4200758359
-0.1883032746 0.1213997291 -0.4243084357
-0.1723262054 0.0482410908 -0.4120034657
-0.0701349791 -0.0266817779 -0.4995996175
-0.0933782716 -0.0556110091 -0.4679780853
-0.1780631462 0.0268988612 -0.4005483854
-0.0094652875 -0.0491846965 -0.4750734617
-0.1803409078 0.0014721839 -0.3865070284
-0.1813337768 0.1091308585 -0.4151578954
-0.1946720884 0.1718850202 -0.4476593151
-0.1863833209 0.0985722484 -0.4292396274
-0.0011130244 -0.0392325795 -0.5252735552
-0.0220028272 -0.0976141500 -0.2291877032
-0.0092108938 -0.0485843877 -0.2324810430
-0.0478932450 -0.0450410408 -0.4755329737
-0.1917066636 0.0289922420 -0.4321330948
-0.0078436239 -0.0608678035 -0.4520619827
-0.2114123089 -0.0260793492 -0.4521691443
-0.0011979306 -0.0455661346 -0.4674865339
-0.0095862317 -0.1028518228 -0.2257735090
-0.0182347428 -0.0894722864 -0.4590233266
-0.0240764975 -0.0467143310 -0.4546151501
-0.1821445418 0.0632278179 -0.4036445587
-0.0580055844 -0.0272182371 -0.4660653672
-0.0178916374 -0.0768136467 -0.4488188707
-0.2122289518 -0.0224934866 -0.4549614326
-0.0833525339 -0.0363684398 -0.4689522890
-0.0234679801 -0.0304307788 -0.4770062023
-0.0489994742 -0.0457874281 -0.4798223183
-0.0013833532 -0.0537192871 -0.4528960112
-0.1943427969 0.0547391067 -0.4210684193
-0.0644341873 -0.0265413151 -0.4890502931
-0.1913905739 0.0148405955 -0.4189015226
-0.1771740219 0.1398051651 -0.4059698282
-0.1996802040 0.0876811411 -0.4695968025
0.0013257278 -0.0555333301 -0.4529386521
0.0106197231 -0.1146554369 -0.2561508763
-0.1834620243 0.0047016821 -0.4223618191
0.0294881655 -0.0363248842 -0.4738166057
-0.0162823504 -0.0554714878 -0.4510641302
-0.1867628658 0.0196791427 -0.4213820998
-0.0380490655 -0.0526101837 -0.4589517448
-0.1860780068 0.0285677553 -0.4435093841
0.0023250751 -0.0923827725 -0.4538634568
-0.0354829631 -0.0957983382 -0.4663438460
0.0235512948 -0.0598057740 -0.2949204118
-0.0536423749 -0.0863293319 -0.4536346375
-0.1811537199 0.0060041488 -0.3989645848
-0.1713874368 0.0691447047 -0.4052925537
-0.0205648777 -0.0358677663 -0.5063657059
-0.0459459373 -0.0924893253 -0.4630025577
-0.1857968546 0.0122244055 -0.4230811962
-0.0118812956 -0.0487750936 -0.4764485935
-0.0029943383 -0.0356072065 -0.2393947591
-0.0055496011 -0.0759613877 -0.4557240895
-0.1785529703 0.0842675045 -0.4072315097
-0.1749963416 0.0807219161 -0.3875428764
-0.0412997867 -0.0435968118 -0.4546135098
-0.1767811105 0.0826407095 -0.3900859401
-0.2008972315 0.0141590561 -0.4365227460
-0.2051201841 0.0324088258 -0.4378808942
-0.0469290139 -0.0465632316 -0.5040581841
-0.1760099082 0.0522829690 -0.4025569460
-0.1737415958 0.0715933409 -0.4016147890
0.0058782940 -0.0525569948 -0.4651475872
-0.0913397225 -0.0407751693 -0.4727552916
0.0082920707 -0.0812442545 -0.2686915077
-0.0612825837 -0.0274527266 -0.4905629502
-0.1766846092 0.0962734380 -0.4164824832
-0.0837743585 -0.0299175831 -0.4739908641
0.0005827025 -0.0807207891 -0.2457399168
-0.1880683327 0.1420003888 -0.4233062765
-0.1642796203 0.0482734159 -0.3578886903
-0.0664765111 -0.0765964442 -0.4569771024
0.0208251015 -0.0384210395 -0.4700710922
-0.0606910658 -0.0454226087 -0.4916715778
-0.0266776098 -0.0853049505 -0.4577097936
-0.0161090675 -0.1065910155 -0.4689944019
-0.1903751343 0.0519763865 -0.4216195643
-0.0831635898 -0.0333940084 -0.4776648988
0.0884976961 -0.0074048822 -0.4256170799
-0.0133119086 -0.0480648446 -0.4634538279
-0.0290109586 -0.0405696033 -0.4806516131
-0.0178865701 -0.0532032181 -0.2455953215
0.0164449409 -0.0986728283 -0.4625364662
-0.1786845913 0.0471525252 -0.4132254761
-0.1841203574 0.1289706010 -0.4211441212
0.0112251289 -0.0698680003 -0.4455102779
0.0358454116 -0.0533738125 -0.4742934518
0.0187219407 -0.0743700877 -0.4521513323
0.0092815254 -0.0428603481 -0.4756340074
-0.0833352958 -0.0581674808 -0.4549093050
-0.0133492601 -0.0459714351 -0.4653943903
0.0208389876 -0.1059055548 -0.4763442817
-0.0789968757 -0.0585538129 -0.4531241185
-0.0666362549 -0.0746319901 -0.4533834805
-0.1745362238 0.1581412365 -0.3984899072
-0.0685575093 -0.0837904582 -0.4582164568
-0.1858801633 0.0790639460 -0.4234629892
-0.0306225021 -0.0432926271 -0.4718604315
0.0253202672 -0.0433203092 -0.4627313519
-0.1889131544 0.0120687163 -0.4224960734
-0.0035261067 -0.0465602130 -0.4891860783
-0.0740979844 -0.0455418965 -0.4563133472
-0.0589011602 -0.0762135077 -0.4580130532
-0.0390131792 -0.0506644425 -0.4552813441
-0.1054909325 -0.0771690586 -0.4752888902
-0.0516721125 -0.0676102347 -0.4523779177
-0.1869898410 -0.0024265115 -0.4253803905
-0.0441973621 -0.0436886709 -0.4749066837
-0.1809721629 0.0390232357 -0.4187928664
-0.0797018856 -0.0299781840 -0.4749150574
-0.2113847042 0.0045824404 -0.4453519993
0.0330714384 -0.0563665853 -0.4573387066
-0.0791393640 -0.0391111333 -0.4759780338
-0.0430256043 -0.0431116403 -0.4798437203
-0.1885586536 0.0491132328 -0.4199535252
-0.1719602959 0.0776003971 -0.3836458903
-0.0208989904 -0.0407812131 -0.4652379229
-0.1921392018 0.0140627643 -0.4087819351
0.0139457071 -0.0425576419 -0.5069967508
-0.1783854968 0.0755670114 -0.4044120779
-0.0887786095 -0.0390902737 -0.4655016439
0.0060083428 -0.1090276887 -0.4701078897
-0.0106622409 -0.0481566023 -0.4675950706
-0.0708167833 -0.1021904903 -0.4801279131
-0.1942971270 0.0334699383 -0.4522157449
-0.0487998700 -0.0479775156 -0.4892762099
-0.0739669747 -0.0328490980 -0.5013353710
-0.0096612189 -0.0919362563 -0.4477262639
-0.1860667089 0.1002143550 -0.4336344609
-0.1904432560 0.1236277769 -0.4281004251
-0.0438101053 -0.0963987632 -0.4682780329
-0.0036693166 -0.0878485986 -0.4553463579
-0.1822537777 0.0591943878 -0.4226832393
-0.0477040312 -0.0451277799 -0.5064106794
-0.0132425740 -0.0809741040 -0.4479240696
0.0147859073 -0.0550037662 -0.4622613807
0.0219164195 -0.0782529801 -0.4466292322
0.0368690260 -0.0818773758 -0.4583509666
-0.0552628251 -0.0466691492 -0.4626789437
-0.0183728524 -0.0298668512 -0.4742578573
-0.1705537695 0.0696776192 -0.3762402365
0.0165782932 -0.0857018033 -0.4444927355
0.0287123410 -0.0885547344 -0.4530740149
-0.0800148919 -0.0312589109 -0.4830458462
-0.0308458729 -0.0508604657 -0.4533403287
0.0190607611 -0.0840118503 -0.4545885314
0.0068314623 -0.0535087042 -0.4538331119
-0.0541963600 -0.1007070061 -0.4819178746
-0.1910110014 0.0384904590 -0.4207318371
-0.2008590494 0.0219222571 -0.4307810747
-0.1836489092 0.0146467053 -0.4232066284
-0.0999710110 -0.0496756413 -0.4817596605
-0.0858351613 -0.0461910258 -0.4611481742
0.0263398642 -0.0377433915 -0.5089377621
0.0038129628 -0.0388958532 -0.2547842167
-0.2078243360 -0.0118075362 -0.4435674704
-0.1769318765 0.0561215176 -0.3990477385
-0.0606504010 -0.0387891890 -0.4878965374
-0.0114259032 -0.0406149953 -0.4776512305
-0.2082219368 -0.0256494045 -0.4533691302
-0.1816277378 0.0729866075 -0.4073707965
-0.0932204754 -0.0978012563 -0.4841062413
0.0162183659 -0.1091075799 -0.4806254451
-0.1781249705 0.0773236633 -0.3967025088
0.0035285557 -0.0787535118 -0.4504066303
-0.0751691200 -0.0424623029 -0.4689022567
-0.1959854109 0.0296997945 -0.4405741308
-0.1861386273 0.0737664051 -0.4087515189
-0.1957969543 0.0341838365 -0.4161609046
-0.0284721088 -0.0603755713 -0.4511297941
-0.0098374897 -0.0349806169 -0.4675955306
-0.0058645685 -0.0273564081 -0.2574533035
-0.0716798973 -0.0410432876 -0.4609433890
0.0172753969 -0.0415248082 -0.4598615634
0.0047318757 -0.1304190472 -0.2358275196
-0.0034927191 -0.0708528692 -0.4553016291
-0.0737933200 -0.0289363488 -0.4871478535
-0.1685744044 0.0744737101 -0.3764264907
-0.0610966119 -0.0753266427 -0.4472350081
-0.1770314323 0.0366509527 -0.3872553168
-0.0985801170 -0.0737230347 -0.4705728693
-0.1815084783 0.0585581093 -0.4159972443
-0.1832269285 0.1282022812 -0.4230151990
0.0185825089 -0.0784550441 -0.4378786500
-0.0937625058 -0.0406968692 -0.4839541193
-0.1784133953 0.0597230983 -0.4162348340
-0.0166237640 -0.1078451399 -0.2377657725
-0.1811437605 0.0355794732 -0.4252262024
-0.1952089980 0.0025821009 -0.4145286507
-0.0388847142 -0.0382514931 -0.4974164069
-0.0380130535 -0.0731492367 -0.4494931480
-0.0232502347 -0.0505276696 -0.4529364828
-0.0610398757 -0.0438323169 -0.4661530544
-0.1988366434 0.0062518992 -0.4376313746
0.0164197658 -0.0383521928 -0.4543849823
-0.2094210132 -0.0370869705 -0.4633757711
-0.1893874073 0.1806495977 -0.4346475854
-0.1710732260 0.1086955041 -0.4082474436
-0.0915627279 -0.0558250606 -0.4598897061
-0.0079723464 -0.0416747802 -0.2425245928
-0.1825161923 0.0206938649 -0.4210203021
-0.1666246331 0.0770512487 -0.4013722652
-0.0207443996 -0.0342191328 -0.5009221695
-0.0815600715 -0.0733558728 -0.4571449389
-0.1750208298 0.0464650828 -0.4151924582
-0.0410557002 -0.0514712890 -0.4529764327
-0.0713736700 -0.0306632972 -0.4781206018
-0.0911085814 -0.0455066727 -0.4614279919
0.0063017220 -0.0833402760 -0.4558569640
-0.0682981587 -0.0721402004 -0.4582813074
-0.1993691852 0.0041915084 -0.4432157434
-0.0466009476 -0.0405352043 -0.4594403147
0.1010970309 -0.0189289884 -0.4510581881
-0.1716403938 0.0737772447 -0.3759118955
-0.0812465634 -0.0991465988 -0.4841192417
-0.0717539214 -0.1001335342 -0.4756981107
-0.1718795620 0.1087542775 -0.3922332365
-0.1017933759 -0.0667321546 -0.4604963735
-0.0864306949 -0.0376334284 -0.4727703929
-0.0584677849 -0.0486504448 -0.4567124878
0.0281199741 -0.0785589017 -0.4518031731
-0.0690952945 -0.0306496035 -0.4810799160
-0.1870544643 0.0701156638 -0.4200954272
-0.1892395932 0.0585085729 -0.4130367323
-0.0683979535 -0.0762903066 -0.4485682217
0.0084361752 -0.0512460606 -0.4631685314
-0.1790893739 0.1620372589 -0.4083679201
-0.1796805184 0.0506250075 -0.4207185660
-0.0119521208 -0.0898356359 -0.4475692342
-0.1846347078 0.1206755177 -0.4329520402
0.0166965934 -0.0798793745 -0.4417119765
-0.0831520340 -0.0688118540 -0.4562297420
-0.0938801503 -0.0415265958 -0.4714908411
0.0009256577 -0.0578818237 -0.2655980824
-0.1762295290 0.0840259129 -0.4102390191
-0.0060026826 -0.0415586571 -0.2317813966
-0.1764911046 0.0844293954 -0.4134106114
-0.0587215084 -0.0802412817 -0.4446171346
-0.1990106477 0.1713624408 -0.4496487136
-0.1780119824 0.1425117000 -0.4182113004
-0.1680599744 0.0499247988 -0.3695384145
-0.0618309213 -0.0389696720 -0.4776337567
0.0139745326 -0.0379299591 -0.4832527357
-0.0610335091 -0.0539696856 -0.4579967709
-0.0083630776 -0.0584857661 -0.4531654702
-0.0261386428 -0.0353400260 -0.5003331900
-0.0482845429 -0.0657787961 -0.4502735084
-0.0785692011 -0.0409927421 -0.4660333539
0.0006852663 -0.0683313840 -0.4483721464
-0.1914992105 0.0258572487 -0.4089548636
0.0216272774 -0.0426271639 -0.4580897394
-0.0156807133 -0.0893614575 -0.4376001290
-0.0444905050 -0.0430027507 -0.5101266503
-0.0095884862 -0.0292659396 -0.2249833842
0.0282615388 -0.0558829020 -0.4548306934
-0.0618925958 -0.0879505447 -0.4537309144
-0.1823827541 0.0788805436 -0.4031059678
-0.1930066556 0.0392007654 -0.4236353772
-0.0970283898 -0.0580056175 -0.4670602745
-0.1906654946 0.0609330928 -0.4145303615
-0.1711048008 0.1208951838 -0.3981577285
-0.0165368453 -0.0435064383 -0.4611654758
-0.0192246983 -0.0274004509 -0.2399829041
-0.0207303922 -0.0793132765 -0.2275740051
-0.0630030087 -0.0383633160 -0.4735352950
0.0031231769 -0.1029246153 -0.2482269247
-0.0760707450 -0.0833074062 -0.4575975966
-0.1835069128 0.0656742088 -0.4033193678
0.0141504607 -0.0470247053 -0.2737099933
-0.0720039845 -0.0325600326 -0.4925344496
-0.1760909343 0.1044809055 -0.3997953806
-0.0825883409 -0.0759511921 -0.4551436126
-0.1842363075 0.0858759029 -0.4391671624
-0.0878548574 -0.0862967915 -0.4687450457
-0.0162798339 -0.1124837018 -0.4747294920
-0.2032334431 -0.0110140924 -0.4332513756
-0.0669052074 -0.0707480060 -0.4553422181
0.0355018340 -0.0455751928 -0.4725155621
-0.1693676859 0.0649863705 -0.4042106867
-0.0809061252 -0.0777625196 -0.4583330686
-0.2163825168 -0.0186014082 -0.4491688113
-0.0629325710 -0.0310675372 -0.4865700281
-0.1902996501 -0.0020180909 -0.4294796008
-0.0540831481 -0.0682301787 -0.4582511855
-0.0856399347 -0.0302081615 -0.4876946252
-0.1937507599 0.0086158232 -0.4351822901
-0.0057314954 -0.0887758814 -0.4564397452
-0.0493689421 -0.0620089185 -0.4539207720
-0.0734949568 -0.0313344624 -0.4930200517
-0.1722237345 0.0624364046 -0.3770411857
-0.0053961432 -0.1814092996 -0.2372436437
-0.0052558439 -0.0449875224 -0.4825924010
-0.1880905284 0.0587110424 -0.4155293065
-0.0476979005 -0.0932341812 -0.4554768280
-0.1737445005 0.0639110120 -0.4128719226
-0.0411362446 -0.0424739425 -0.4627970942
-0.1964023636 0.0217592568 -0.4399835449
-0.1822527562 0.0768924005 -0.4012379889
-0.1032184899 -0.0630571569 -0.4727255223
-0.1950602039 0.1595984911 -0.4407773795
-0.0662699618 -0.0685200823 -0.4514032925
-0.0538209257 -0.0607874715 -0.4484158152
-0.0759060066 -0.0483230478 -0.4585146479
-0.0967314472 -0.0878692892 -0.4816395641
-0.0124986245 -0.1064930216 -0.4679901387
-0.1818806379 0.0940897441 -0.4164924234
-0.0709130031 -0.0877025300 -0.4587283504
-0.0193789184 -0.0311294452 -0.4809563089
-0.1835170074 0.0296532320 -0.4213821778
-0.0185333562 -0.0545118776 -0.4578850206
-0.1719730692 0.0835645798 -0.4087455403
-0.0113993488 -0.0528553950 -0.4530003894
-0.0734543969 -0.0836758128 -0.4587153582
-0.0814946368 -0.0337770544 -0.5044836998
-0.0262006662 -0.0735703311 -0.4375416779
-0.0388191438 -0.0473331665 -0.4622686298
-0.0814615267 -0.0345067929 -0.5057610783
-0.0807304673 -0.0799688119 -0.4560031685
0.0244714399 -0.0533962476 -0.2934220491
-0.1004001275 -0.0708679333 -0.4716601670
-0.0715767958 -0.0564120767 -0.4594751442
0.0012951761 -0.0891229515 -0.4452455361
-0.1935508607 -0.0079362391 -0.4384772594
-0.0545384246 -0.0385555679 -0.4653407553
-0.1713955587 0.0308114799 -0.3743358857
-0.0465947569 -0.0475138975 -0.4908183271
-0.1807328314 0.0290640071 -0.4146663547
0.0067853844 -0.0910451661 -0.2419471728
-0.1741238425 0.1018941829 -0.4084778878
-0.1734495088 0.1013757996 -0.4057209492
-0.1860958968 0.0713435264 -0.4388952683
-0.0141106744 -0.1132273183 -0.2383834078
-0.1803922824 0.0847555575 -0.4280659034
-0.1751861340 0.1572641436 -0.4097640764
0.0082051439 -0.0395918461 -0.2698543796
0.0014185353 -0.0858787466 -0.2529627443
-0.1690156649 0.0745365455 -0.4081547612
-0.0140103834 -0.0383928764 -0.4685436835
-0.0175413026 -0.0475609425 -0.4763691393
-0.1635423141 0.0715743916 -0.3985962608
-0.1787539155 0.1570001044 -0.4156528648
-0.0521037650 -0.0331441910 -0.4766428948
-0.1732423027 0.1060157740 -0.4093643237
-0.0525812428 -0.0480313467 -0.4920294805
-0.0466302855 -0.0292585092 -0.4648766332
0.0069004896 -0.0935482423 -0.4507341472
-0.1991847625 -0.0234990586 -0.4439335422
0.0114597397 -0.0779331822 -0.4578654648
-0.0330336314 -0.0360100733 -0.4755090435
-0.0516620167 -0.0495069623 -0.4962266088
-0.1823863093 0.0737466069 -0.4003588960
-0.0358437616 -0.0558434185 -0.4510425031
-0.0839825086 -0.0401336290 -0.4680085629
0.0097062604 -0.0272768713 -0.2574647356
-0.1746612725 0.0424060904 -0.3855851196
-0.1678070915 0.0764855891 -0.3701389236
-0.0554852009 -0.0426222655 -0.4956149309
-0.1834455234 0.0375277801 -0.4432479364
0.0083680793 -0.0472574011 -0.2602111189
-0.0095617328 -0.0366739770 -0.4625012473
-0.0234352777 -0.0827643652 -0.4471696407
-0.0684804346 -0.0243620228 -0.4867626436
-0.0872776194 -0.0583859553 -0.4671114551
0.0179341746 -0.0631001828 -0.4504956473
-0.0357950778 -0.0353099422 -0.4844493088
-0.0943509960 -0.0552415850 -0.4708924002
-0.2033190894 0.0085946938 -0.4404617666
-0.1934088688 0.1782471469 -0.4362249598
-0.0832398499 -0.0283774027 -0.4862425908
-0.0535770984 -0.0437263483 -0.4760821591
-0.1901363937 0.0349079138 -0.4149866709
0.0022539220 -0.1254179541 -0.2364934783
-0.1823133941 0.0240841358 -0.4082484169
-0.2129900196 -0.0160812524 -0.4437329952
-0.0491126740 -0.0465494942 -0.4707372939
-0.0185068126 -0.0917061331 -0.4593103071
0.0138843437 -0.0558013560 -0.4528399316
-0.1993332207 0.1383309811 -0.4397386312
-0.1951414382 0.0004120187 -0.4193170793
-0.0499191528 -0.0725663117 -0.4467579221
-0.0160380415 -0.0611251002 -0.4477747698
-0.0498002190 -0.0962764284 -0.4747131491
-0.1928886277 0.0579787637 -0.4189495498
-0.0091090779 -0.0487244007 -0.4524752928
0.0406564861 -0.0589202503 -0.4647358105
0.0194913952 -0.0423454388 -0.2703732951
-0.0316628688 -0.0360328779 -0.4738464789
-0.0038838014 -0.0437323104 -0.4623040673
-0.1917962277 0.0070670745 -0.4176881569
-0.1830485430 0.1330378442 -0.4267439205
-0.0606049757 -0.0712272108 -0.4493203624
0.0872520358 -0.0260813315 -0.4295815277
-0.0658242125 -0.0991615293 -0.4717225891
-0.0038375909 -0.0655634473 -0.4520999167
0.0132936332 -0.0401379622 -0.4953957668
-0.0783498805 -0.0771659314 -0.4522203122
-0.1928129475 0.0571693438 -0.4215831996
-0.0106066114 -0.0857331895 -0.4579677726
-0.1017960023 -0.0420168335 -0.4769881649
-0.0485826663 -0.0756616881 -0.4574124878
-0.0039446381 -0.0593219219 -0.4543187702
0.0838258293 -0.0285442785 -0.4247618481
-0.0032419953 -0.0533203330 -0.4653211990
-0.0249744970 -0.0708057820 -0.4501190572
-0.0543370597 -0.0581834014 -0.4564268667
-0.1735634230 0.0300333590 -0.3919954842
0.0073154373 -0.1327871315 -0.2313801150
-0.1734307617 0.0890376914 -0.4082563859
0.0136182570 -0.0511444971 -0.4549707784
-0.0442502514 -0.0940627963 -0.4650588809
-0.1887985358 0.0262291972 -0.4469389903
-0.0862121955 -0.0449615177 -0.4649918675
-0.1793816826 0.0873173728 -0.4264940900
-0.1867507333 0.0845125461 -0.4429163978
-0.0000622831 -0.0544515513 -0.4653159082
-0.0386815427 -0.0941951789 -0.4687808081
-0.0332592895 -0.0438815167 -0.4608826943
0.0271944375 -0.0449508095 -0.4692681299
-0.1916221508 0.1372614534 -0.4301905205
-0.0160162088 -0.0702876405 -0.4551098474
-0.0132912952 -0.0691940157 -0.2454234073
-0.0612389309 -0.0653445842 -0.4523472739
-0.1777169118 0.0499302495 -0.4064970242
0.0065236038 -0.0831165289 -0.4479391627
-0.0333526359 -0.0360070040 -0.4904143658
-0.0986449764 -0.0486680374 -0.4747030810
-0.1781398132 0.0374549124 -0.4155168086
0.0091888488 -0.0971700505 -0.2676893736
0.0132801856 -0.0886409448 -0.4484981339
-0.1868323359 0.1439932383 -0.4288107490
-0.0063694670 -0.0503490150 -0.4710359603
-0.1936433036 0.1781552479 -0.4407602342
-0.0163539580 -0.1026788221 -0.4690003078
-0.1789013788 0.0441193911 -0.4157113060
0.0087645711 -0.0487525432 -0.4634766977
-0.1891282803 0.1238222910 -0.4279279317
-0.0526390004 -0.0327158303 -0.4658547226
-0.1732766849 0.0410234691 -0.3816671039
0.0100718293 -0.1080645268 -0.2508430404
-0.0041857823 -0.0274314118 -0.2418600382
-0.0584158205 -0.0967329490 -0.4736970717
-0.0613203401 -0.0307146561 -0.4728309223
-0.1985990984 -0.0043477914 -0.4401532163
-0.0785901582 -0.0530275434 -0.4573095726
-0.1709488635 0.1220319117 -0.4056322246
-0.1714103568 0.0819173765 -0.3990570257
-0.1749563664 0.0631192774 -0.4040379226
-0.2035438206 -0.0062448037 -0.4443034288
-0.0579334131 -0.0380411780 -0.4758567390
-0.0948907471 -0.0948619767 -0.4912685965
-0.0483265155 -0.0311790932 -0.4687667312
0.0075898916 -0.0935485345 -0.2556994205
0.0015649542 -0.0792039265 -0.4487252604
-0.0396215420 -0.1088863117 -0.4935111416
-0.0259633952 -0.0874671634 -0.4491343013
0.0250975006 -0.0391971014 -0.4803894976
-0.2027442031 -0.0114890791 -0.4471047898
-0.0243615937 -0.1141709550 -0.4775033778
-0.0677694915 -0.0681726762 -0.4531964321
-0.1840414379 0.0796443541 -0.4177959759
-0.2085102332 -0.0234770919 -0.4558438427
-0.0239763700 -0.0398751304 -0.4582915837
-0.1716127060 0.0598830753 -0.3834036463
0.0034873340 -0.0532880165 -0.4997958094
-0.0048742963 -0.0875276540 -0.2368858682
0.0003757127 -0.0433960738 -0.2390771076
-0.0892468151 -0.0632756785 -0.4625552339
-0.1837267461 0.1015494345 -0.4167064589
0.0239737194 -0.1082743424 -0.4859644772
-0.0921173961 -0.0884327955 -0.4815175283
0.0143793476 -0.0964568526 -0.2819475600
-0.2197676853 -0.0267931340 -0.4568157127
-0.1963300282 -0.0055233164 -0.4404107521
-0.1962435161 0.0859906492 -0.4535782359
-0.0228075328 -0.0932929933 -0.4627977346
-0.1801799859 0.1511988370 -0.4131649236
-0.0468029305 -0.0828159153 -0.4628142118
-0.0737325242 -0.0353350488 -0.4784995112
0.0259445351 -0.0788309636 -0.4564914691
0.0119209079 -0.0431732966 -0.4744545841
-0.1017045509 -0.0535497479 -0.4763597943
-0.2076571553 -0.0085286494 -0.4364612427
-0.0385025919 -0.0584525078 -0.4585471540
-0.0208921515 -0.0204094584 -0.2408913170
-0.1952251249 0.0091795543 -0.4432229584
-0.0781542875 -0.0335803853 -0.4767252925
-0.0783771625 -0.0505327325 -0.4600514006
0.0253773410 -0.0636628724 -0.4496981477
-0.1851847757 0.0319102312 -0.4057247099
-0.0687494185 -0.0810451848 -0.4586527700
-0.0745018444 -0.0993550668 -0.4777328419
-0.1932540915 0.0489150214 -0.4163723447
-0.0563396266 -0.0810061661 -0.4540411030
-0.1798047525 0.0271722487 -0.4042640404
0.0063926927 -0.0427563812 -0.4733817099
-0.1756360139 0.0182051601 -0.3840474850
-0.1937958549 0.0240872094 -0.4281480712
-0.1004004928 -0.0615501513 -0.4679724322
-0.1782856284 0.1138995315 -0.3974618425
-0.0091263391 -0.0832166099 -0.4427537518
-0.0387557303 -0.0539202126 -0.4523305538
-0.1998277112 0.0000301562 -0.4247374642
-0.1693926545 0.0431922053 -0.4071777125
0.0359986949 -0.0424711725 -0.4773722962
-0.1838535835 0.1121398177 -0.4181974806
-0.1827543974 0.1123264283 -0.4148022234
-0.2010136147 0.0091359763 -0.4355246684
0.0304530948 -0.0568508420 -0.2779436872
-0.0212464051 -0.0331758728 -0.4663383848
-0.1724999295 0.1494755815 -0.3906104849
-0.0557153431 -0.1072716793 -0.4890524168
-0.0587107531 -0.0428532810 -0.4724284293
-0.0041414178 -0.0509510604 -0.4654982969
-0.0718230460 -0.0325452905 -0.4742677895
0.1068725939 -0.0210518090 -0.4573538938
-0.0560394067 -0.0432152588 -0.4849415961
-0.0206457501 -0.0760323718 -0.4558547688
0.0261102483 -0.0857983626 -0.4477894774
-0.0257225123 -0.0350431152 -0.4648880495
0.0052474401 -0.0474444563 -0.4743128117
-0.1839252842 0.1085917531 -0.4169719573
-0.0261769074 -0.1204739783 -0.4830556233
-0.1992439790 0.0851333942 -0.4786662516
-0.1760238255 0.0731066301 -0.3875419294
-0.0093407994 -0.0745744556 -0.4558337033
-0.1841107317 0.0777596112 -0.4175262164
0.0032517783 -0.0589646119 -0.2657528259
0.0088713557 -0.0463330620 -0.4639220299
-0.1778985558 0.0424200560 -0.3942727692
0.0210409172 -0.0398483663 -0.4563350562
0.0077820070 -0.0529272549 -0.4642049628
-0.0596317596 -0.0899819555 -0.4540011633
-0.0537656881 -0.0863031447 -0.4623021185
-0.1788121198 0.0718424292 -0.4134250585
0.0134605552 -0.0716105699 -0.4498446281
-0.0334283121 -0.0756746284 -0.4461103084
-0.0716943547 -0.0453164570 -0.4561074168
-0.0018372619 -0.0994983087 -0.2441914224
-0.0266507025 -0.0983083405 -0.4746783488
-0.0409967325 -0.0557138516 -0.4498719709
-0.1764751428 0.0930167306 -0.3973979739
-0.0933281118 -0.0731276801 -0.4660776517
-0.0031456673 -0.1086123629 -0.2371003386
-0.1783383119 0.1089616528 -0.4104519594
-0.1787436330 0.0770423504 -0.4126211380
-0.0115609133 -0.0434812680 -0.4683997110
-0.0941602168 -0.0689640298 -0.4585720594
-0.0084273084 -0.0876048471 -0.2485218496
-0.1865694616 0.1362054376 -0.4255973076
0.0258128027 -0.0376265824 -0.5124583499
-0.0891513050 -0.0406198455 -0.4721850202
0.0278491129 -0.0801688366 -0.4588744676
-0.0919294132 -0.0994958627 -0.4796862786
-0.0316913459 -0.0682639399 -0.4531400247
-0.1913195729 0.0317765101 -0.4333338636
0.0067923523 -0.0778615921 -0.2626224559
-0.1926114182 0.0814539533 -0.4558411622
-0.1747835928 0.1187809354 -0.4048765321
-0.1937531921 0.0347389709 -0.4155274550
-0.1746111251 0.0178485949 -0.3800682240
-0.1820918195 0.0912983575 -0.4284039119
0.0060208494 -0.0431771087 -0.2532848908
-0.0364982012 -0.0814773072 -0.4434141812
-0.0115763923 -0.0356076618 -0.4707822560
0.0218719648 -0.0428031117 -0.4552968980
-0.0287688132 -0.0732015392 -0.4550845368
-0.1941634442 0.0132046494 -0.4329856442
-0.0531372681 -0.0540771438 -0.4638062728
-0.1838122381 0.1216625964 -0.4232606605
-0.0460287694 -0.0486253804 -0.4622309617
-0.0563205146 -0.0321798717 -0.4954340174
-0.0248272773 -0.0317164027 -0.4945445962
-0.0019374996 -0.0542380362 -0.5138027005
0.0009761702 -0.0831416852 -0.2523857647
0.0063589107 -0.0507868075 -0.4658316321
-0.1741110319 0.0889447578 -0.4589565761
-0.0390905522 -0.0773607592 -0.4535120556
-0.0031079051 -0.0338812058 -0.4713896780
-0.0874549918 -0.0330618844 -0.4855543502
0.0905841400 -0.0337821236 -0.4373904198
-0.2040385301 -0.0249547864 -0.4582329167
-0.1843487160 0.0830114048 -0.4364435444
-0.0529669765 -0.0306654003 -0.4760659313
-0.0118410615 -0.0798299889 -0.2394974680
-0.1725134608 0.0776754432 -0.3978838871
-0.2206800424 -0.0308680453 -0.4581816862
0.0251227003 -0.0380837917 -0.5012682080
-0.1820399131 0.1392509201 -0.4135145651
0.0086958995 -0.0871083774 -0.4559261799
-0.1955819883 0.0670833104 -0.4576127702
-0.1830980564 0.0306693197 -0.3954978923
0.0092285424 -0.0633582288 -0.4524611798
-0.2075603972 -0.0040559939 -0.4449201606
-0.0959920325 -0.0704618124 -0.4701693717
-0.0452689452 -0.0919049999 -0.4673354116
0.0955170207 -0.0172699524 -0.4423469273
-0.0786087463 -0.0813181436 -0.4560042757
-0.0758113803 -0.0378367286 -0.4910584503
0.0097984866 -0.0414564054 -0.4852538825
-0.1888123489 0.1101447793 -0.4453170052
-0.1939749041 0.0225046534 -0.4234167905
-0.0014648568 -0.1114329711 -0.4772244949
-0.0143073721 -0.0424130177 -0.4560459046
-0.1963715901 0.0455214258 -0.4281541197
-0.0188150349 -0.1110154088 -0.4749747656
-0.0142035046 -0.0842535887 -0.4354478559
-0.0284477754 -0.0311126103 -0.4721397767
-0.1003348760 -0.0635114652 -0.4672965431
-0.1937915683 0.1380541325 -0.4313106835
0.0298381303 -0.0410850558 -0.4708175332
-0.1832149419 0.0270157704 -0.4003480620
-0.1788409589 0.0745232042 -0.4203901431
0.0166180797 -0.0423428867 -0.2784045732
-0.1741540336 0.1216088270 -0.4037118037
-0.1936594182 0.0838148975 -0.4636615685
-0.0108271829 -0.0481454448 -0.4656674620
-0.0218259055 -0.0546844062 -0.4547926245
-0.0815993445 -0.0328393782 -0.4963865703
-0.0405830210 -0.0505180110 -0.4577321199
0.0013493929 -0.0464709701 -0.4720647099
-0.1781326222 0.0375451915 -0.4198443181
0.0420291049 -0.0336840687 -0.3000676856
0.0009112874 -0.1168212302 -0.4767616365
-0.0628310218 -0.0360891452 -0.4864995375
-0.1833966189 0.0966012525 -0.4201666948
-0.0560305738 -0.0509800461 -0.4692655801
-0.1854161494 0.0589459344 -0.4153508541
-0.1735385880 0.0589358798 -0.4137256743
-0.1782624968 0.0899764446 -0.4756378714
0.0090063672 -0.0481366045 -0.4656717829
-0.1784710020 0.0217235593 -0.3924604595
-0.0230264916 -0.0486104146 -0.4557278836
-0.0111948325 -0.0885057429 -0.2361488521
-0.0634543700 -0.0617989225 -0.4558220002
0.0220416538 -0.0604569628 -0.4561118441
-0.0553952803 -0.0517099879 -0.4598507700
-0.0042252926 -0.0245420758 -0.2475356908
-0.1657096535 0.0868678565 -0.3992895897
-0.0581495303 -0.0481681254 -0.5117977385
-0.1671908307 0.0863542115 -0.4016888795
0.0116425278 -0.0514576659 -0.4573086500
0.0888103595 -0.0356973944 -0.4247217727
0.0060922607 -0.0812742495 -0.4495616615
-0.1698382172 0.1306652443 -0.3948020139
0.0211343335 -0.0502093508 -0.4595521726
0.0065357687 -0.0401162394 -0.2525221959
-0.0018292596 -0.1008596010 -0.2763756006
-0.1870527368 0.1451326497 -0.4257130988
-0.0883899205 -0.0509684721 -0.4608882437
-0.0011464142 -0.0912110020 -0.4559015463
-0.1782785491 0.1458407746 -0.4074973913
-0.0699000095 -0.0883002372 -0.4667550428
-0.0957028617 -0.0759367373 -0.4677274775
-0.1894155775 0.0533042820 -0.4081628799
0.0341580216 -0.0625514418 -0.4564553305
-0.0655063102 -0.0388888597 -0.4787104650
-0.0634362431 -0.0658268164 -0.4521545920
-0.0117258487 -0.0385362833 -0.4707731725
-0.0594828115 -0.0587689670 -0.4566016016
-0.0639672590 -0.0292718575 -0.4837520336
0.0132566457 -0.1000765736 -0.4656073106
-0.0434992329 -0.0513034273 -0.4630260884
-0.0454865998 -0.0464982399 -0.4980257602
-0.1937401396 0.0740898935 -0.4612542836
-0.0388556885 -0.1065254386 -0.4904513638
-0.0977040589 -0.0551216648 -0.4749836634
-0.1863507203 0.1839921691 -0.4362310028
-0.0407870863 -0.0611134443 -0.4522183578
-0.0154388499 -0.1211594497 -0.4840437684
-0.1841062873 0.0511688108 -0.4290291668
-0.1718778759 0.0749837980 -0.4114187658
0.0136698583 -0.0563453390 -0.4484011322
-0.0111202148 -0.0736653414 -0.2529611454
-0.0093187023 -0.0391613825 -0.2343211850
-0.1756683761 0.0789206608 -0.4086471781
0.0018961931 -0.1120899334 -0.4780226235
-0.1906731795 0.0324603899 -0.4137686964
-0.1721895288 0.0348530914 -0.3781483199
-0.1717130314 0.0413049036 -0.3961836084
-0.1720064619 0.0921542653 -0.4089643717
-0.1849848249 0.0876986803 -0.4385127449
-0.0901790662 -0.0934658237 -0.4773492326
-0.0217804485 -0.0336751437 -0.4976200858
0.0280205698 -0.0935176550 -0.4548115799
-0.1803113039 0.0431560274 -0.4242378652
-0.0669029849 -0.0513342192 -0.4533680938
-0.2012113165 0.0080612898 -0.4282653230
-0.0944066106 -0.0415750352 -0.4785191503
-0.1034638609 -0.0734172834 -0.4602304339
-0.1860456630 0.1435692017 -0.4189353749
0.0778275748 -0.0074031439 -0.4201363246
-0.1738606645 0.0918242663 -0.3908949628
0.0254168885 -0.0686286414 -0.4492324574
-0.0629396473 -0.0902526412 -0.4562386324
0.0175155036 -0.0234682729 -0.2814791979
0.0108824068 -0.0478842770 -0.4648870492
-0.1929930785 0.0040699140 -0.4325358795
-0.1960285791 0.1345610806 -0.4357549248
-0.1631737133 0.0602637752 -0.3994183993
-0.0015785096 -0.0784632057 -0.4571049154
-0.0264717058 -0.0490893795 -0.4515599336
-0.0661444622 -0.0314346465 -0.4794216055
-0.0138800095 -0.2207213206 -0.2544221585
-0.1771070031 0.0337066826 -0.4182476700
-0.1678994801 0.0618665919 -0.4143725278
-0.1904124683 0.0801145607 -0.4405603100
-0.1906070981 0.0648469361 -0.4187828930
-0.0816089952 -0.0338135312 -0.4664826410
0.0163181088 -0.0333039550 -0.4682067209
0.0103664656 -0.0333108122 -0.2660686452
-0.1744799076 0.0514696633 -0.4116771557
-0.2064327867 -0.0029370712 -0.4331319051
-0.0092824073 -0.0763325509 -0.4509213111
-0.0853672362 -0.0413508302 -0.4658001416
0.0058473518 -0.0555347141 -0.4603867236
0.0066708611 -0.0464797204 -0.4670716546
0.0909614547 -0.0264092141 -0.4277761975
-0.0209277895 -0.0483105673 -0.4605939095
-0.0523237691 -0.0370605046 -0.4953711093
-0.0263037292 -0.0280884696 -0.4772332704
-0.2015885958 -0.0103758964 -0.4482422040
-0.1895884570 0.0650761225 -0.4423440684
-0.2045656517 -0.0160274002 -0.4402986945
-0.0898001540 -0.0361516312 -0.4805779069
0.0035857082 -0.0646992558 -0.4474194578
-0.1795159891 0.0401754171 -0.4331097833
-0.0094565974 -0.2208213710 -0.2613295655
-0.1730623370 0.0793139457 -0.4034287096
-0.0316953016 -0.0504690962 -0.4553810306
0.0222805966 -0.0823330696 -0.4444391160
-0.1847234398 0.0334139886 -0.4159623540
-0.0201314318 -0.0991886805 -0.4732704046
-0.1799751314 0.0987580179 -0.4276802676
-0.0362782913 -0.0336578049 -0.4668122416
-0.0401662772 -0.0851513867 -0.4421312640
0.0010738519 -0.0697675024 -0.4538178503
-0.1714344364 0.0294536096 -0.3782623594
0.0034418257 -0.0536405607 -0.4513286757
-0.1730321538 0.1134320290 -0.4057148793
0.0158945131 -0.0453021104 -0.4674662475
-0.0262234315 -0.0941143234 -0.4669034967
-0.0073255490 -0.0924535600 -0.2592574533
-0.0185830656 -0.0364096490 -0.5072064685
-0.0712393788 -0.0313397573 -0.4711312468
-0.1679906251 0.0706409857 -0.3760764159
-0.0478297882 -0.0763799250 -0.4592550397
-0.1927627216 0.0120700139 -0.4164214814
-0.0482578028 -0.0423865892 -0.4593920708
-0.1715946572 0.0813698169 -0.4015795075
-0.1936321994 0.1484559927 -0.4387994689
-0.1779254855 0.0599494265 -0.3906537232
-0.1823443129 0.0282641558 -0.3932444758
-0.1748072016 0.0538803739 -0.4226804933
0.0215145908 -0.0905623686 -0.4500869517
-0.0636853591 -0.0415297050 -0.4706082801
0.0915710979 -0.0288325585 -0.4368377406
-0.2029893720 0.0268258520 -0.4311072918
-0.0041187116 -0.0616199848 -0.4557384452
-0.0042423698 -0.0840773498 -0.4486290150
-0.0105264166 -0.0994294288 -0.4723339119
-0.0088415331 -0.0416294943 -0.4789270385
-0.1782190464 0.0492951748 -0.4177232385
0.0248842582 -0.0455033695 -0.4717285084
0.0211314613 -0.0336539746 -0.4658467161
-0.1778049679 0.0442289484 -0.4180113788
-0.1861156177 0.0549553080 -0.4109112479
-0.0331866590 -0.0528455324 -0.4515596329
0.0000813586 -0.0346708811 -0.2547659721
-0.0546764208 -0.0499708597 -0.4539562206
-0.1845675165 0.0201853362 -0.4152850051
-0.0430737361 -0.0405799500 -0.4899125907
-0.0436389362 -0.0702422987 -0.4529497990
-0.1855261372 0.0362789868 -0.3989024581
-0.0368130201 -0.0453518277 -0.4531917290
-0.0059239511 -0.0435724131 -0.4670854999
-0.1795777997 0.0918630431 -0.4251295521
-0.0288204715 -0.0530722006 -0.4582428181
-0.1930709799 0.0174287227 -0.4104421570
0.0228500484 -0.0532966356 -0.4522943322
0.0933242548 -0.0188794955 -0.4485297042
-0.1936247112 0.0284227877 -0.4260909766
-0.0009287361 -0.0512621145 -0.2639320753
0.0260895832 -0.0486650204 -0.4584548459
-0.1718932405 0.1465904801 -0.3962073166
0.0250659816 -0.0814978088 -0.4466901932
-0.0612098992 -0.0684013417 -0.4542397714
0.0242764314 -0.1039742414 -0.4772253646
-0.0536480320 -0.0451666017 -0.4540328436
0.0216615300 -0.1018201740 -0.4705755448
0.0056297490 -0.0531684576 -0.5036444423
-0.0002867928 -0.1787537948 -0.2422759416
0.0027714504 -0.0668791844 -0.4452250461
-0.1780802627 0.1241682268 -0.4166300009
-0.1868019329 0.0872543550 -0.4149079782
0.0114606566 -0.0987944876 -0.4624285465
-0.0698411082 -0.0907255085 -0.4653386695
-0.1865428608 0.1393269358 -0.4235610753
0.0225021258 -0.0574648343 -0.2904136058
0.0238796745 -0.0574973147 -0.4557403257
-0.0114509353 -0.0753077461 -0.4558949581
-0.0615501044 -0.0383004771 -0.4705438045
-0.0033105223 -0.0580147135 -0.4522114335
-0.0432610014 -0.1115390778 -0.4791296123
-0.0506323000 -0.0463079775 -0.4836465144
-0.0905281299 -0.0339458305 -0.4755952620
-0.1881970034 0.1261600610 -0.4253537636
0.0138277312 -0.0537160975 -0.4530872426
-0.0235242877 -0.0336448407 -0.4624081798
-0.0083090156 -0.0892659665 -0.4493410688
0.0130881804 -0.0874940435 -0.4411493820
-0.1794116582 0.0660972517 -0.3961869152
-0.0945180178 -0.0610716095 -0.4623577808
0.0049117132 -0.0396625006 -0.4833621948
