-0.0574219403 0.0946299906 -0.5722563957
-0.0743642634 0.0578789562 -0.5698813688
-0.0223255306 0.0507970070 -0.5777360350
-0.1238785089 0.0835385538 -0.5703065247
-0.1169938671 0.0756158527 -0.5643564374
-0.0674260967 0.0503678685 -0.5707351842
-0.0392856836 0.0834517550 -0.5742065597
-0.0618833612 0.0101906191 -0.5699128857
-0.0469395965 0.0725328395 -0.5726898142
-0.0216660494 0.0804688466 -0.5783738028
-0.0606426857 0.0853073075 -0.5714302659
-0.1071688623 0.0626736222 -0.5633844418
-0.0396440403 0.0579641499 -0.5744427021
-0.0845812520 0.0254015202 -0.5677936552
-0.0947412240 0.0832662108 -0.5650363286
-0.0893009316 0.0853094327 -0.5668367512
-0.1126582135 0.0652988251 -0.5677806567
-0.0869943644 0.0681181004 -0.5673978577
-0.0883611515 0.0522499867 -0.5628122687
-0.0294664842 0.0308451439 -0.5760481825
-0.0676761453 0.0457441753 -0.5723305606
-0.0972777597 0.0629476101 -0.5627985764
-0.1142920151 0.0886265409 -0.5668648450
-0.0797009866 0.0327062362 -0.5684012712
-0.0537511970 0.0183514746 -0.5721332205
-0.0214905694 0.0822252207 -0.5785998346
-0.0921466418 0.0557906696 -0.5648111730
-0.0392808666 0.0859260958 -0.5743748743
-0.0197985480 0.0776891766 -0.5787051063
-0.1193231541 0.1025212407 -0.5869203791
-0.0248655211 0.0380953705 -0.5782876364
-0.0843129088 0.0483229003 -0.5675319330
-0.0350085175 0.0153695938 -0.5751897952
-0.1162888160 0.0387890493 -0.5664689124
-0.0548324804 0.0206997542 -0.5704087347
-0.0674183485 0.0529643474 -0.5705776808
-0.0877637422 0.0732940757 -0.5654067281
-0.0835950524 0.0846375450 -0.5664390922
-0.0602160932 0.0908071490 -0.5721072801
-0.0650021680 0.0480430426 -0.5699722315
-0.1016272476 0.0302296193 -0.5629268601
-0.0744830971 0.0909988866 -0.5697683108
-0.0298156943 0.0681000131 -0.5759709353
-0.0824698831 0.0627213545 -0.5661422647
-0.0344948641 0.0859983708 -0.5748633065
-0.0648896690 0.0804441997 -0.5720031823
-0.0474985768 0.0830566380 -0.5743697730
-0.0599103900 0.0205055794 -0.5701985618
-0.1022499151 0.0508855925 -0.5623543454
-0.0622630554 0.0255950112 -0.5699859281
-0.1121055638 0.0802258737 -0.5628225761
-0.1197939947 0.0456183908 -0.5809656673
-0.0965464002 0.0881062861 -0.5640880625
-0.0825766082 0.0279685788 -0.5682038671
-0.0874365950 0.0652496725 -0.5636736895
-0.0670714754 0.0259873732 -0.5693907976
-0.0819749593 0.0432730583 -0.5675906146
-0.0722434073 0.0278887715 -0.5698311871
-0.0397745725 0.0457823148 -0.5748911562
-0.0766731155 0.0579640497 -0.5692412852
-0.0553207150 0.0279786410 -0.5707790901
-0.0173942866 0.0876901791 -0.5802002445
-0.0650613293 0.0356737044 -0.5700126857
-0.0848130934 0.0155816741 -0.5659532531
-0.1042047362 0.0326996587 -0.5622387662
-0.0976191331 0.0908338974 -0.5609273680
-0.0877278235 0.0905832049 -0.5653958095
-0.0848422580 0.0535264437 -0.5657987328
-0.0393282692 0.0749449650 -0.5754621023
-0.0794787926 0.0678459796 -0.5695539988
-0.0372536755 0.0505230970 -0.5752759525
-0.1042495320 0.0455362994 -0.5617237813
-0.0771189050 0.0375468926 -0.5693941603
-0.0649683059 0.0561208499 -0.5720211671
-0.0546620148 0.0706370210 -0.5730116736
-0.0750775852 0.0632200435 -0.5683940066
-0.0245588256 0.0227336950 -0.5777100538
-0.0744963558 0.0835155933 -0.5708023478
-0.0373277069 0.0202910122 -0.5752624339
-0.0397631927 0.0680293119 -0.5733043508
-0.0946481034 0.0502433229 -0.5645846755
-0.0673172839 0.0832097998 -0.5718249612
-0.0671875492 0.0809562246 -0.5720920757
-0.0868836649 0.0632045524 -0.5670900168
-0.1190188097 0.0802009595 -0.5656078377
-0.0398483769 0.0652915001 -0.5744585506
-0.0996202603 0.0209873947 -0.5633206218
-0.0228839066 0.0454900694 -0.5784634371
-0.1221289207 0.0709270212 -0.5690588984
-0.0470197645 0.0202757380 -0.5727945241
-0.0775688757 0.0205636419 -0.5677527131
-0.0269736202 0.0704772631 -0.5762535068
-0.0770357089 0.0432434195 -0.5685365364
-0.0346322435 0.0557656999 -0.5749989281
-0.0952335728 0.0429429803 -0.5635617768
-0.0448504348 0.0882416537 -0.5730589170
-0.0556672666 0.0458852959 -0.5707315401
-0.0768535502 0.0751868842 -0.5695929160
-0.0625940598 0.0357005793 -0.5701129344
-0.0670773382 0.0605836870 -0.5703491350
-0.1367603886 0.0804663701 -0.5822585671
-0.0875813517 0.0260164048 -0.5666795767
-0.0895766417 0.0332046874 -0.5654900943
-0.0997408711 0.0726583064 -0.5627778241
-0.0701912571 0.0104469916 -0.5677495273
-0.0351869129 0.0244468087 -0.5767740309
-0.0123939556 0.0381567590 -0.5802233484
-0.0669305821 0.0932157890 -0.5706659851
-0.0372232202 0.0948771650 -0.5745872207
-0.0593794999 0.0651768098 -0.5717227069
-0.0994556360 0.0711423419 -0.5640984178
-0.0801709369 0.0951790735 -0.5722118020
-0.0571822866 0.0907621171 -0.5725911921
-0.0945129564 0.0880956754 -0.5647683437
-0.1222488486 0.0753544858 -0.5676234607
-0.0623116812 0.0611841189 -0.5719382750
-0.0422868205 0.0305517752 -0.5728118717
-0.1295528560 0.0726719161 -0.5751418786
-0.0850683810 0.0562815272 -0.5671613203
-0.0596708554 0.0404282057 -0.5718118572
-0.1022651420 0.0656930710 -0.5602903438
-0.0429857465 0.0898617622 -0.5741704959
-0.0645074871 0.0879632178 -0.5720045040
-0.1123359366 0.0704110160 -0.5633968023
-0.0824125639 0.0729460154 -0.5676192157
-0.0944158434 0.0607585565 -0.5646506753
-0.0275299702 0.0226310164 -0.5760409931
-0.0752933663 0.0532281043 -0.5679291766
-0.0570548924 0.0554316062 -0.5725948110
-0.0720998534 0.0909176416 -0.5696432840
-0.1224870133 0.0568624204 -0.5802284303
-0.0465971282 0.0898041031 -0.5745506599
-0.0622613542 0.0454144088 -0.5720211581
-0.0376089996 0.0149422746 -0.5733665440
-0.0423740865 0.0532303700 -0.5750516896
-0.0798270884 0.0380803571 -0.5706038462
-0.0951077392 0.0307007781 -0.5630235370
-0.0377447864 0.0885852919 -0.5735130255
-0.1205141064 0.0540935958 -0.5818357157
-0.0300788169 0.0908813072 -0.5757031245
-0.0244169807 0.0551327099 -0.5796537303
-0.0670615248 0.0062939739 -0.5706247389
-0.0744685572 0.0884315189 -0.5706113116
-0.1147853344 0.0700374804 -0.5644936298
-0.1291673929 0.0704685782 -0.5752710540
-0.0448437277 0.0283259752 -0.5725056673
-0.0646586703 0.0227874538 -0.5697308940
-0.1119320216 0.0456289548 -0.5694374112
-0.0253743044 0.0660009026 -0.5764235594
-0.0857999611 0.0777780573 -0.5697426318
-0.1111731298 0.0479758974 -0.5680588718
-0.0590965272 0.0364680776 -0.5737110624
-0.0898808325 0.0506790306 -0.5631939256
-0.0746409794 0.0153484177 -0.5679555391
-0.0353355439 0.0480837561 -0.5739279385
-0.0516403620 0.0207367529 -0.5722717990
-0.0676030910 0.0787897110 -0.5718847051
-0.0396491896 0.0221475292 -0.5748970396
-0.0626653563 0.0808346299 -0.5720060656
-0.0771781829 0.0861357265 -0.5706071611
-0.0844946640 0.0633712359 -0.5661791887
-0.0948518749 0.0783217932 -0.5646293446
-0.0477484132 0.0881694215 -0.5741891828
-0.1091254158 0.0585322401 -0.5655816235
-0.0648045999 0.0811314556 -0.5711563147
-0.0344985741 0.0751156857 -0.5754953526
-0.0693776657 0.0813140348 -0.5707852046
-0.1173214656 0.0649950386 -0.5703409633
-0.0241964966 0.0286032198 -0.5795949224
-0.0323971128 0.0533026728 -0.5753599169
-0.0100475816 0.0326985889 -0.5819997883
-0.0542302617 0.0253648232 -0.5707212407
-0.0426892160 0.0701532535 -0.5747671677
-0.1130656870 0.0807062232 -0.5646259739
-0.0306095518 0.0280232375 -0.5760275994
-0.0998052255 0.0860558500 -0.5624189380
-0.0352068237 0.0281427545 -0.5755575340
-0.0700298819 0.0806483246 -0.5718777660
-0.0567782679 0.0532994750 -0.5717610185
-0.0692033470 0.0661698058 -0.5684553683
-0.0723324219 0.0504534765 -0.5706597205
-0.0499501394 0.0350746513 -0.5710514229
-0.0820555464 0.0382963864 -0.5676011884
-0.0551042121 0.0360216166 -0.5698814589
-0.0996386364 0.0404176519 -0.5625212831
-0.0975743287 0.0514340297 -0.5608152374
-0.0598477554 0.0630292179 -0.5706564625
-0.0422193979 0.0504485082 -0.5752558227
-0.0646091949 0.0128114539 -0.5699308431
-0.0979664549 0.0669725314 -0.5630208850
-0.0910192370 0.0435319899 -0.5630359369
-0.0932223449 0.0750693717 -0.5629498555
-0.1200736976 0.0647133729 -0.5729471842
-0.0424318105 0.0907757118 -0.5727661870
-0.0942632163 0.0333825932 -0.5651860289
-0.0719200582 0.0302201403 -0.5707358487
-0.0535033010 0.0805251002 -0.5715072155
-0.0693310311 0.0932372609 -0.5702135814
-0.0256932117 0.0115335966 -0.5782844424
-0.0575885444 0.0200348138 -0.5686107411
-0.0944226944 0.0383249574 -0.5648798851
-0.1170275696 0.0553094014 -0.5771451642
-0.0748721292 0.0560051135 -0.5680999580
-0.1375105352 0.0708830188 -0.5823557919
-0.1172252977 0.0431017592 -0.5751659356
-0.0496351730 0.0308096703 -0.5721740837
-0.1144940051 0.0882369534 -0.5655254950
-0.1098512273 0.0888748585 -0.5648314051
-0.0268456606 0.0835201523 -0.5798938144
-0.0644423131 0.0148008681 -0.5697753360
-0.0697986260 0.0673801601 -0.5684697628
-0.0272925333 0.0377645765 -0.5781486447
-0.0247168868 0.0138644693 -0.5795424826
-0.0218646629 0.0726294041 -0.5802413516
-0.0268539170 0.0729926886 -0.5793478818
-0.0874763433 0.0155289557 -0.5656166823
-0.0278518461 0.0624786504 -0.5763247013
-0.0294026285 0.0950258523 -0.5801415741
-0.0920123217 0.0578624506 -0.5642712267
-0.0527142682 0.0550540645 -0.5709426539
-0.0851562935 0.0755903693 -0.5659080957
-0.0896332652 0.0733571919 -0.5665706254
-0.0421177223 0.0552114678 -0.5734521884
-0.0446745390 0.0135031507 -0.5712092623
-0.0974431076 0.0303843281 -0.5623447889
-0.0555432445 0.0604541362 -0.5707609979
-0.0220253404 0.0834585971 -0.5794858020
-0.0406828212 0.0861312876 -0.5732023767
-0.0705988751 0.0736759650 -0.5728727089
-0.0373053480 0.0229399099 -0.5748092507
-0.0658649802 0.0663687140 -0.5672260523
-0.0270458790 0.0479673834 -0.5791779227
-0.0798561374 0.0603437409 -0.5680564401
-0.0946794137 0.0503343915 -0.5628040592
-0.0855958983 0.0869018584 -0.5691334605
-0.0402345518 0.0580400922 -0.5736523476
-0.0669377890 0.0484594557 -0.5723655939
-0.0858319625 0.0907552615 -0.5661484599
-0.1219707951 0.0883408079 -0.5704692082
-0.0866739205 0.0654766526 -0.5665390733
-0.0818794854 0.0952390991 -0.5717216730
-0.0597205239 0.0836884391 -0.5720101488
-0.0746177825 0.0805411775 -0.5704867099
-0.0193711380 0.0400169324 -0.5822181106
-0.0839245543 0.0585289001 -0.5695427656
-0.0742482442 0.0478295350 -0.5693024874
-0.0574498816 0.0733957820 -0.5722832062
-0.1193920161 0.0587756014 -0.5759864532
-0.1239553149 0.0627219492 -0.5752303687
-0.0378720984 0.0118563501 -0.5748130679
-0.0146838609 0.0799112570 -0.5823508101
-0.0724440508 0.0206550330 -0.5677457043
-0.0646615652 0.0775270093 -0.5711926821
-0.0794894621 0.0083374181 -0.5685772896
-0.0304599493 0.0527482822 -0.5757737464
-0.0944125874 0.0435339806 -0.5651860720
-0.0824659664 0.0778480859 -0.5680275713
-0.1202857740 0.0684490619 -0.5695023468
-0.0395159965 0.0275961952 -0.5746362938
-0.0954668573 0.0906552257 -0.5628077024
-0.0622140983 0.0429345895 -0.5705872163
-0.0923806765 0.0530843942 -0.5628170911
-0.0618813468 0.0210496611 -0.5696798952
-0.0975367774 0.0882312435 -0.5626470163
-0.0699549535 0.0381173260 -0.5703705536
-0.0348835520 0.0583807799 -0.5736878358
-0.0318629948 0.0383391425 -0.5772287101
-0.1334100515 0.0786528364 -0.5792989135
-0.0955395401 0.1001555696 -0.5854637027
-0.0248281732 0.0432559735 -0.5777449257
-0.0346365546 0.0589539322 -0.5769783395
-0.0745223335 0.0702135893 -0.5703124639
-0.0292669243 0.0334695429 -0.5760021607
-0.0625517458 0.0379326957 -0.5705783616
-0.1165215036 0.0425229378 -0.5727605408
-0.0347236817 0.0434892051 -0.5750961319
-0.1173873320 0.0777806051 -0.5646241592
-0.0978869627 0.0582323753 -0.5607183430
-0.0813911733 0.0725661473 -0.5693329721
-0.0746097423 0.0401785952 -0.5697807244
-0.1297226170 0.0662211106 -0.5782544310
-0.1024421950 0.0825689265 -0.5620743767
-0.0972690310 0.0579282546 -0.5630517896
-0.0869843908 0.0383347498 -0.5668760631
-0.0151446446 0.0403998258 -0.5805481275
-0.0868871401 0.0355217674 -0.5670796711
-0.1117734952 0.0308303463 -0.5624534451
-0.0755931959 0.0051457991 -0.5707651079
-0.0827651708 0.0159582305 -0.5657187431
-0.0573430533 0.0882999789 -0.5711764122
-0.0719561428 0.0064296126 -0.5694438815
-0.0492811810 0.0505634113 -0.5720615810
-0.1060030237 0.0553896893 -0.5625360310
-0.0696032064 0.0208891683 -0.5700623322
-0.0619655298 0.0909657157 -0.5716192351
-0.0720233433 0.0580682688 -0.5701455287
-0.0390400966 0.0809543577 -0.5743097665
-0.1068992116 0.0653882933 -0.5627973678
-0.0551878065 0.0936466083 -0.5740718246
-0.0943792194 0.0149767474 -0.5652906824
-0.0546290203 0.0556739875 -0.5722245417
-0.0163370892 0.0242366530 -0.5817106366
-0.0801208087 0.0330196175 -0.5698735246
-0.0518891787 0.0381580401 -0.5721708211
-0.0375190048 0.0535220644 -0.5738049916
-0.1317803383 0.0785551924 -0.5774143781
-0.1035836414 0.0673399046 -0.5610113740
-0.1250570599 0.0735511334 -0.5701968261
-0.0252010073 0.0626913356 -0.5784970848
-0.0953887348 0.0529321172 -0.5630023324
-0.1174122405 0.0802811513 -0.5647371856
-0.0443508234 0.0434086709 -0.5750153386
-0.0470935117 0.0854652859 -0.5743436053
-0.0324195616 0.0479039988 -0.5782007257
-0.0079008071 0.0286465148 -0.5843435526
-0.0899904296 0.0910108611 -0.5637864470
-0.0272005837 0.0138014915 -0.5792494883
-0.1323671670 0.0756684818 -0.5772380291
-0.0874889866 0.0944476500 -0.5658048093
-0.1070989622 0.0279492890 -0.5626547998
-0.1074428068 0.0304938064 -0.5621297878
-0.0668625298 0.0655073544 -0.5694467990
-0.0636700094 0.0602390468 -0.5678787827
-0.0837949113 0.1034083412 -0.5908489222
-0.0264068586 0.0343734299 -0.5796837166
-0.0994269962 0.0678309577 -0.5626595254
-0.0672438517 0.0842934325 -0.5687969923
-0.0894793398 0.0359834777 -0.5660308286
-0.1062787967 0.0426630750 -0.5612114321
-0.0998967358 0.0254621192 -0.5610805983
-0.0543825520 0.0834417856 -0.5719600915
-0.0373719565 0.0354162566 -0.5748087870
-0.1192601469 0.0453453022 -0.5782421676
-0.0653333369 0.0457181934 -0.5710409478
-0.0918637223 0.0310385023 -0.5650242134
-0.0723101651 0.0533988616 -0.5674285814
-0.0622407541 0.0757284553 -0.5706055220
-0.0450190803 0.0854030457 -0.5745620967
-0.0597835486 0.0230634894 -0.5703229710
-0.0748865262 0.0375963172 -0.5676000657
-0.0721429901 0.0657818935 -0.5686080083
-0.0493020035 0.0677410018 -0.5722913933
-0.0961780892 0.0632385228 -0.5643456537
-0.0484559685 0.1018237621 -0.5978898406
-0.0724882436 0.0432753960 -0.5696388231
-0.0401194252 0.0698734104 -0.5736494845
-0.1093481217 0.0438043806 -0.5667472365
-0.1222172277 0.0510904084 -0.5847099310
-0.0896604010 0.0904566668 -0.5644638015
-0.1016848784 0.0523305300 -0.5595057808
-0.0323884236 0.0179337789 -0.5752119026
-0.0621458511 0.0153576916 -0.5700169356
-0.1002153912 0.0553395401 -0.5627468920
-0.0897897169 0.0554190971 -0.5629257798
-0.0966971341 0.1025908352 -0.5899665784
-0.0263192020 0.1021986753 -0.6027576327
-0.0749398283 0.0276922152 -0.5682577967
-0.0298721724 0.0859372350 -0.5779781886
-0.0570279264 0.0383198570 -0.5721862336
-0.0857344605 0.0485472642 -0.5661241710
-0.0910704778 0.0704647269 -0.5635697549
-0.0554556053 0.0331266851 -0.5706042346
-0.0556789006 0.0573236935 -0.5712681155
-0.0542924765 0.0726980179 -0.5726713435
-0.1016725168 0.0453823656 -0.5620576827
-0.0423501861 0.0457913132 -0.5733843631
-0.0571317167 0.0479764115 -0.5723481967
-0.0526909640 0.0579352091 -0.5730861314
-0.0872378488 0.0707100091 -0.5678107581
-0.1198499145 0.0656202223 -0.5701836028
-0.0250349160 0.0406531091 -0.5780877959
-0.0822407782 0.0827620415 -0.5678859727
-0.0739174485 0.0316925682 -0.5720973611
-0.0542118438 0.0593537427 -0.5749359727
-0.1143066364 0.0380347654 -0.5657747111
-0.1002282556 0.0502983785 -0.5611287242
-0.1216440820 0.0638718931 -0.5727876238
-0.1102773103 0.0382571320 -0.5668717836
-0.0552132285 0.0438974828 -0.5708938696
-0.1027182347 0.0528836026 -0.5623553547
-0.0770012760 0.0727808402 -0.5697825623
-0.0972172368 0.0451110541 -0.5640924797
-0.0772150960 0.0279824059 -0.5696836161
-0.0193263294 0.0226039557 -0.5804575292
-0.0725443159 0.0385356528 -0.5685744145
-0.1048517050 0.0826318290 -0.5608733080
-0.0720181594 0.0677442143 -0.5701536258
-0.0371325846 0.0154035533 -0.5748762652
-0.1247719526 0.0659192652 -0.5739825368
-0.0601607558 0.0404978686 -0.5708564860
-0.0395669211 0.0703622490 -0.5750726902
-0.0874002336 0.0305407227 -0.5674709728
-0.1045878235 0.0772098194 -0.5622847621
-0.0792125057 0.0579534917 -0.5692470105
-0.0596258608 0.0287070610 -0.5720257067
-0.0539128271 0.0482341679 -0.5741596266
-0.0868819348 0.0564327754 -0.5670748868
-0.0394672909 0.0155646969 -0.5732655289
-0.1140502587 0.0557918780 -0.5733693089
-0.0147633033 0.0753225349 -0.5807340726
-0.0302637541 0.0481400014 -0.5760792130
-0.1027288336 0.0700544429 -0.5608120674
-0.1071945980 0.0775559611 -0.5623952769
-0.0097374329 0.0310971346 -0.5817802250
-0.0293349448 0.0429644490 -0.5772889095
-0.1140635423 0.0349695832 -0.5632127821
-0.1012222645 0.0225418011 -0.5625269439
-0.0199249037 0.0427131128 -0.5806417815
-0.0894170049 0.0704940063 -0.5673325566
-0.1052075138 0.0357784053 -0.5618848927
-0.0521168222 0.0131482458 -0.5702670469
-0.0151355481 0.0713177398 -0.5785704851
-0.1156884297 0.0802417563 -0.5640741157
-0.0949569574 0.0808343048 -0.5627209722
-0.0416823366 0.0158390947 -0.5728349567
-0.0542289985 0.0331823914 -0.5720695321
-0.0281670086 0.0204700344 -0.5760699057
-0.0991355255 0.0791050717 -0.5640094280
-0.0821048680 0.0254635576 -0.5681040501
-0.1199898541 0.0415161313 -0.5750738148
-0.0944472332 0.0758921252 -0.5644726679
-0.0749218382 0.0429485315 -0.5698575450
-0.0594734386 0.0127838269 -0.5701329236
-0.0793600914 0.0481107385 -0.5682491986
-0.0247920107 0.0776251848 -0.5781183697
-0.0305378546 0.0947501972 -0.5772433759
-0.1071286265 0.0751986465 -0.5626579890
-0.0565881468 0.1030647531 -0.6005384922
-0.0723307256 0.0101921552 -0.5680594253
-0.0470311078 0.0231641515 -0.5724221125
-0.0347725544 0.0808624614 -0.5756300156
-0.0315077705 0.0950475298 -0.5778863728
-0.0736866533 0.0104444464 -0.5691956452
-0.0398164476 0.0156610196 -0.5749319805
-0.0450358465 0.0415175277 -0.5750168031
-0.0751712614 0.0104492863 -0.5686583468
-0.0373112558 0.0307826516 -0.5747938224
-0.0376708359 0.0705792457 -0.5772037506
-0.0672873855 0.0579713214 -0.5703929438
-0.0357148670 0.0726598237 -0.5733828494
-0.1020488814 0.0705661029 -0.5641555786
-0.0898220552 0.0338656619 -0.5668084423
-0.0470678455 0.0111751084 -0.5711769396
-0.1086265072 0.0393909402 -0.5636988282
-0.0726846158 0.0232584012 -0.5697097984
-0.0600234881 0.0577640575 -0.5708330568
-0.1120094880 0.0588345528 -0.5683846474
-0.0856706729 0.0356290207 -0.5651541862
-0.0835664794 0.0080780573 -0.5667461157
-0.0593209118 0.0889624506 -0.5709308982
-0.0601000749 0.0531402260 -0.5717274158
-0.0576524624 0.0358632695 -0.5702234534
-0.1369381349 0.0732774038 -0.5802213829
-0.0947808890 0.0407575343 -0.5646618012
-0.0148693617 0.0380626068 -0.5805641881
-0.1388507861 0.0694384196 -0.5841635557
-0.0320723473 0.0604806694 -0.5731637488
-0.1199190864 0.0556104923 -0.5806743089
-0.0222739918 0.0276229303 -0.5784671271
-0.0443345789 0.0155478888 -0.5720565004
-0.0223461615 0.0476855612 -0.5795981733
-0.0753612854 0.0228758019 -0.5698727033
-0.0592956095 0.0947923513 -0.5701415399
-0.0469561216 0.0228246635 -0.5710490113
-0.0803267360 0.0417297930 -0.5663124323
-0.1171715972 0.0827296311 -0.5648769257
-0.0494028317 0.0528672540 -0.5717591594
-0.0769388810 0.0136469826 -0.5660194978
-0.0649638828 0.0904323771 -0.5718604627
-0.0469930254 0.0530419317 -0.5727993175
-0.0670705654 0.0726817036 -0.5702240923
-0.0446552746 0.0331691258 -0.5732288888
-0.0941850865 0.0131125042 -0.5651853732
-0.0897102188 0.0659652790 -0.5635963791
-0.0149083017 0.0828207554 -0.5818552200
-0.1023032313 0.0855285047 -0.5607899551
-0.1019563618 0.0579021449 -0.5616749719
-0.0355722867 0.0404450335 -0.5734001398
-0.0825287670 0.0163437158 -0.5698298228
-0.1186394669 0.0525288584 -0.5805586357
-0.0398422609 0.0353285613 -0.5747431013
-0.0515992254 0.0257578015 -0.5724614506
-0.0997826236 0.0834504592 -0.5619555203
-0.0946625869 0.0732032178 -0.5628437985
-0.1001878438 0.0675954186 -0.5609788130
-0.0907410532 0.0577353612 -0.5630155504
-0.0518185612 0.0678013756 -0.5720422603
-0.0571423812 0.0782867426 -0.5704968605
-0.0349935094 0.0203087741 -0.5755397901
-0.1265103465 0.0780986024 -0.5705571841
-0.0570878885 0.0129740403 -0.5701231804
-0.1044849079 0.0728536290 -0.5607129802
-0.0226029946 0.0502444272 -0.5797628599
-0.0397733399 0.0332930046 -0.5735794104
-0.0347459514 0.0357572751 -0.5750496965
-0.1247224163 0.0569012961 -0.5821802136
-0.0145453354 0.0434571542 -0.5822550058
-0.0296217971 0.0477749468 -0.5785496294
-0.1097573557 0.0728298677 -0.5634216582
-0.0897594965 0.0833188266 -0.5654099436
-0.0295802495 0.0860246927 -0.5757207216
-0.0747356900 0.0677742256 -0.5701902996
-0.0718718788 0.0751260520 -0.5700123258
-0.0647493567 0.0588243193 -0.5715861191
-0.0813990770 0.0807738623 -0.5698188956
-0.1071671982 0.0855313553 -0.5624407674
-0.0241396037 0.0857246506 -0.5782594854
-0.1000156858 0.0353353832 -0.5608237853
-0.0419773070 0.0359239462 -0.5741065910
-0.0648782104 0.0259383372 -0.5683206618
-0.0864898452 0.0732861741 -0.5672411753
-0.1047106433 0.0803312973 -0.5624344456
-0.0825757028 0.0331633001 -0.5686931754
-0.0994186713 0.0280065822 -0.5626939132
-0.0296118887 0.0679615168 -0.5772914601
-0.1073029199 0.0785316725 -0.5608072968
-0.0751820701 0.0353480933 -0.5700822083
-0.0975095030 0.0782419562 -0.5645187453
-0.0519215560 0.0716390943 -0.5740460602
-0.0442501214 0.0533490064 -0.5748695721
-0.0743072613 0.0697079950 -0.5684544066
-0.0651789819 0.0158999312 -0.5677282588
-0.1000053755 0.0907396097 -0.5622787580
-0.0950148639 0.0327833820 -0.5633971148
-0.0543212093 0.0310744063 -0.5712406692
-0.0439728641 0.0128991701 -0.5723740879
-0.0443675811 0.0360796942 -0.5722761346
-0.0645677372 0.0703132378 -0.5698945675
-0.0600676688 0.0182638244 -0.5699185757
-0.0218741766 0.0758903253 -0.5786464795
-0.0220319402 0.0908254114 -0.5786349525
-0.0571395784 0.0751755390 -0.5704306643
-0.0848926442 0.0733187435 -0.5653750427
-0.0845235918 0.0827394808 -0.5679984179
-0.0273337635 0.0162072420 -0.5799560062
-0.0494718202 0.0726488364 -0.5725081354
-0.0700705645 0.0277424022 -0.5700648321
-0.0867848608 0.0407790307 -0.5673418373
-0.0670563977 0.0884318166 -0.5700022655
-0.0647036161 0.0257623314 -0.5723044491
-0.0496806077 0.0603390762 -0.5732550176
-0.0231527493 0.0163476449 -0.5792891089
-0.0745062857 0.0604419821 -0.5696962694
-0.0793250074 0.0804962970 -0.5699120535
-0.0751660861 0.0605497065 -0.5681614612
-0.1303311564 0.0757096885 -0.5753156887
-0.0324752293 0.0476407510 -0.5754986388
-0.0673883686 0.0480884600 -0.5699836841
-0.0875441035 0.0363313680 -0.5659785223
-0.0324954548 0.0203555708 -0.5758060264
-0.0523525746 0.0858713617 -0.5711449913
-0.0375909548 0.0504113784 -0.5739081713
-0.1149408073 0.0753119080 -0.5631372642
-0.0518451136 0.0556339750 -0.5725895031
-0.0316624532 0.0329424755 -0.5772887611
-0.0336933828 0.0480662371 -0.5770423637
-0.0199588203 0.0376940327 -0.5803219279
-0.1107142344 0.0488697179 -0.5671055317
-0.0694912253 0.0726748935 -0.5701584831
-0.0301981939 0.0326432737 -0.5769340137
-0.0573236109 0.0733039333 -0.5710792838
-0.0579259367 0.0173849847 -0.5687771554
-0.0801951692 0.0906867749 -0.5682547238
-0.1044970813 0.0885103486 -0.5617387767
-0.0396180108 0.0608448519 -0.5734173037
-0.0774650891 0.0304535570 -0.5685167153
-0.0520106471 0.0628658173 -0.5726780338
-0.0622656452 0.0760811394 -0.5720592576
-0.0278362763 0.0697338043 -0.5784782792
-0.0871950812 0.0775041392 -0.5648752430
-0.0814289747 0.0704389460 -0.5694831300
-0.0696970646 0.0270987451 -0.5681871795
-0.0494787195 0.0229366314 -0.5726571750
-0.0143377998 0.0275858442 -0.5808267235
-0.1285866271 0.0802933162 -0.5744123320
-0.0556407152 0.0952534720 -0.5723320727
-0.0794246596 0.0703545306 -0.5693586902
-0.0494906044 0.0806754993 -0.5726790502
-0.0215934442 0.0251343227 -0.5797586056
-0.1097160295 0.0705076113 -0.5633305964
-0.1177844237 0.0551245972 -0.5793237201
-0.0874539352 0.0105737102 -0.5648881492
-0.0845086756 0.0552092783 -0.5658877746
-0.0722237704 0.0081647595 -0.5682919562
-0.0748876930 0.0439402439 -0.5681712006
-0.0545097579 0.0531992088 -0.5707647958
-0.1345892247 0.0862167965 -0.5821452771
-0.0821332896 0.0406652885 -0.5674120924
-0.0264397405 0.0379955026 -0.5792824716
-0.0368980398 0.0834283573 -0.5747676692
-0.0468387647 0.0656554768 -0.5747391997
-0.0422470305 0.0605931642 -0.5741993260
-0.1003927573 0.0403633830 -0.5600172449
-0.0422483980 0.0627802396 -0.5736425996
-0.0674902495 0.0406201087 -0.5700735760
-0.0470057373 0.0679387379 -0.5730951453
-0.0922049762 0.0902361819 -0.5649844958
-0.0269597291 0.0328083848 -0.5772512409
-0.1047253223 0.0606330203 -0.5618020721
-0.0301469723 0.0150806068 -0.5757950397
-0.0655334839 0.0182567237 -0.5683080155
-0.0901646912 0.0388894789 -0.5669249296
-0.0726419895 0.0606341353 -0.5681404208
-0.0324704214 0.0861898724 -0.5759765863
-0.0450250879 0.0272695764 -0.5689406512
-0.0352727914 0.0710485953 -0.5738803455
-0.0397941171 0.0233273701 -0.5733269901
-0.0569026252 0.0278469580 -0.5720719649
-0.0775292956 0.0429090178 -0.5693836899
-0.0392460448 0.0776587706 -0.5769234884
-0.0834664255 0.0320523567 -0.5695039630
-0.0796084845 0.0403811644 -0.5707193584
-0.0651115159 0.0206149600 -0.5693361443
-0.0495178167 0.0355617599 -0.5728442910
-0.0959446672 0.0922970551 -0.5645341593
-0.0895907471 0.0781493192 -0.5672002183
-0.0245437856 0.0857566834 -0.5800750322
-0.0279506867 0.0852555216 -0.5760491377
-0.0544902033 0.0305530879 -0.5725597236
-0.0371389779 0.0481579289 -0.5752049534
-0.0443296458 0.0885120260 -0.5745950452
-0.0468107741 0.0808337172 -0.5722114805
-0.0518489179 0.0456624213 -0.5721448798
-0.0969853255 0.0603231015 -0.5629671372
-0.0596774125 0.0704324284 -0.5710544897
-0.1073343740 0.0802138428 -0.5625723138
-0.0172126824 0.0777547900 -0.5803639144
-0.0724158268 0.0306957118 -0.5688186149
-0.0795141523 0.0103372281 -0.5674323493
-0.0721984034 0.0233091402 -0.5672904769
-0.0318043511 0.0455536651 -0.5775407013
-0.1224975391 0.0554276799 -0.5825994675
-0.0771591455 0.0601701392 -0.5685147729
-0.0590837955 0.0786200915 -0.5706856863
-0.1141731460 0.0802388101 -0.5634824944
-0.0321905994 0.0751811213 -0.5760639303
-0.0821676520 0.0132143742 -0.5653444757
-0.0396719118 0.0131795567 -0.5729994387
-0.1252406551 0.0836195104 -0.5719833952
-0.0817502864 0.0082462674 -0.5676893929
-0.0219645705 0.0330999689 -0.5784605810
-0.0496600951 0.0280779960 -0.5729408261
-0.0231517588 0.0633999383 -0.5783313406
-0.1218986917 0.0476650755 -0.5838537773
-0.1320926094 0.0705615821 -0.5781875983
-0.0676243482 0.0180601753 -0.5703532192
-0.0299630568 0.0250895602 -0.5773573042
-0.0770982584 0.0081671767 -0.5699325274
-0.0696998700 0.0452363490 -0.5685124539
-0.1018451829 0.0754300025 -0.5621521385
-0.0425537005 0.0835654231 -0.5730851581
-0.0746847118 0.0932241206 -0.5684577425
-0.0296950327 0.0302481682 -0.5773324570
-0.0226465217 0.0678941167 -0.5781596520
-0.0377321027 0.0529189646 -0.5746425992
-0.1044333493 0.0584005601 -0.5618627292
-0.0627112692 0.0663751442 -0.5721890598
-0.0772332008 0.0582607736 -0.5677117471
-0.0945308712 0.0259380410 -0.5647020942
-0.0297131669 0.0150149409 -0.5770698552
-0.0995187110 0.0380542888 -0.5622844016
-0.0451343089 0.0650747620 -0.5752419917
-0.0170949991 0.0751916515 -0.5805611535
-0.1042639520 0.0607098984 -0.5603065044
-0.0376887102 0.0327909078 -0.5747111096
-0.0676350126 0.0738817222 -0.5726191519
-0.0595276482 0.0711211577 -0.5725826859
-0.0746058671 0.0628219740 -0.5702677877
-0.0066163646 0.0356309835 -0.5849720873
-0.0819974749 0.0679621089 -0.5678313738
-0.1042393046 0.0281368899 -0.5628433175
-0.0363918506 0.0719184354 -0.5765194297
-0.0821178627 0.0482502543 -0.5682548481
-0.0321211088 0.0915904194 -0.5736286640
-0.0247900241 0.0457817983 -0.5797630298
-0.0377647765 0.0457669029 -0.5747587778
-0.0929623950 0.0203660319 -0.5657881261
-0.0599719345 0.0280558431 -0.5703947675
-0.0692897799 0.0778548381 -0.5707707918
-0.1195176697 0.0603925152 -0.5753505066
-0.1097064729 0.0407649018 -0.5653837381
-0.0653065965 0.0396250228 -0.5718750003
-0.0374025890 0.0254729742 -0.5751782611
-0.0222752098 0.0401964923 -0.5805010520
-0.0227105605 0.0698756545 -0.5783364442
-0.0633090561 0.0396442192 -0.5683889157
-0.1169038400 0.0456681695 -0.5755794314
-0.0720993558 0.0322699808 -0.5709537686
-0.0679844724 0.0629583273 -0.5687444036
-0.0563239494 0.0429209248 -0.5726885373
-0.0696300388 0.0713358611 -0.5720632950
-0.0544671332 0.0430149366 -0.5723688628
-0.0626690630 0.0785639305 -0.5722193867
-0.0578647852 0.0859895188 -0.5721468606
-0.0828845197 0.0509698260 -0.5648445772
-0.0769579156 0.0608537252 -0.5697503020
-0.0399283831 0.0883669318 -0.5729113569
-0.0496282764 0.0858342344 -0.5731435116
-0.0574625696 0.0430917960 -0.5710403937
-0.0475005657 0.0859897334 -0.5731441977
-0.0974964686 0.0931512173 -0.5623910427
-0.0398065461 0.0182567366 -0.5732814699
-0.0846817048 0.0680396768 -0.5678746890
-0.0800189453 0.0557356598 -0.5694158090
-0.1281835967 0.0738406618 -0.5740593459
-0.0424047857 0.0856589979 -0.5742657421
-0.0264817192 0.0853350460 -0.5782571047
-0.0373690201 0.0583289029 -0.5734635875
-0.0571176521 0.0948306210 -0.5747501254
-0.0700057459 0.0256940106 -0.5695466512
-0.0646841571 0.0629793285 -0.5700187149
-0.0203945887 0.0204430041 -0.5809486541
-0.0518986365 0.0430189940 -0.5725617538
-0.0894521486 0.0404340282 -0.5656202480
-0.0719302046 0.0860328358 -0.5701703212
-0.0379739556 0.0562659994 -0.5733113753
-0.1169502987 0.0604842909 -0.5747516220
-0.0475863256 0.0733061812 -0.5710709913
-0.0168466205 0.0900102258 -0.5795383453
-0.0543391154 0.0552101960 -0.5709832850
-0.1101554957 0.0335003341 -0.5607069318
-0.0105653713 0.0731108673 -0.5810460746
-0.0776723959 0.0339462385 -0.5656854060
-0.0939253006 0.0582447527 -0.5642344225
-0.0749267014 0.0206497069 -0.5675929919
-0.0366846410 0.0699458768 -0.5759071509
-0.0368019390 0.0750319899 -0.5752766257
-0.0829539713 0.0240798479 -0.5658154647
-0.0075330013 0.0330729519 -0.5834537011
-0.1123916533 0.0459970175 -0.5719161235
-0.0398384903 0.0653840410 -0.5730085605
-0.0296605128 0.0626136805 -0.5777418754
-0.0744999232 0.0755868942 -0.5698791343
-0.0770168751 0.0357414687 -0.5663984859
-0.0499220727 0.0833684178 -0.5748770856
-0.0422938542 0.0784344660 -0.5744805142
-0.0423453777 0.0781608461 -0.5732347338
-0.1011480075 0.0394742972 -0.5584243052
-0.0249629692 0.0823664992 -0.5780656545
-0.1269502462 0.0871454825 -0.5753676704
-0.0545897579 0.0680450760 -0.5725157748
-0.0859964415 0.0144923730 -0.5670005679
-0.0897605377 0.0258163804 -0.5658413166
-0.1120784295 0.0406836059 -0.5673695658
-0.0270097251 0.0254800046 -0.5776730553
-0.0913348645 0.0389525108 -0.5665575862
-0.0695160660 0.0629463577 -0.5702522647
-0.0521625587 0.0533439046 -0.5710432366
-0.0601709416 0.0382290562 -0.5702209174
-0.1121580298 0.0826569831 -0.5632813187
-0.0275391355 0.0402681362 -0.5783688856
-0.0566635832 0.0258982649 -0.5722676791
-0.0499677788 0.0635673699 -0.5712590331
-0.0295046599 0.0277461037 -0.5773627259
-0.1139629744 0.0827536434 -0.5629268289
-0.0496021535 0.0380193429 -0.5732246171
-0.0972967617 0.0504011838 -0.5628117051
-0.0899500193 0.0430692094 -0.5648829016
-0.0671333363 0.0684790684 -0.5721344708
-0.0842462556 0.0508224750 -0.5673358751
-0.0775062509 0.0480144696 -0.5694523163
-0.1120619952 0.0351975485 -0.5628485992
-0.0620078115 0.0334517350 -0.5730712256
-0.0493091665 0.0836137463 -0.5723935529
-0.1189990101 0.0486174336 -0.5805914946
-0.0627893060 0.0460187048 -0.5686216354
-0.0420481436 0.0681624878 -0.5733276557
-0.0430274041 0.0927801072 -0.5740449611
-0.0918204966 0.0457408177 -0.5632020340
-0.1087414421 0.0484070388 -0.5657286268
-0.0539296724 0.0206761734 -0.5719349896
-0.0447783626 0.0931235156 -0.5725251957
-0.1173228700 0.0409295365 -0.5719843858
-0.0297738717 0.0806505440 -0.5775636101
-0.0322800339 0.0685898906 -0.5771590170
-0.1321773455 0.0831294172 -0.5802292228
-0.0628470902 0.0430501794 -0.5717162035
-0.0647269532 0.0432654209 -0.5721409345
-0.0127170121 0.0846584125 -0.5810990874
-0.0196965792 0.0854858849 -0.5798208510
-0.0218167671 0.0357889247 -0.5786687136
-0.0573209991 0.0309510917 -0.5707785890
-0.0270332319 0.0603990369 -0.5773794769
-0.0922692230 0.0783209478 -0.5651762018
-0.0506389745 0.0089213678 -0.5726633762
-0.0395803882 0.0258193158 -0.5727050149
-0.0272318356 0.0474402868 -0.5785878424
-0.0793189011 0.0581184993 -0.5683241870
-0.1248858386 0.0811470062 -0.5699479759
-0.1219779500 0.0728217207 -0.5676606302
-0.0525524425 0.0359640128 -0.5704899339
-0.0672736695 0.0381477910 -0.5710118921
-0.0625116330 0.0283003339 -0.5700774127
-0.0424444396 0.0451123049 -0.5755252164
-0.0974653306 0.0429201711 -0.5627803073
-0.0202436823 0.0280304388 -0.5786444656
-0.0294780270 0.0582452100 -0.5754958242
-0.1100605850 0.0689332250 -0.5632673789
-0.0470648415 0.0179981266 -0.5710149006
-0.0251024751 0.0728530028 -0.5781921034
-0.0550603444 0.0183533456 -0.5697432050
-0.0744193137 0.0727296795 -0.5697843127
-0.1335884184 0.0954785645 -0.5846761465
-0.0871276266 0.0201300394 -0.5670061660
-0.0921456784 0.0258229782 -0.5653620615
-0.0727302197 0.0902209430 -0.5686270837
-0.0324567919 0.0152328833 -0.5755471066
-0.0207815710 0.0587946698 -0.5784697533
-0.0519097310 0.0406452528 -0.5721781178
-0.0697703545 0.0608273880 -0.5705706830
-0.0748258614 0.0655420137 -0.5677607750
-0.0372074754 0.0935887303 -0.5731140805
-0.0873281792 0.0685252723 -0.5639707347
-0.0282303875 0.0250738879 -0.5757350014
-0.0797814873 0.0229046209 -0.5698369702
-0.0399064198 0.0153820105 -0.5713863969
-0.1188904457 0.0424132837 -0.5752939236
-0.0598218643 0.0383670765 -0.5719517179
-0.0771558050 0.0282517908 -0.5677763046
-0.0242523609 0.0501959084 -0.5796392421
-0.1271946385 0.0733271928 -0.5721684140
-0.0310899653 0.1007908806 -0.6002418399
-0.0969970537 0.0736531608 -0.5629404630
-0.0569188381 0.0330725471 -0.5726445964
-0.0579840999 0.0154335721 -0.5682014767
-0.1042163571 0.0407551901 -0.5603583569
-0.1172779575 0.0905020982 -0.5685919523
-0.0567766760 0.0682794640 -0.5731160304
-0.0869957891 0.0509114682 -0.5653124088
-0.0600168487 0.0107084434 -0.5699560906
-0.0447605541 0.0834672051 -0.5729423426
-0.0799046159 0.0935676081 -0.5699389362
-0.1272237925 0.0638154841 -0.5777860426
-0.0922062866 0.0153528154 -0.5656147628
-0.0989805348 0.0284292819 -0.5645582378
-0.0575458641 0.0334683910 -0.5704182311
-0.0990888457 0.1027128398 -0.5891625359
-0.1148604624 0.0600980011 -0.5720583659
-0.0668958626 0.0881618191 -0.5715985704
-0.0500916392 0.0277609639 -0.5705649494
-0.0714604414 0.0432078404 -0.5686455155
-0.0495540561 0.0558334502 -0.5722357809
-0.0546153946 0.0577999750 -0.5732050249
-0.1121725933 0.0326843610 -0.5628470847
-0.0470904772 0.0555590467 -0.5727879250
-0.0806082857 0.0244295310 -0.5659222996
-0.0122055160 0.0870227888 -0.5821601748
-0.0771532884 0.0554884626 -0.5682394465
-0.0523211471 0.0205721237 -0.5704613566
-0.0642628979 0.0557359588 -0.5687672602
-0.0599319585 0.0154376074 -0.5704177322
-0.0698985033 0.0206887517 -0.5679836913
-0.0547684887 0.0911509790 -0.5709751246
-0.0421386510 0.0427429705 -0.5734967361
-0.0697172741 0.0461106033 -0.5696984710
-0.0821093497 0.0349415183 -0.5654186318
-0.0669382197 0.0661384093 -0.5725853799
-0.0874210843 0.0460426372 -0.5651744458
-0.0182249285 0.0453256350 -0.5813606381
-0.0473352972 0.0433868271 -0.5743353390
-0.0262871999 0.0908899643 -0.5792815387
-0.0846213383 0.0535153791 -0.5679769348
-0.0468381141 0.0359517829 -0.5723589472
-0.0446266465 0.0408232050 -0.5726317103
-0.0502017619 0.0179376832 -0.5710273167
-0.0770823304 0.0407369197 -0.5692422531
-0.0774098018 0.0678941710 -0.5683846490
-0.0564965053 0.0385999009 -0.5751334528
-0.0665808870 0.0778258947 -0.5707488795
-0.1022175633 0.0403994838 -0.5624748901
-0.1273054490 0.0804747852 -0.5726141869
-0.0643281244 0.0177764665 -0.5696128973
-0.1166994133 0.0398172502 -0.5676405913
-0.1041809269 0.0379330623 -0.5606388240
-0.0251518143 0.0330679425 -0.5779197938
-0.1275485082 0.0834670846 -0.5747862384
-0.1017438610 0.0331395436 -0.5619460135
-0.0802361512 0.0231600575 -0.5678249253
-0.0521009663 0.0929738676 -0.5730306179
-0.0729765472 0.0212375817 -0.5698149578
-0.0227542904 0.0654986348 -0.5779822741
-0.0470153583 0.0212869865 -0.5712655196
-0.0904301872 0.0180266280 -0.5656932553
-0.0368806782 0.0882878404 -0.5752255533
-0.1281496137 0.0877364948 -0.5779485703
-0.0494083367 0.0132420327 -0.5706301193
-0.0440207688 0.0774791106 -0.5747898774
-0.0074095230 0.0311193932 -0.5849739313
-0.0522202510 0.0947683086 -0.5701287107
-0.0896679039 0.0306478889 -0.5658966257
-0.0644719500 0.0927340388 -0.5718991471
-0.0196100402 0.0825787905 -0.5798598165
-0.0990467277 0.0745567075 -0.5609369647
-0.0649280709 0.0885483025 -0.5704860603
-0.0578933023 0.0626392714 -0.5711385204
-0.0249991732 0.0676178454 -0.5781943816
-0.0673324103 0.0591388286 -0.5726652742
-0.0426477256 0.0556226584 -0.5743915688
-0.0341945963 0.0561529130 -0.5773618029
-0.0317501369 0.0553734237 -0.5769399311
-0.0679037544 0.0435442737 -0.5729101306
-0.0445701704 0.0946876859 -0.5731014927
-0.0999508878 0.0381479212 -0.5598810441
-0.1120361487 0.0382281476 -0.5654394971
-0.0549190905 0.0385298814 -0.5704845349
-0.0393868097 0.0726607590 -0.5752045260
-0.0801390978 0.0253933487 -0.5683346464
-0.0501001002 0.0229770123 -0.5709457024
-0.0993817480 0.0631049171 -0.5603493206
-0.0668207402 0.0855131926 -0.5719636406
-0.0521238984 0.0178161220 -0.5726006939
-0.0494609817 0.0929311765 -0.5730436523
-0.0799118778 0.0882887845 -0.5680527610
-0.0792101305 0.0885491291 -0.5691630307
-0.0271394485 0.0858461775 -0.5799346124
-0.0574785729 0.0531124229 -0.5709844802
-0.0304444571 0.0833593419 -0.5781026479
-0.0899788602 0.0806112439 -0.5670045228
-0.0793723099 0.0204621747 -0.5700683069
-0.0922637111 0.0710091251 -0.5650867716
-0.0623879917 0.1031133309 -0.5973557830
-0.0350187506 0.0700030754 -0.5752734998
-0.1048663752 0.0703508543 -0.5624696276
-0.0548521338 0.0652398074 -0.5705435724
-0.1021081798 0.0582503471 -0.5609362952
-0.0424873382 0.0931477801 -0.5729357960
-0.0721024255 0.0628482313 -0.5700350724
-0.1170679388 0.0606839451 -0.5726832248
-0.0702228737 0.0606303597 -0.5682857690
-0.0297209566 0.0600087321 -0.5771909657
-0.0228967273 0.0599114791 -0.5798004476
-0.0892334621 0.0561815192 -0.5647680190
-0.1111011369 0.0503662272 -0.5684832636
-0.0770808833 0.0407190760 -0.5678260782
-0.0271452360 0.0455681182 -0.5775314209
-0.0399333898 0.0947244212 -0.5733723072
-0.1043030822 0.0431559191 -0.5621036442
-0.0469636217 0.0433384435 -0.5722381959
-0.0378723326 0.0428270904 -0.5747031547
-0.0422732265 0.0407355127 -0.5732211026
-0.0156790453 0.0318859130 -0.5818814658
-0.0198465817 0.0252248456 -0.5818748239
-0.0125421146 0.0728200202 -0.5809106827
-0.0394849541 0.0174875029 -0.5745374159
-0.0876602642 0.0175766070 -0.5660720914
-0.0585152441 0.1029083354 -0.5919998083
-0.0567060570 0.1028932364 -0.5923720634
-0.0669753834 0.0949563210 -0.5711424805
-0.0643611626 0.0949325068 -0.5710857061
-0.0570401816 0.0947599168 -0.5706440518
-0.0546785493 0.0947518712 -0.5706404764
-0.0817276228 0.0937393612 -0.5697298973
-0.0925610214 0.0814523548 -0.5633194447
-0.0399371645 0.0934208457 -0.5730895609
-0.0368560811 0.0927227588 -0.5748154907
-0.0127840722 0.0430594149 -0.5805710554
-0.0324185674 0.0930087899 -0.5757381743
-0.0868108054 0.0925320423 -0.5676621979
-0.0842861455 0.0934015357 -0.5675742989
-0.0348648312 0.0931679214 -0.5734630684
-0.0342433886 0.0929077386 -0.5747426916
-0.0417591222 0.0311045349 -0.5744495988
-0.0280752450 0.0924339375 -0.5764417521
-0.0244768459 0.0904960057 -0.5778716208
-0.0959666388 0.0904858026 -0.5644347200
-0.0655810162 0.0767795667 -0.5716327429
-0.0943889866 0.0903216859 -0.5648402463
-0.0921356146 0.0900616745 -0.5670293918
-0.0168576185 0.0231316453 -0.5808564126
-0.0763761041 0.0890804459 -0.5685799320
-0.0321743565 0.0881130184 -0.5767123198
-0.0297371175 0.0882110913 -0.5760203148
-0.0751556233 0.0229249950 -0.5661939979
-0.1170138743 0.0662501340 -0.5676065533
-0.0248033891 0.0887174145 -0.5778820969
-0.0218521455 0.0888838218 -0.5789458053
-0.1048920283 0.0883321076 -0.5611042987
-0.0553020272 0.0860789312 -0.5712472801
-0.0220538401 0.0859249016 -0.5794575584
-0.0966538105 0.0856791485 -0.5641555380
-0.0787047343 0.0852410707 -0.5700446072
-0.0317241213 0.0852428866 -0.5769619032
-0.1212114518 0.0850669566 -0.5681512363
-0.0847491520 0.0458820094 -0.5670404429
-0.0793549218 0.0830109319 -0.5697488421
-0.0552761694 0.0836861599 -0.5710795449
-0.0321260724 0.0834514359 -0.5774723172
-0.0273774527 0.1021887138 -0.6006469727
-0.0173207562 0.0840012271 -0.5820547910
-0.0118296416 0.0735557750 -0.5820375681
-0.0816068956 0.0824596457 -0.5691899768
-0.0469818144 0.0833794238 -0.5725561264
-0.0124753157 0.0828607080 -0.5822642063
-0.1219788315 0.0825567322 -0.5683085890
-0.1122895878 0.0827938491 -0.5640370128
-0.0669864668 0.0085235055 -0.5681268853
-0.0947063048 0.0806615446 -0.5652566598
-0.0373948995 0.0728540091 -0.5755247386
-0.0298885558 0.0795600782 -0.5763777166
-0.0195781555 0.0800709724 -0.5794198585
-0.0154726746 0.0803475824 -0.5811902522
-0.0125491345 0.0751877322 -0.5806503887
-0.0152082449 0.0776971791 -0.5808143427
-0.1276116228 0.0759618837 -0.5723924629
-0.0921965525 0.0757603278 -0.5653668137
-0.0850823247 0.0229092040 -0.5673673276
-0.0894358932 0.0755414647 -0.5658769748
-0.0174442012 0.0757982466 -0.5783226807
-0.0821617646 0.0308200078 -0.5695005972
-0.0938885353 0.0731361300 -0.5651450359
-0.0876464328 0.0226897836 -0.5667053575
-0.0145578489 0.0730499969 -0.5803071722
-0.0197674469 0.0728601494 -0.5784860487
-0.0450078771 0.0960392207 -0.5770284534
-0.1151193555 0.0732604267 -0.5633697236
-0.0847524783 0.0701921172 -0.5676460396
-0.0780042749 0.0703174080 -0.5685169867
-0.0126361288 0.0802447312 -0.5823849738
-0.0695187617 0.0701857246 -0.5702246533
-0.0622113138 0.0702506117 -0.5701771578
-0.1150574175 0.0651636922 -0.5691155498
-0.1040787197 0.0702176300 -0.5609216932
-0.1022239861 0.0700646358 -0.5623929956
-0.0912383306 0.0682049089 -0.5667046574
-0.0777896568 0.0227464512 -0.5664880276
-0.0399707851 0.0675097372 -0.5745194604
-0.0319896286 0.0678718341 -0.5755328851
-0.0728742656 0.0674016045 -0.5675118878
-0.0575499197 0.0671005924 -0.5712661282
-0.0913805798 0.0657276905 -0.5668565368
-0.0425723214 0.0811448041 -0.5734873563
-0.0797536747 0.0652484853 -0.5683885086
-0.0771884874 0.0652886773 -0.5680982137
-0.0622547833 0.0653897452 -0.5701522907
-0.0571083245 0.0658171772 -0.5709259715
-0.0366761620 0.0650795985 -0.5747174244
-0.0873738619 0.0660627665 -0.5653213034
-0.0451178432 0.0625883835 -0.5753504932
-0.0320542495 0.0625351775 -0.5776807716
-0.0220222445 0.0627239057 -0.5795281609
-0.0461656265 0.0960326046 -0.5768364668
-0.1220231764 0.0617694967 -0.5753240977
-0.1158113984 0.0621567472 -0.5721959502
-0.0498787053 0.0514417589 -0.5713043213
-0.1097265976 0.0628259708 -0.5671548535
-0.0343294565 0.0619712189 -0.5767823445
-0.0638505295 0.0582994670 -0.5685632229
-0.0144649221 0.0305387372 -0.5801519399
-0.0896301692 0.0614097306 -0.5668181681
-0.0846804849 0.0606468876 -0.5678491527
-0.0620182129 0.0607393608 -0.5696247655
-0.0575961696 0.0608528289 -0.5710509990
-0.0291834016 0.0555915126 -0.5795169361
-0.0368536641 0.0604146464 -0.5746552000
-0.0668428913 0.0124228414 -0.5694467603
-0.1000279418 0.0609053895 -0.5601355764
-0.0970509975 0.0600219139 -0.5641882516
-0.1198227337 0.0571232798 -0.5795940454
-0.0649871240 0.0581085025 -0.5694615743
-0.0621597741 0.0579085475 -0.5701135984
-0.0175444562 0.0402064442 -0.5811489694
-0.0573288777 0.0580220229 -0.5705044143
-0.0447036371 0.0580496436 -0.5729770220
-0.0272660869 0.0578213967 -0.5775394229
-0.0250396263 0.0581251587 -0.5780544719
-0.0517434608 0.0574488452 -0.5741033341
-0.0292261653 0.0520135835 -0.5795695186
-0.1215066899 0.0525479956 -0.5847431158
-0.0277252384 0.0588874258 -0.5757918358
-0.0793764446 0.0556976410 -0.5680836176
-0.0705271448 0.0557814867 -0.5716248762
-0.0673485867 0.0554544531 -0.5704654679
-0.0419019860 0.0257918391 -0.5708455823
-0.0447292669 0.0556792280 -0.5724744962
-0.0201831578 0.0405474311 -0.5807033457
-0.0339276306 0.0501286450 -0.5770595788
-0.0276031841 0.0549733004 -0.5793571294
-0.0227193903 0.0556547064 -0.5795228759
-0.0953781236 0.0552441063 -0.5631762426
-0.0569824725 0.0835424215 -0.5710546970
-0.0653045796 0.0530054461 -0.5705048147
-0.0947841853 0.0161864761 -0.5631942352
-0.0627306513 0.0206095744 -0.5686402917
-0.0297880350 0.0530118344 -0.5779167945
-0.0225959612 0.0533910727 -0.5785367825
-0.0945518616 0.0524059862 -0.5652074742
-0.1238411292 0.0855570585 -0.5709390640
-0.0221898952 0.0522699970 -0.5794995327
-0.0743062720 0.0952211246 -0.5686438084
-0.0291729523 0.1008469127 -0.5999429822
-0.0623668090 0.0505756136 -0.5706578320
-0.0602178048 0.0507386571 -0.5707544772
-0.0471725185 0.0514946119 -0.5709150104
-0.0321720372 0.0501069268 -0.5779372603
-0.1069264789 0.0505158928 -0.5627700706
-0.0825685231 0.0498542245 -0.5692231791
-0.0867413612 0.0484543854 -0.5681665783
-0.0479866117 0.0669987574 -0.5741132498
-0.0516970158 0.0757349432 -0.5713962317
-0.0521392914 0.0482187531 -0.5745162187
-0.0248620551 0.0475888762 -0.5801073536
-0.1075119850 0.0477239977 -0.5633977409
-0.0672295239 0.0455861389 -0.5700414664
-0.0448772425 0.0458398253 -0.5744211436
-0.0349093529 0.0455863559 -0.5753127912
-0.0943485035 0.0307776805 -0.5648688143
-0.0218827727 0.0454854966 -0.5796518359
-0.0201118151 0.0453634746 -0.5804935557
-0.0652928726 0.0429887462 -0.5701421771
-0.0399821986 0.0430518125 -0.5746298084
-0.0221813679 0.0429937446 -0.5786930909
-0.1157001400 0.0414099225 -0.5720394444
-0.0246926205 0.0677058498 -0.5795544883
-0.0970311230 0.0429780948 -0.5644810352
-0.0676899238 0.0431951943 -0.5685901798
-0.0478401123 0.0428260994 -0.5711343604
-0.0829151198 0.1009122729 -0.5913401246
-0.0314303807 0.0430160237 -0.5767064545
-0.0176917618 0.0422377079 -0.5809260337
-0.0227313461 0.0411283068 -0.5785023480
-0.1146322671 0.0396513394 -0.5682197937
-0.1298899800 0.0683294535 -0.5764512420
-0.0650554318 0.0380210058 -0.5715718400
-0.0373449178 0.0384567565 -0.5729185005
-0.1026406505 0.0382793103 -0.5606309907
-0.1101153418 0.0927560702 -0.5672774911
-0.0954635089 0.0376919809 -0.5635929499
-0.0534995424 0.0362808518 -0.5716781082
-0.0397419039 0.0359256357 -0.5729300536
-0.0310009737 0.1021041498 -0.5992657542
-0.0201915840 0.0361960742 -0.5786763528
-0.0147665514 0.0355973396 -0.5802658236
-0.0123142612 0.0357269931 -0.5803421755
-0.0093582261 0.0356358004 -0.5823838802
-0.1065829466 0.0354392735 -0.5608968750
-0.0098206839 0.0337495450 -0.5813874602
-0.1042010850 0.0355107650 -0.5602268056
-0.0870582352 0.0330752823 -0.5651500747
-0.0851280897 0.0333700986 -0.5658482589
-0.0567692185 0.0242267226 -0.5689314200
-0.0269603665 0.0331559589 -0.5793308416
-0.0241180563 0.0325865932 -0.5799052268
-0.1024600732 0.0335405960 -0.5606880071
-0.0560950591 0.0298980598 -0.5716171017
-0.0546386354 0.0971839279 -0.5773699880
-0.0615701009 0.0310708187 -0.5686089810
-0.0263172024 0.0299263527 -0.5796462287
-0.0944677070 0.0455223136 -0.5651627779
-0.0244424582 0.0300823757 -0.5796024634
-0.0218659339 0.0302388413 -0.5802334931
-0.0154030756 0.0299097155 -0.5822089867
-0.1011811605 0.0307579234 -0.5606308880
-0.0454605328 0.0298451010 -0.5702416164
-0.0348369144 0.1020072922 -0.5998298526
-0.0812814737 0.0198057479 -0.5698469628
-0.0716203359 0.0276253669 -0.5683499714
-0.0220468677 0.0279830318 -0.5798543761
-0.0896011037 0.0253998943 -0.5666180278
-0.0748194999 0.0256278089 -0.5678366186
-0.0703509308 0.0252416918 -0.5686153335
-0.0172260464 0.0255093308 -0.5802980716
-0.0741648227 0.0816361830 -0.5719997287
-0.0871568355 0.0254737841 -0.5660159595
-0.0443675194 0.0254213770 -0.5707368435
-0.0771626247 0.0233573597 -0.5675181431
-0.0747646573 0.0232836168 -0.5677140453
-0.1258541942 0.0791674480 -0.5717290640
-0.0676651543 0.0233359008 -0.5685114230
-0.0299063851 0.0223618039 -0.5772027810
-0.0923595689 0.0204960975 -0.5666806537
