0.0358973950 0.0852276329 -0.4478798657
0.0656961922 0.0108624436 -0.3867273293
0.0618693961 0.0011805438 -0.4670179373
0.0913959507 0.0629274577 -0.4601563846
0.0841569245 0.0731744908 -0.3924944107
0.1016358048 0.0417364196 -0.4583486794
0.0267006743 0.0133075323 -0.4239887768
0.0759369215 0.0653151368 -0.3867079246
0.0407373868 0.0938096220 -0.4280370999
-0.0074020342 0.0476778975 -0.4256070224
0.0466254741 0.0891178067 -0.4642195886
0.0807863144 0.0817169810 -0.3834090700
0.0235507439 0.1002035078 -0.4225735411
0.0878242326 0.0307780635 -0.3997842065
-0.0184593384 0.0672312383 -0.3893922460
-0.0135254720 0.0665150454 -0.3902964509
0.0615488968 0.0774841457 -0.4827626163
0.0953345118 0.0392530929 -0.3999154881
0.0418405450 0.0202841596 -0.3906111920
0.0535890910 0.0757254158 -0.3663498981
0.0539073929 0.0789379094 -0.3673368897
-0.0182577366 0.0762424679 -0.3902324811
-0.0122095715 0.0358306743 -0.4277693693
0.0383511399 0.0609923101 -0.5252185022
0.0399523532 0.0570882313 -0.5250905188
-0.0137734582 0.0640906180 -0.4035565193
0.0325165037 0.0341249698 -0.3916395812
0.0646880895 0.0792791206 -0.4888770666
0.0421339961 0.0219610660 -0.4687261073
0.0247255919 0.0210204734 -0.4683768142
0.0513126773 0.0615849021 -0.4634112783
0.0418224530 0.0529082139 -0.3615467690
0.0555729185 0.0034961809 -0.3892102030
0.1013587720 0.0402547300 -0.4796017008
0.0815479219 0.0340387801 -0.4558113742
-0.0008778742 0.0058217633 -0.3920721439
0.0066003374 0.0947471156 -0.4366784671
0.0522734752 0.0216349021 -0.4635127381
0.0150848802 0.0976912252 -0.4611270383
0.0012761340 0.0225624933 -0.3880755955
0.0455895400 0.0295367100 -0.4655028935
0.0724371119 0.0519651374 -0.3559676238
0.0965243630 0.0635346793 -0.4854613887
0.0531157069 0.0224094205 -0.3871455193
-0.0119891468 0.0451694277 -0.3783638804
-0.0010722724 0.0731478287 -0.3814945117
0.1005821715 0.0453030432 -0.4842810865
0.0038901243 0.0128618889 -0.3917141313
0.0423530957 0.0610359462 -0.4547931610
0.0466192297 0.0350038388 -0.3668152671
0.0995228529 0.0497854659 -0.4408386435
-0.0164917573 0.0371837476 -0.3993239234
-0.0111117555 0.0720209813 -0.4503214217
0.0423471651 0.0509192872 -0.3558258355
0.0368684925 0.0548238650 -0.4118180526
0.0516878617 0.0524844954 -0.3563352163
0.0230230028 0.0370594934 -0.3612303734
0.0661204683 0.0049125891 -0.4320406464
-0.0124228179 0.0760349359 -0.3925069209
-0.0119051493 0.0486277204 -0.4227436808
0.0322593301 0.0978490168 -0.4380801389
0.0318662966 0.0375899748 -0.4077365823
0.0642719671 0.0599137389 -0.3497807847
0.0283158895 0.0497702037 -0.3550047331
0.0479503608 0.0115200373 -0.4596835761
0.0394331025 0.0259291145 -0.4245845316
0.0750222044 0.0613444478 -0.3852952101
0.0398179769 0.0641721550 -0.3669657130
-0.0116356713 0.0137769767 -0.4135173707
-0.0070654166 0.0283391223 -0.4082669172
-0.0097036548 0.0834856153 -0.4308449150
0.0370671041 0.0085894538 -0.4623241660
-0.0181099012 0.0382551219 -0.4221945374
0.0689358643 0.0325243372 -0.4032272105
0.0756675421 0.0069671455 -0.3980184359
0.0132971028 0.0212206507 -0.4595029074
0.0478934788 0.0476365094 -0.3606797836
0.0336416620 0.0889938897 -0.4335557315
0.0231510375 0.0280635659 -0.3765012741
0.0852705111 0.0330442626 -0.4621425955
0.0241202259 0.0261782300 -0.3791469280
-0.0297754885 0.0534585154 -0.4134078939
0.0321169525 0.0415052873 -0.3530391639
0.0921602100 0.0516994766 -0.4174366161
0.0729507984 0.0772930063 -0.3710439360
0.0367559388 0.0922322770 -0.3987457807
-0.0188658712 0.0364365256 -0.3894190475
-0.0097028087 0.0731786390 -0.3759724861
0.0371275932 0.0177538031 -0.3863255084
0.0312177755 0.0972423563 -0.4684749660
0.0488079378 0.0596422368 -0.5224366664
0.0444176129 0.0664013615 -0.4592371142
0.0339104154 0.0423754796 -0.5198975196
0.0375548213 0.0572346189 -0.5095572688
0.0682014511 0.0726019986 -0.3616205941
0.0451417030 0.0576851305 -0.4733575116
0.0325810041 0.0908386187 -0.3900686787
-0.0195971950 0.0602920537 -0.3754831093
-0.0072876723 0.0313160247 -0.3964303183
-0.0211391185 0.0771381739 -0.3872987515
0.0414233379 0.0633158565 -0.3699169909
0.0418357044 0.0300123648 -0.4133518011
-0.0208943892 0.0383262540 -0.3920059145
-0.0012435108 0.0179976091 -0.3876142856
0.0347200846 0.0811494698 -0.3909320236
0.0394478393 0.0439691345 -0.4527273138
-0.0234535206 0.0576077752 -0.4185200984
0.0931142413 0.0643357222 -0.4845793054
0.0106860466 0.0531727849 -0.3564982033
0.0266119692 0.0669850055 -0.5140352828
0.0548622874 0.0052347438 -0.4738144698
0.0211337889 0.0363184852 -0.3611641145
0.0049438030 0.0052801999 -0.3883820073
0.0775120120 0.0635537185 -0.3815885990
0.0992586104 0.0387080322 -0.4737459687
-0.0049979678 0.0346798431 -0.3730342193
-0.0240815700 0.0550931580 -0.3870860555
-0.0211146472 0.0273430749 -0.4348799309
0.0403391550 0.0187011773 -0.4015895994
0.0272918014 0.0443410161 -0.3710258614
0.0261080358 0.0430649090 -0.4209724752
0.0270890160 0.0204252251 -0.4292538198
0.0626797544 -0.0087095865 -0.3974310073
0.0439563601 0.0641542221 -0.3519103499
0.0324413812 0.0668530743 -0.3782548699
0.0377448356 0.0384017688 -0.4025610388
0.0587142534 0.0246462974 -0.3694088168
0.0425149599 0.0822900564 -0.4422333219
0.0821494720 0.0568829753 -0.3653385072
0.0846543250 0.0280890276 -0.4578428514
-0.0074565101 0.0398869165 -0.4180255197
-0.0013623067 0.0263265113 -0.4043491857
0.0405161362 0.0809207263 -0.4896433739
0.0607810605 0.0796233518 -0.3698322665
0.0760096255 0.0144944672 -0.3799783197
0.0478004468 -0.0098338689 -0.3990954050
0.0323906571 0.0914267952 -0.4491694031
0.0330888139 0.0685409666 -0.3719331738
0.0506607733 0.0566263553 -0.5003613635
0.0083991397 0.0635380493 -0.5132344297
0.0150082745 0.0829169737 -0.4880607298
0.0258776619 0.0696475908 -0.3660813220
-0.0256833792 0.0367080379 -0.4043544831
-0.0178420788 0.0489140361 -0.3953647716
0.0063247903 0.0409480515 -0.3673524609
0.0407048156 0.0209250737 -0.4644771844
0.0381519128 0.0219929178 -0.4530291717
0.0454422095 0.0294832764 -0.4536052231
0.0281596464 0.0460064971 -0.4678040601
0.0525808729 0.0681526363 -0.3454910397
0.0662993220 0.0686114738 -0.3655344482
-0.0159280022 0.0560747229 -0.4020132350
0.0829484126 0.0880524508 -0.4002081019
-0.0068718597 0.0181122961 -0.3875544695
0.0339499236 0.0310490347 -0.3716947273
0.0532255232 0.0811006595 -0.3800120926
-0.0160015037 0.0350392051 -0.3853636533
-0.0047928905 0.0870113461 -0.4634556780
0.0328532296 0.0502315085 -0.3642030606
0.0578373987 0.0847240773 -0.3698577765
0.0443526109 0.0536673057 -0.5045360271
0.0112983505 0.0600631005 -0.5084275007
0.0254480374 0.0284431034 -0.3754042732
-0.0089668252 0.0793268621 -0.3646181277
0.0608255730 0.0051307185 -0.3859113907
0.0459433226 0.0243594872 -0.3625047500
0.0843418058 0.0725651873 -0.3876842687
0.0411597244 0.0863280040 -0.4028102235
0.0071245368 0.0719706095 -0.3574626968
0.0386432268 0.0901709713 -0.3817677083
0.0411201479 0.0335550444 -0.3628842948
0.0334141459 0.0616143328 -0.4167776373
0.0461128885 -0.0071995432 -0.3966836939
0.0476617806 0.0120273666 -0.4957565226
0.0399909535 0.0936641186 -0.5001883876
-0.0264272637 0.0496585164 -0.3850347657
0.0356335128 0.0281191484 -0.3796058417
0.0351705994 0.0268586613 -0.3824262416
0.0655066450 0.0249329123 -0.4056466754
0.0740273222 0.0250571929 -0.3722235858
0.0182018102 0.0329657355 -0.3656769234
-0.0208412687 0.0350901802 -0.4287702897
0.0432348652 0.0231142542 -0.3748142864
0.0947390773 0.0499781372 -0.4967040812
-0.0126892036 0.0717241345 -0.3904738755
0.0883569462 0.0305584115 -0.3967428654
0.0514448184 0.0620615160 -0.5093194493
0.0040941398 0.0923868506 -0.4183433359
0.0277262825 0.0769326952 -0.5024408594
0.0430720108 0.0861636377 -0.3710431625
-0.0237853162 0.0338470814 -0.4371305388
-0.0221344941 0.0698632332 -0.4051611656
-0.0042502096 0.0692116315 -0.3587944673
-0.0119486029 0.0548067460 -0.4112819447
0.0266702876 0.0178034056 -0.4088818806
0.0285703639 0.0177374508 -0.4446008341
0.0384829393 0.0187052736 -0.4023274811
-0.0033207737 0.0404768082 -0.3711200065
0.0618960544 0.0845595138 -0.4365281980
0.0250457469 0.0405771323 -0.3607249558
0.0100112029 0.0911111156 -0.3738719342
0.0357703243 0.0028005730 -0.3937380663
-0.0165188252 0.0548058670 -0.3958621484
0.0645602972 0.0045302477 -0.4281865492
0.0826628955 0.0359785929 -0.3810825410
0.0111977281 0.0904257913 -0.4258106186
0.1008039878 0.0482175894 -0.4801856468
0.0543571496 0.0796264910 -0.4657529909
-0.0081394467 0.0433023113 -0.3866114428
0.0210825704 0.0648393211 -0.3620680719
0.0181155534 0.0960148556 -0.3785088570
0.0563550859 0.0062620017 -0.3896168297
0.0660329802 0.0643232518 -0.3586369264
-0.0215215652 0.0490180646 -0.4132312766
0.0956668910 0.0482132917 -0.4313220192
-0.0054237979 0.0528288035 -0.3730582846
-0.0015301538 0.0846004937 -0.4438651248
0.0438313519 0.0106546599 -0.3991670638
-0.0194686744 0.0335329925 -0.4392801516
0.0541678727 0.0286013875 -0.3658316912
0.0435787146 -0.0084600423 -0.3987148390
0.0409354663 0.0806443336 -0.3954938679
-0.0062838750 0.0496830467 -0.3731581028
0.0211257838 0.1026377022 -0.4310913966
0.0185879071 0.1031388124 -0.3920317161
-0.0031411854 0.0410856459 -0.4134206072
0.0381095839 0.0963811382 -0.4305049249
-0.0234576619 0.0503799314 -0.4048999469
-0.0105651503 0.0413295662 -0.4279449755
0.0303427424 0.0777908762 -0.3766022077
0.0232480792 0.0228744120 -0.4249299183
-0.0013747258 0.0231887932 -0.3912164589
0.0949227908 0.0374723569 -0.3873686130
-0.0132355354 0.0665507332 -0.3750807277
0.0658740002 0.0055240633 -0.3899002784
0.0439333669 0.0044027083 -0.4936970702
0.0451358000 0.0884548148 -0.3863995227
0.0893370789 0.0604057309 -0.4024841058
0.0703852298 0.0846894892 -0.3723340297
0.0135960981 0.0504810716 -0.3548474405
0.0405009397 0.0108260922 -0.4481915803
-0.0172230861 0.0303664013 -0.4296728338
-0.0038635047 0.0337927515 -0.4058158514
0.0314345823 0.0883433490 -0.4177037592
0.0187440239 0.0196668868 -0.3752100002
0.0772379399 0.0217844843 -0.3782920294
0.0428094472 0.0471048080 -0.3554994143
0.0660795237 -0.0018799218 -0.3912531434
0.0778399408 0.0457658321 -0.3625171185
0.0178854580 0.0403961001 -0.3607140312
0.0674568642 -0.0114922604 -0.3986712518
-0.0071934492 0.0781628621 -0.4625029821
0.0511808793 0.0536252480 -0.5129293999
0.0332001678 0.0089198959 -0.4003999641
-0.0160121756 0.0658112104 -0.3832009105
0.0428778322 0.0914879138 -0.3984759578
-0.0088638529 0.0353656592 -0.4270080808
0.0157732811 0.0476946636 -0.5131896500
0.0953756448 0.0477486217 -0.4695064528
-0.0151153562 0.0534657008 -0.4257161887
0.0318039558 0.0846912546 -0.4384861708
0.0855106122 0.0689686620 -0.4109612122
0.0343734662 0.0297533296 -0.4235753129
0.0994580923 0.0364867411 -0.4813598866
-0.0021214108 0.0976412583 -0.3949574086
0.0436957884 0.0175060576 -0.4728724571
0.0033644639 0.0711945613 -0.4962270708
0.0391992136 0.0145704856 -0.4191437349
0.0853792595 0.0799450579 -0.4312965856
0.1010890244 0.0578792582 -0.4531446009
0.0560375918 0.0071231768 -0.4353219309
0.0281107034 0.0320057236 -0.4661415603
0.0503243482 0.0918325246 -0.4066988945
0.0857281512 0.0574504395 -0.3675546384
0.0755603492 0.0720101312 -0.4825424625
0.0969666599 0.0489612817 -0.4626499534
-0.0048303633 0.0840885721 -0.4022360372
0.0549179239 0.0666544280 -0.3603002153
0.0455257390 0.0297355182 -0.4138703867
0.0538444495 0.0514108405 -0.3544031484
0.0458692859 0.0208603065 -0.5015490122
0.0699138726 0.0773703453 -0.4796358153
0.0951572845 0.0683430870 -0.4826324470
0.0608241611 0.0274013403 -0.3658700421
0.0609539419 0.0257339815 -0.3661534843
0.0140647941 0.0872190453 -0.4405224418
0.0323475485 0.0600819206 -0.3520189792
0.0748305256 0.0171641788 -0.3856339270
0.0308452851 0.0405667637 -0.3591068583
0.0056471434 0.0341916338 -0.3629647818
-0.0035580662 0.0888602089 -0.4233650883
-0.0284009133 0.0394230074 -0.4201525629
0.0483198490 0.0286055409 -0.4099665796
0.0502767807 0.0712050491 -0.3659678902
0.0678911399 0.0064039112 -0.3917873872
0.0661401397 0.0815850027 -0.4148125782
0.0346907396 0.0824332815 -0.3937495333
0.0475647637 0.0696642783 -0.5116750449
0.0307834658 0.0538615572 -0.4185287511
0.0118155930 0.0953765297 -0.4073067765
-0.0125221900 0.0615943027 -0.3839962413
0.0714558593 0.0815913460 -0.4399554846
0.0581087947 0.0863801732 -0.4119103391
0.0234650608 0.0211685142 -0.3801215678
0.0088382396 0.0697503082 -0.3544010610
0.0167379042 0.0831698583 -0.3639507256
0.0573026839 0.0636833553 -0.3509446235
0.0544262859 0.0639113264 -0.3495480481
0.0629146149 0.0068136518 -0.4202459332
0.0460903346 0.0338034797 -0.4652461418
0.0705862502 0.0891339963 -0.3839173162
0.0626967156 0.0706533786 -0.3577713716
0.0355778250 0.0921452203 -0.3805244324
0.0449602030 0.0422814716 -0.4755990458
0.0633827408 0.0452225272 -0.3494251730
0.0459276095 0.0176456050 -0.3959933246
0.0222410257 0.0953026571 -0.4892980416
0.0272524577 0.1016097520 -0.4664386857
-0.0024270780 0.0740414301 -0.3712586407
0.0604662414 0.0384642457 -0.3565907123
-0.0151334156 0.0575978766 -0.4073585530
0.0565015010 0.0150645543 -0.4613769711
0.0980774011 0.0400944033 -0.4717538885
0.0215407634 0.0339572068 -0.4622268058
0.0336200226 0.0837224588 -0.3800309814
0.0379338561 0.0861164323 -0.4920087962
0.0731587501 0.0680507385 -0.3634033850
0.0366569408 0.0716251241 -0.3797187870
-0.0068466115 0.0200523681 -0.3974482515
0.0245442427 0.0756558604 -0.3691051410
0.0940549123 0.0587329911 -0.4023937586
0.0629270606 0.0897077033 -0.3828457828
0.0565936142 0.0695967288 -0.3595117277
0.0301676442 0.0757851135 -0.3604209592
0.0043040909 -0.0071482992 -0.4022981619
-0.0023952976 0.0839021476 -0.3864206769
0.0877343358 0.0414170638 -0.3805561877
-0.0079952898 0.0349396793 -0.3894423202
0.0428144384 0.0412277280 -0.4092496514
0.0556504027 0.0134035612 -0.4041578589
-0.0219855805 0.0418369188 -0.4074169354
0.0095816371 0.0480652601 -0.3626895367
0.0292869799 0.0977486704 -0.4537179504
0.0382287316 0.0050784757 -0.3944034576
0.0316211067 0.0436273807 -0.3515107441
0.0630111042 0.0187134501 -0.3722317964
0.0599904151 0.0098131100 -0.3859480396
0.0217276930 0.0206535208 -0.4213234185
0.0789404446 0.0339522445 -0.3823758099
0.0429958703 0.0480842441 -0.4704567765
0.0324325037 0.0414012130 -0.4081269584
0.0341236395 0.0404296429 -0.4105970143
0.0547933712 0.0003876470 -0.4588442629
-0.0034916576 -0.0027120233 -0.4007716491
-0.0153199863 0.0727503426 -0.4138209548
0.0398839067 0.0874480478 -0.4858852212
0.0203822003 0.0890604764 -0.3781104594
0.0263762261 0.0911343600 -0.4260402534
0.0983744067 0.0370841654 -0.4556662102
-0.0147975670 0.0680993121 -0.4266733156
0.0227152282 0.0257832051 -0.4276729929
0.0509314231 0.0214646394 -0.4957399900
0.0209604245 0.0387877002 -0.4044008152
0.0529233489 0.0912237893 -0.4057312373
0.0440884790 0.0855467643 -0.4025009204
0.0852182141 0.0282268390 -0.3896932104
0.0408489045 0.0732090262 -0.3725730644
0.0273045228 0.0995292993 -0.4113398530
0.0241586189 0.0627469550 -0.4117958713
0.0611593595 0.0897227029 -0.4119837089
0.0514523653 0.0106422786 -0.4922044277
0.0563856207 0.0304026220 -0.4575343072
0.0230466506 0.0363695441 -0.3608549675
-0.0075248917 0.0232854093 -0.4408486438
0.0297050936 0.0244159591 -0.4035515645
0.0062044768 0.0005136851 -0.3913541570
0.0170656120 0.0880289441 -0.4463382348
0.0180038216 0.0181998978 -0.3816451852
0.0642100971 0.0756417260 -0.3613880491
0.0747119295 0.0252811902 -0.4142132699
0.0895109969 0.0739547155 -0.3957236607
0.0808362992 0.0653113288 -0.3722809757
-0.0100886627 0.0733630081 -0.3927770377
0.0409100335 -0.0076950507 -0.3970418600
0.0233237118 0.0646181301 -0.5195109859
0.0886539978 0.0401326001 -0.4050588047
0.1039367193 0.0388123080 -0.4821806665
0.0810122266 0.0230439343 -0.3881181479
0.0280624549 0.0221067473 -0.3778170586
0.0762753710 0.0278345924 -0.3702617884
0.0975469977 0.0401874203 -0.4410575098
0.0413729995 0.0272505987 -0.3940926287
0.0303220408 0.0398371592 -0.4539450361
0.0861513399 0.0437493437 -0.3787209007
0.0037439980 0.0615360707 -0.3589518328
0.0460557448 0.0478187136 -0.3609453967
0.0333255133 0.0327260078 -0.4691605404
0.1008297070 0.0429992440 -0.4402490532
0.0241039444 0.0170948833 -0.4456001676
0.0213145605 0.0948418096 -0.4519627183
-0.0059570165 0.0259570123 -0.4057355274
0.0182786764 0.0213516262 -0.4546607195
-0.0164057362 0.0658028241 -0.4327011142
-0.0176842822 0.0538755589 -0.4224954036
0.0956563495 0.0400793937 -0.3933566557
-0.0024860130 0.0275442841 -0.4242868575
0.0746657480 0.0774440239 -0.4103262306
0.0484215802 0.0618746443 -0.3629993169
0.0516881218 0.0123497828 -0.4402629702
0.0405992032 0.0841514076 -0.3768678462
0.0742487577 0.0776248658 -0.4744530484
0.0146348747 0.0883302108 -0.4328652785
-0.0038916615 0.0043749543 -0.3973320184
0.0421201499 0.0388583258 -0.4771094958
0.0995979084 0.0397501516 -0.4495581242
0.0102045370 0.0602981963 -0.3586234911
0.0848560082 0.0912783380 -0.4039701232
-0.0063945624 0.0895402350 -0.4370331320
0.0444816272 0.0268733564 -0.4781871158
0.0658851263 0.0690198770 -0.4950174510
0.0420463905 0.0691026020 -0.4611909324
0.0485980494 0.0285524744 -0.4492920783
-0.0101425982 0.0340679618 -0.4056771142
0.0239105040 0.0387233065 -0.3751091985
0.0242868292 0.0762516269 -0.3660241545
-0.0198595739 0.0544347033 -0.4063668676
0.0412480632 0.0898172721 -0.4089252364
0.0822501461 0.0798936616 -0.4893680386
0.0656910594 0.0828171286 -0.3736535028
0.0434305192 0.0451516758 -0.4498798388
0.0008658805 0.0434881710 -0.3572679758
0.0514062651 0.0616289737 -0.3534586686
0.0423574628 0.0880017113 -0.4168346435
0.0375316904 0.0404435517 -0.4475175191
0.0743033395 0.0133965125 -0.3826204332
0.0108549216 -0.0164294333 -0.4066335612
0.0495877290 0.0713786567 -0.4988545957
0.0536295585 0.0188315727 -0.4976472627
0.0225637224 0.0319427776 -0.4233029433
0.0244885512 0.0864506386 -0.4362704061
0.0166399509 0.0918964347 -0.3793983245
0.0898604181 0.0469015100 -0.3816248389
0.0098076894 0.0861705430 -0.3681207707
0.0388595391 0.0505097348 -0.3640071406
0.0190605826 0.0817642983 -0.5041236227
0.0608221977 0.0456476943 -0.3497846653
-0.0074030464 0.0875185439 -0.4012539428
0.0825587897 0.0629439370 -0.3745770329
0.0515834041 0.0389480702 -0.3623145834
0.0242813545 0.0878248352 -0.4484800911
0.0938407087 0.0544434989 -0.4765762512
0.0266108123 0.0911661638 -0.4118023871
0.0420595883 0.0281953233 -0.4438019152
0.0472619870 0.0328384025 -0.4090987868
0.0268295825 0.0905065310 -0.4005487678
0.0999168563 0.0589051725 -0.4844273672
0.0923270303 0.0688337742 -0.4796535994
0.0485705832 0.0529558684 -0.5183065381
0.0357201556 0.0002610898 -0.3923082352
0.0516492909 0.0119394924 -0.4019610480
-0.0142752764 0.0401162902 -0.4465814136
0.0681031394 0.0809747931 -0.4020973081
0.0055892142 0.0083777990 -0.3866049308
-0.0118950610 0.0349320239 -0.4017907050
0.1007029867 0.0517013061 -0.4359781391
0.0477448649 0.0455418942 -0.3468643432
0.0156101044 0.0212762715 -0.3942188471
-0.0010747493 0.0352871423 -0.4186624504
0.0344665794 0.0226835399 -0.4539629629
-0.0009877902 0.0285985500 -0.3811474607
0.0868457901 0.0364497797 -0.4487952040
0.0658432417 0.0695067702 -0.3594270940
0.0625422665 0.0889488428 -0.4053219975
0.0345118378 0.0275050052 -0.4496400467
0.0299720771 0.0492709017 -0.4608890738
0.0560759817 0.0388607474 -0.3566253342
0.0131270809 0.0883450974 -0.4493661099
0.0790330035 0.0391701796 -0.4020586449
0.0179925401 0.1094594804 -0.4075132965
0.0387396357 0.0635757951 -0.4163419921
-0.0135131274 0.0611659238 -0.4034309770
0.0902720819 0.0739889197 -0.3864755853
0.0503177633 0.0620876818 -0.4674170136
0.0061610453 0.0910860295 -0.3809761999
0.0122552213 0.0326958629 -0.4178180776
0.0835860916 0.0824155192 -0.4010495184
0.0591838778 0.0904582583 -0.3936349457
0.0442244160 0.0904259177 -0.4542766786
-0.0159596605 0.0678968084 -0.3950353246
0.0531876537 0.0796515519 -0.4777780664
0.0215556792 0.1046113049 -0.4152832804
0.0080986543 0.0562051395 -0.3577805212
0.0092347336 0.0235199504 -0.3674319631
0.0082621801 0.0924756912 -0.4079605155
-0.0182297997 0.0448517783 -0.4156936271
0.0082570388 0.0427082757 -0.3586981229
0.0432916917 0.0317120536 -0.3673385047
0.0428197607 0.0317150801 -0.3684286773
0.0282841828 0.0853492799 -0.4389443682
0.0306024549 0.0247092529 -0.4085119498
-0.0138949034 0.0263275090 -0.4342583981
0.0397348896 0.0453016174 -0.4165203631
0.0042185594 0.0913335070 -0.4153972515
0.0141047375 0.0296007863 -0.3716324371
0.0457914037 0.0421279754 -0.4122270576
0.0016975103 0.0209955567 -0.4230373907
0.0282071988 0.0259238613 -0.3897906318
0.0009297678 0.0821515257 -0.4445090269
0.0943719755 0.0524874654 -0.3978734263
0.0637913588 0.0122946911 -0.4065187609
-0.0103678739 0.0335819745 -0.3845579695
0.0735950395 0.0128752729 -0.3936079443
-0.0040552814 0.0437978603 -0.4207213271
0.0791061150 0.0907359239 -0.4035041691
0.0339160030 0.0837392222 -0.4470874671
0.0884481817 0.0283579398 -0.4031087160
0.0415391304 0.0606889626 -0.3526180589
0.0463784495 0.0861097099 -0.3657579266
0.0465768083 0.0252730881 -0.4982892795
0.0179451660 0.0263497049 -0.3724467051
0.0202769410 0.0716721454 -0.5120636130
0.0605941346 0.0920582837 -0.4027291083
0.0868676700 0.0610381122 -0.4137376411
0.0115732255 0.0152456069 -0.3857417949
0.0551988299 0.0213229880 -0.3803557697
0.0811133461 0.0371941681 -0.3854305373
-0.0068953608 0.0430166109 -0.3836522743
0.0533008654 0.0823789525 -0.3702264243
0.0198311051 0.0701651373 -0.5080700248
0.0288099733 0.0291311470 -0.3988350625
-0.0226355405 0.0468639824 -0.4149196146
0.0392754608 0.0597076361 -0.4062730453
0.0394810672 0.0041935719 -0.3996582629
0.0492447959 0.0649189118 -0.3479101908
0.0796269622 0.0416844845 -0.3969487892
0.0522965288 0.0843822417 -0.4342681293
0.0548184060 0.0433224604 -0.3452095811
-0.0146622418 0.0818368670 -0.3973865264
0.0502452492 0.0777438353 -0.5112593435
0.0460730190 0.0848296298 -0.4017675797
-0.0195675914 0.0731844844 -0.3903486671
-0.0096038316 0.0345837892 -0.3792695835
0.1048104098 0.0535777152 -0.4578056918
0.0727030494 0.0801771830 -0.4776350445
0.0597237781 0.0832882531 -0.4156415677
0.0396943166 0.0779276643 -0.4862105928
0.0135522549 0.0855928584 -0.3653907702
0.0710913055 0.0129207554 -0.3909240961
0.0137110581 0.0877692221 -0.4205388891
0.0609874949 0.0101539034 -0.5037102396
0.0562849327 0.0152518647 -0.4644650049
0.0641711232 0.0117288316 -0.3722323510
0.0475118459 0.0955435746 -0.3991893366
0.0432612084 0.0184645949 -0.4040888241
0.0446807719 0.0516354210 -0.4636872640
0.0603964949 0.0660381987 -0.3578997382
0.0647815461 0.0654299352 -0.3640186731
0.0609572402 0.0303801652 -0.3639291671
0.0755936473 0.0847931941 -0.4238263165
0.0002488597 0.0847693051 -0.3853709983
-0.0083331393 0.0802158280 -0.4031850072
0.0926740764 0.0224018967 -0.4593573502
-0.0103479759 0.0240898528 -0.4381242899
0.0746522032 0.0866328947 -0.4130406991
0.0475209088 0.0068184023 -0.4499082986
0.0836120752 0.0502611217 -0.3688631013
0.0543698382 0.0792252091 -0.4964698519
0.0540662073 0.0373169035 -0.3590272665
0.0919947972 0.0360665907 -0.4524458355
0.0753814504 0.0093203615 -0.3966568708
0.0372806077 0.0538043934 -0.5089486912
-0.0119584582 0.0322102380 -0.4349664926
0.0323074760 0.0196862271 -0.3794359832
0.0823409926 0.0779052915 -0.4684557854
0.0177490593 0.0593440802 -0.3572473915
0.0844476859 0.0390223802 -0.3842539723
0.0456056271 0.0201561745 -0.4567838247
0.0454508231 0.0827224004 -0.4215031303
0.0746554837 0.0702323098 -0.4890285349
0.0185197437 0.0961318211 -0.3968291245
0.0390877921 0.0784353013 -0.3725624885
0.0231314235 0.0891612829 -0.4167162291
-0.0170250977 0.0584373788 -0.4172249849
0.0068139061 0.0760539369 -0.3651411164
0.0683706961 0.0672977374 -0.3809295456
0.0576898179 0.0166503038 -0.5010906418
-0.0014758566 0.0682602151 -0.3648117610
0.0231582800 0.0169878701 -0.3948449311
0.0287856348 0.0158968084 -0.4029381573
0.0132651550 0.0029013976 -0.3892047555
0.0797960454 0.0742905853 -0.3687915117
0.0037880364 0.0900691605 -0.4078616604
0.0752029836 0.0290927892 -0.3727639806
0.0753614679 0.0222738981 -0.3797136247
-0.0204739687 0.0467435172 -0.4006586708
0.0914209446 0.0382534382 -0.3938773377
-0.0127908367 0.0475919647 -0.4107605373
0.0303429038 0.0299522654 -0.4173477879
0.0043485877 0.0244081598 -0.3790851831
0.0347386547 0.0292471360 -0.3642777139
0.0309023418 0.0935524584 -0.4459403599
0.0385525482 0.0275174081 -0.3792058080
0.0376508672 0.0268043529 -0.3817207129
0.0098798104 0.0758840489 -0.3534977965
0.0223490944 0.0967209925 -0.4702552662
0.0389750606 0.0453491799 -0.4229018825
0.0268441678 0.0387523773 -0.4028830291
0.0336859995 0.0361279541 -0.3698029176
0.0608017509 0.0033785013 -0.3889564794
0.0661649110 0.0003983832 -0.4567440680
0.0066308017 0.0809865978 -0.3607917186
0.0464651721 0.0779103586 -0.5039432053
0.0469384148 0.0102104656 -0.4676270431
0.0416914804 0.0544532516 -0.4707699675
0.0681401775 0.0247872709 -0.3624561814
0.0503890032 0.0160287486 -0.3958159406
0.0422462965 0.0810146474 -0.4571678362
0.0919592815 0.0601781148 -0.4048050796
0.0852241852 0.0788015436 -0.4675086598
0.0231335585 0.0812842525 -0.3540970681
0.0117477383 0.1067190647 -0.4062276264
-0.0157664802 0.0815647563 -0.4084589831
0.0689983775 0.0398913469 -0.3605869933
-0.0137416959 0.0567771535 -0.4264821116
0.0581754680 -0.0015131750 -0.3894650180
0.0010799359 0.0477596413 -0.3543118052
-0.0128452897 0.0455091387 -0.4458739574
0.0315230333 0.0723805558 -0.3577556173
0.0856181742 0.0673128342 -0.4135537709
-0.0028303314 0.0795095640 -0.4631179082
0.0859935577 0.0720912429 -0.4188344557
0.0263652857 0.0206966456 -0.4009081125
-0.0096772661 0.0517351757 -0.4261525103
-0.0026400102 0.0827677205 -0.4649452258
-0.0184634962 0.0351744041 -0.4038781844
0.0422790962 0.0131520964 -0.4175453602
0.0509268995 0.0496791339 -0.3564953970
0.0515635760 0.0481780677 -0.3564893429
0.0853755615 0.0382282780 -0.3814155847
0.0860530399 0.0368569456 -0.3832934556
-0.0084005941 0.0795775831 -0.3928900167
0.0590971614 0.0819985375 -0.4373728514
0.0934947225 0.0353155247 -0.4555333883
0.0393657099 0.0808787768 -0.5108647920
0.0090999333 0.0080520520 -0.3823190629
0.0359811410 0.0177709885 -0.4210362108
0.0259407210 0.0767107456 -0.3790797839
0.0359720998 0.0224409327 -0.4018580317
-0.0049646365 0.0565450658 -0.3685287349
0.0457238614 0.0798512371 -0.4484873713
0.0154819801 0.0233848953 -0.4086858647
0.0172081600 0.0141110223 -0.3851526826
-0.0244795012 0.0425538733 -0.4051609939
0.0137251304 0.0880446938 -0.4543174936
0.0899176235 0.0488358515 -0.3867554503
0.0154008504 0.0463804942 -0.3506731692
0.0034134671 0.0493600591 -0.3629352301
0.0721271502 0.0660589489 -0.3606856595
0.1054954658 0.0593237678 -0.4772702420
0.0216951758 0.0483273993 -0.4188920242
0.0295237422 0.0448432870 -0.3948862391
0.0461238075 0.0153697118 -0.4742475284
0.0923504281 0.0634369486 -0.4715210056
0.0469341508 0.0051769744 -0.4113269709
0.0338544995 0.0467133038 -0.3632455170
0.0712629253 0.0440057087 -0.3613370927
0.0979189029 0.0466935465 -0.4479550835
-0.0161227041 0.0104999454 -0.4161967161
0.0094952049 0.0525720209 -0.3498280184
0.0835332686 0.0301531535 -0.3862485223
0.0328942947 0.0259429477 -0.3914638460
0.0520332048 0.0088624011 -0.4032273084
0.0330478065 0.0005806112 -0.3920144811
0.0304966483 0.0903679317 -0.4098252270
-0.0023936346 0.1013809327 -0.4093378123
0.0488208981 0.0108664704 -0.4777965637
-0.0184136432 0.0476886758 -0.4066190921
0.0899446342 0.0507732571 -0.4094266447
0.0013964958 0.0582818267 -0.3610383545
0.0486424305 0.0213664435 -0.3945727646
0.0731740121 0.0584332081 -0.3633178907
0.0960343350 0.0634654313 -0.4723053642
0.0246598251 0.0385994463 -0.4058346138
0.0947152647 0.0488926371 -0.4766444943
-0.0115496384 0.0246572010 -0.4078763519
0.0409763092 0.0492035927 -0.5138490531
-0.0235472343 0.0423741195 -0.4100971076
0.0858254425 0.0653058993 -0.3703449989
0.0325777283 0.0653142709 -0.4145382394
0.0302933570 0.0607747772 -0.4030569649
-0.0030214672 0.0983839502 -0.4026908966
0.0454857645 0.0104560211 -0.3721695333
-0.0184027699 0.0695487702 -0.4053457653
0.0670453350 0.0871938661 -0.3721913559
0.0483952538 0.0512331426 -0.4642820714
0.0698218517 0.0715574466 -0.3773003936
0.0007436982 0.0878851041 -0.4491465998
0.0280171989 0.0949222705 -0.3793127179
-0.0045636604 0.0790940950 -0.4538660953
0.0483391946 0.0815784172 -0.4668376607
0.0585748643 0.0937167074 -0.4041478423
0.0209412301 0.1037202929 -0.3993005678
0.0311975988 0.0796098888 -0.4906908174
0.0325133046 0.0205120484 -0.3947028608
0.0732334944 0.0756109332 -0.3683422220
0.0555072954 0.0229094763 -0.3766206417
0.0971535386 0.0406481213 -0.4840137176
0.0416350437 0.0868445301 -0.4277905627
0.0252934389 0.0577637227 -0.3615385440
0.0136480875 0.0164357619 -0.3736294245
-0.0141640136 0.0481547647 -0.3927925436
-0.0189933355 0.0626452765 -0.3852946690
0.0320635180 0.0517693622 -0.5129590483
0.0306092075 0.0861330338 -0.4364361463
0.0177982414 0.0125185185 -0.3933189180
0.0766016429 0.0836956413 -0.4291109686
0.0163513218 0.0882630771 -0.4914287161
0.0064663650 0.0244277054 -0.4104513172
0.0994677581 0.0531245738 -0.4144978370
0.0652890873 0.0082126991 -0.4090138029
0.0082187413 0.0576817596 -0.3572235141
0.0233408578 0.0284574973 -0.3667722647
0.0972535597 0.0518750760 -0.4569222050
0.0377131970 0.0451703803 -0.3995493078
-0.0233173763 0.0491477770 -0.3996721069
0.0264114102 0.0365788714 -0.3595534046
0.0159289454 0.0301948023 -0.3690457510
-0.0059638443 0.0401177634 -0.4097175977
0.0002086918 0.0279506467 -0.3791327437
0.0884482974 0.0810413073 -0.4007236296
0.0381567246 -0.0015251999 -0.3917294304
0.0664193224 0.0668218375 -0.4984207190
0.0017667467 0.0723334452 -0.3523928419
0.0678582837 0.0757171304 -0.3649493063
0.0535418001 0.0214763961 -0.4994692127
0.0465492717 0.0324240079 -0.4009111891
0.0188537662 0.0895810105 -0.4374742693
-0.0093961397 0.0826224388 -0.3911513130
-0.0022654237 0.0127780031 -0.3963787357
0.0700465823 0.0003836740 -0.3900182702
0.0028432277 0.0215238177 -0.3759293502
-0.0129180638 0.0452227392 -0.3919290880
-0.0155129793 0.0649849714 -0.4063355993
0.0384715658 0.0166148596 -0.3721072154
0.0083069782 0.0205297822 -0.3818955419
0.0370799043 0.0203050615 -0.3894001287
0.0606899957 0.0586159681 -0.3449323505
0.0197894098 0.0542503372 -0.5207353872
0.0873099721 0.0424866014 -0.3919527306
0.0044360383 0.0943428998 -0.4108340907
0.0979449691 0.0532449537 -0.4928596944
-0.0178331071 0.0525820361 -0.3795654507
0.0079790269 -0.0074732947 -0.3989531907
0.0289399122 0.0884508525 -0.4007794581
0.0071781294 0.0196411108 -0.4564971137
0.0382307690 0.0271003974 -0.3713561910
0.0943509936 0.0576187077 -0.4813518687
0.0374831571 0.0519984784 -0.3490157679
0.0080968351 0.0395102920 -0.3547690019
0.0671297032 0.0517232679 -0.5055307547
0.0463251893 0.0106233214 -0.3965120037
0.0430740076 0.0275829750 -0.3613093290
0.0532361616 0.0624794336 -0.4983887554
-0.0138262742 0.0687185995 -0.3667516570
-0.0048373364 0.0863146891 -0.3747397842
-0.0144740524 0.0425644744 -0.3980796107
0.0892138481 0.0532261729 -0.4035633702
0.0888914524 0.0289322141 -0.4438737225
0.0579094239 0.0078868615 -0.4106181999
0.0432427151 0.0335228934 -0.4118511669
0.0810995590 0.0776843519 -0.4654979918
0.0951479457 0.0356690313 -0.4460979365
-0.0107224714 0.0796945377 -0.3945775084
0.0202568356 0.0478546123 -0.3568472418
0.0478792633 0.0053782290 -0.3924657135
0.0841978778 0.0635911735 -0.3619136193
0.0399806406 0.0415393538 -0.4599754516
0.0483667722 0.0611226890 -0.3510502884
0.0413496770 0.0205200547 -0.3942547939
-0.0187608932 0.0575976305 -0.4037103091
0.0725905751 0.0086415554 -0.3847939709
0.0056232032 0.0485366205 -0.3543428399
0.0943790766 0.0332729792 -0.4403556119
-0.0165401006 0.0385598942 -0.4454639529
0.0240054914 0.0509238647 -0.5202708160
0.0190977641 0.0499174131 -0.5194211263
0.0156322606 -0.0041958111 -0.3940049319
0.0019517129 0.0880194449 -0.4399425234
0.0679646355 0.0854624841 -0.3906909897
0.0097762153 0.0170507536 -0.3806094590
0.0290303398 0.0475813150 -0.3595519662
0.0325144760 0.0699789075 -0.5021421149
0.0403793360 0.0899209807 -0.5034374642
0.0325765760 0.0122748737 -0.3887911435
0.0339649411 0.0499369871 -0.3583606190
0.0866271615 0.0213646512 -0.3964358137
0.0403563302 0.0877220156 -0.4727135360
0.0855124482 0.0220039575 -0.3938379103
0.0704415286 0.0727271020 -0.4961112939
0.0088123484 0.0856530978 -0.4910799568
0.0492723100 0.0794999748 -0.4796276985
0.0513407028 0.0246767257 -0.4494248975
-0.0123891556 0.0494281716 -0.4334934959
-0.0044450586 0.0891287342 -0.4324088682
0.0590689581 0.0761523097 -0.4845543401
0.0568506519 0.0042503430 -0.4163091340
0.1048697942 0.0552913779 -0.4643319702
0.0299114006 0.0340707779 -0.3900057775
0.0345526220 0.0172339805 -0.3807223179
0.0994363546 0.0609388204 -0.4447148963
0.0325123140 0.0249131616 -0.3876787014
-0.0102638049 0.0111735346 -0.4116471008
0.1003827302 0.0516916389 -0.4808122782
0.0246047769 0.0238367245 -0.3870225517
0.0407360985 0.0321769967 -0.3664156280
0.0860540910 0.0643098817 -0.4064984277
0.0109863277 -0.0141241482 -0.4057662966
0.0134314712 0.0966373486 -0.3787510537
0.0717245300 0.0300250960 -0.3996435705
0.0490055688 0.0578196706 -0.4581662454
0.0444356606 0.0772366438 -0.3788772350
0.0165249871 0.0946292250 -0.4093816731
-0.0119996661 0.0812783582 -0.3976295993
0.0455065877 0.0647096376 -0.3554458137
0.0369289129 0.0851477868 -0.4610224030
0.0522642774 0.0694508185 -0.3616486490
-0.0024969082 0.0246148949 -0.3896755976
0.0187017378 0.0904739219 -0.4136606086
-0.0010051038 0.0387158468 -0.3649481589
0.0826042175 0.0795077108 -0.3814984754
0.0281784227 0.0333186917 -0.4591204329
0.0429271024 0.0533828149 -0.4522926485
0.0508677396 0.0712079478 -0.4920891337
-0.0183840903 0.0566923580 -0.4204633125
0.0906283970 0.0465193485 -0.4230215381
-0.0249494462 0.0688153438 -0.4007780273
0.0162552590 0.0882058820 -0.4187023870
0.0133051528 0.0454785426 -0.3649406627
0.0744934380 0.0607464154 -0.3915803254
0.0811561388 0.0840518930 -0.3953540227
0.0195634721 0.1059231597 -0.3948343443
-0.0009883469 0.0335499165 -0.3690872579
0.0252329965 0.0109435235 -0.4722939384
0.0558355168 0.0918921932 -0.4055444584
0.0273649088 0.0958088062 -0.4922514876
0.0221601371 0.0208637659 -0.3949170113
0.0469899063 0.0208044370 -0.4735456212
0.0042095680 0.0878863069 -0.4640608878
0.0716966378 0.0656642947 -0.3872310096
0.0563242120 0.0888695415 -0.3789028479
0.0120073902 0.0227798672 -0.4199800629
0.0557527874 0.0068556587 -0.4079750350
0.0642618605 0.0032977017 -0.4432539358
0.0217617438 0.0526319773 -0.5167138165
0.0521063297 0.0507263525 -0.5142696495
0.0426229574 0.0281054713 -0.3820680976
0.0438260311 0.0466954184 -0.4611216767
-0.0000652468 0.0240085150 -0.3866916694
0.0729638518 0.0381910885 -0.3568429529
0.0681446904 0.0321482914 -0.3630139873
0.0057964693 -0.0143722467 -0.4040071985
0.0106226802 0.0035052570 -0.3863751739
0.0770305508 0.0306718565 -0.3820466441
-0.0086195241 0.0515696259 -0.3801381915
-0.0199712262 0.0421534495 -0.4021147337
0.0386808462 0.0854980931 -0.5111465293
0.0127136359 0.0762558525 -0.3772848909
0.0209817243 0.0413930056 -0.3570630630
0.0050409966 0.0882727081 -0.4385288908
0.0697412010 0.0826671459 -0.4353758487
0.0018543979 0.0827955820 -0.3633759719
0.0343040921 0.0468168695 -0.4607506064
0.0339236870 0.0609936666 -0.4124812558
0.0615546210 0.0685344355 -0.3607528955
0.0102011028 0.0871667739 -0.4598655297
0.0637039876 0.0830685126 -0.3675193552
0.0047269252 0.0701372209 -0.3639875402
0.0002373369 0.0373460472 -0.3586905138
0.0795389806 0.0752958793 -0.4077929961
0.0613564128 0.0801459264 -0.4838871019
0.0431579590 0.0890877923 -0.4104266382
0.0345189389 0.0456764018 -0.4105890394
0.0233111915 -0.0075709876 -0.3989243811
0.0833793223 0.0517526917 -0.3610097542
0.0981831564 0.0480971380 -0.4536580119
0.0507300995 0.0040776100 -0.3965614247
0.0952319856 0.0502919080 -0.4750979637
0.0456819219 0.0227644572 -0.4617072906
0.0364370144 0.0969142891 -0.4707858831
-0.0085517586 0.0576143174 -0.3684718738
0.0809769073 0.0731458476 -0.4253738190
0.0386896135 0.0846030831 -0.4211918971
-0.0001230153 0.0615454089 -0.3591654795
0.0144286578 0.0621273677 -0.5187505388
-0.0230948993 0.0655713275 -0.3806105578
0.0204088409 0.0973625675 -0.4497445748
-0.0036036236 0.0658346752 -0.3640194353
0.0703090355 0.0451043509 -0.3518117666
-0.0169876854 0.0788421064 -0.4104326261
0.0339985124 0.0106506700 -0.5013238686
0.0061713791 0.1053788978 -0.4021360599
-0.0044571577 0.0428366150 -0.3739718709
0.0752961460 0.0461502864 -0.3591326552
0.0162840956 0.0892695204 -0.3809084219
0.0539244152 0.0892082954 -0.4109813432
0.0625086418 0.0146335303 -0.4997287679
-0.0104372346 0.0900014321 -0.3901367152
-0.0064796535 0.0712675798 -0.3844011952
0.0943867641 0.0639148090 -0.3917689206
0.0042225515 0.0916008658 -0.4124314151
-0.0272046489 0.0541493350 -0.4164667068
0.0439649597 0.0812440503 -0.4471147521
0.0463309739 0.0911373730 -0.3986857162
0.0221852194 0.0227013999 -0.3771580088
0.0442011412 0.0610525993 -0.3636452508
-0.0083203653 0.0820076245 -0.3939564128
0.0334404411 0.0969143892 -0.4011935448
0.0036750461 0.0310737347 -0.4135181691
0.0796465951 0.0390199865 -0.3683861200
0.0880402112 0.0358393524 -0.4135774098
0.0536349119 0.0854407022 -0.3675558048
0.0344990639 0.0381356144 -0.4513545318
0.0260698580 0.0204207776 -0.4752295474
0.0327999555 0.0394279336 -0.4261026502
0.0541384774 0.0841087365 -0.4317100355
0.0179767498 -0.0048535103 -0.3941016718
0.0406584669 0.0822592033 -0.4229287716
-0.0204434798 0.0716793087 -0.4125226914
-0.0208825966 0.0449150566 -0.4027923567
-0.0261987092 0.0574038725 -0.4151174825
0.0187508108 0.0912794360 -0.4167359322
0.0061268918 0.0155764590 -0.3871776359
0.0337831875 0.0289112521 -0.4100919993
-0.0095095461 0.0819581367 -0.3741875372
0.0390742169 0.0132753752 -0.4782584927
0.0056208053 0.0275552737 -0.3723836591
0.0639896621 0.0784709574 -0.3729316011
-0.0201642295 0.0322959988 -0.4428781498
0.0273916515 0.0189172053 -0.3805514743
0.0653512053 0.0726601366 -0.4940878385
0.0309468887 0.0462353583 -0.5211595250
0.1020123128 0.0414141364 -0.4424333474
-0.0048113608 0.0759627338 -0.4602084948
0.0380653063 0.0128712063 -0.4480913447
0.0571153960 0.0230803678 -0.4571372036
0.0151879780 0.0073042481 -0.3894862986
0.0309145721 0.0276623101 -0.3699273566
0.0150759392 0.0823007404 -0.3760302253
0.0558545897 0.0898881757 -0.3862347825
0.0083771858 -0.0062531934 -0.3977065384
-0.0014999543 0.0634581079 -0.3654695991
0.0583257884 0.0097212268 -0.3851569399
0.0927266219 0.0526801277 -0.4606878398
0.0968703430 0.0512412066 -0.4125752349
0.0308083638 0.0729489023 -0.3700665649
0.0063763974 0.0656875555 -0.3568154405
0.0581363665 0.0082107849 -0.3862187868
0.0473609603 0.0222427643 -0.4959613562
0.0589629171 0.0119392052 -0.4606684853
0.0923549730 0.0448065357 -0.4178987373
0.0040040979 0.0919555441 -0.3959371065
0.0903538321 0.0573738530 -0.4035529161
0.0358731400 0.0562918072 -0.3683142468
-0.0013160777 0.0020723925 -0.3921319209
0.0252798127 0.0105994143 -0.3910854043
0.0407500852 0.0501702513 -0.3637593029
0.0332348177 0.0873808023 -0.4440496631
0.0722058372 0.0906135783 -0.4025243351
0.0515293901 0.0764497354 -0.3809793617
0.0299893583 0.0288185933 -0.4260887812
0.0927142230 0.0596746664 -0.4714254294
0.0291333203 0.0517463608 -0.4063745417
0.0062928536 0.0901718538 -0.4326971184
-0.0078819636 0.0387057745 -0.4293584811
0.0396861041 0.0177208477 -0.4397849565
0.0595381611 0.0840328841 -0.4267567084
-0.0098901714 0.0698534680 -0.4306917391
0.0491602540 0.0172002003 -0.4124937536
0.0205219228 0.0675867614 -0.3619500251
0.0436243380 0.0502561995 -0.3616415988
0.0482223508 0.0123952742 -0.4150751744
0.0646567603 0.0001635761 -0.4778486361
0.0325407647 0.0952721281 -0.4301702177
-0.0055323439 0.0345810387 -0.4261958885
0.0252605386 0.0260168288 -0.4715451790
0.0815724768 0.0382753532 -0.3751049039
-0.0212867445 0.0517910465 -0.4104651576
0.0554362078 0.0087499956 -0.3991247983
0.0535568269 0.0875525347 -0.4834414344
0.0563688874 0.0284494224 -0.3646698594
-0.0048634171 0.0917969551 -0.4234360105
-0.0086022605 0.0782052337 -0.3679396331
-0.0243349548 0.0590736564 -0.3850184047
0.0236389783 0.0348112838 -0.4241392448
0.0353333240 0.0179123522 -0.3899459762
0.0222367177 0.1020005009 -0.3912702520
0.0063867730 0.0204261625 -0.3885362687
0.0651664947 0.0885905820 -0.3747123504
0.0518398432 0.0088798387 -0.4414276824
0.0274140907 0.0912699104 -0.3768135918
0.0283647522 0.0336679296 -0.3641000860
0.0489493914 0.0171117412 -0.4763151824
0.0149633994 0.0870006978 -0.4379867548
0.0191028618 0.0865087078 -0.4393356956
0.0296938120 0.0279194742 -0.3919434465
0.0447897759 0.0040355409 -0.4498127359
0.0146599837 0.0985137177 -0.3822594114
0.0365799528 0.0577718544 -0.4092881528
0.0581258007 0.0271045653 -0.3662813015
0.0614551164 0.0583742588 -0.3548030681
0.0841875345 0.0688069588 -0.3808174392
0.0068480160 0.0220121657 -0.4593820051
-0.0130838342 0.0657786675 -0.3787862892
0.0430142227 0.0276259750 -0.4155765119
0.0891742949 0.0550065064 -0.4330291149
-0.0019203236 0.0873935581 -0.4468597264
-0.0131230301 0.0616536554 -0.3604765271
0.0410034943 0.0676898562 -0.5211987938
0.0612388511 0.0712275206 -0.3685481130
-0.0059492206 0.0288864504 -0.3944712889
0.0485156093 0.0323966307 -0.4512492382
0.0295228199 0.0927988188 -0.4538750908
0.0434583874 -0.0058311077 -0.3944913928
0.0460748614 0.0172257845 -0.4991242788
-0.0082677589 0.0441355193 -0.3682288996
-0.0075206536 0.0402954855 -0.3901546718
0.0332784269 0.0532372551 -0.4684921821
0.0460738649 0.0214655941 -0.3975396634
0.0648001160 0.0187541176 -0.3662972126
0.0236743737 0.0306046353 -0.4690509452
0.0509289768 0.0557730137 -0.4953797636
0.0991070471 0.0409635756 -0.4308314162
0.0710253912 0.0734650194 -0.3815800054
0.0411138310 0.0877839369 -0.4214473450
0.0922541634 0.0340477976 -0.4379737192
0.0907535401 0.0731454185 -0.3922140722
0.0966855767 0.0464754061 -0.4952240555
0.0253055444 0.0870279822 -0.3798073285
0.0674018302 0.0061143171 -0.4412362259
-0.0095172874 0.0383352101 -0.3927099361
0.0694472566 0.0338696167 -0.3591937423
0.0184016960 0.0351751850 -0.4191999585
0.0833959980 0.0540561534 -0.3702180368
0.0234395422 0.0907756648 -0.4126750933
-0.0200254301 0.0661363287 -0.4179418426
0.0442327616 0.0360704726 -0.4774332633
-0.0074702348 0.0888709740 -0.4204576836
0.0428634640 0.0395674221 -0.3575250506
0.0408212797 0.0644391766 -0.3508999646
0.0191680284 0.0935802254 -0.4951940981
0.0438977229 0.0562225856 -0.3588291573
0.0936518902 0.0493513515 -0.4211266318
0.0633363464 0.0482032329 -0.5123152018
0.0606823515 0.0175136516 -0.3620309014
0.0329563349 0.0398728945 -0.4052990323
0.0410510935 0.0128336186 -0.4057487249
0.0759380466 0.0746141051 -0.3787303136
0.0427774724 0.0224309809 -0.4605849267
0.0425320038 0.0599173228 -0.4732201474
-0.0041781815 0.0006127583 -0.4014652891
0.0664498069 0.0129392383 -0.3856328391
0.0576599388 0.0134520784 -0.3888825401
0.1052303975 0.0427881573 -0.4796590591
0.0014674347 0.0532947760 -0.3594551347
-0.0133305913 0.0419010093 -0.4061494649
0.0294868039 0.0384853647 -0.3713257586
0.0272984528 0.0521517255 -0.3635657938
0.0561324458 -0.0002435355 -0.4413459028
0.0356289224 0.0133742055 -0.3885844770
-0.0009014870 0.0309701257 -0.4163840798
0.0501284211 -0.0165005529 -0.4107339605
0.0840862473 0.0797041967 -0.4117794273
0.0106686290 0.0914605743 -0.4137577615
0.0235928712 0.0202004909 -0.4290118859
-0.0160175075 0.0748668753 -0.3690200662
0.0017646433 0.0912161207 -0.4209350574
0.0293274614 0.0303623178 -0.4556871193
-0.0040740835 0.0830285320 -0.3935811858
0.0393956329 0.0508218569 -0.4734211561
0.0667413430 0.0875952817 -0.4089045451
0.0104469405 0.0223209765 -0.3798817694
0.0469666100 0.0337782655 -0.4129192871
-0.0272370543 0.0468659521 -0.3838533867
0.0369351010 0.0262631908 -0.4096158257
0.0039782799 0.0774068078 -0.4998864701
-0.0020087441 0.0337111180 -0.4226250167
-0.0196445770 0.0794114092 -0.3864304123
-0.0013337522 0.0607609600 -0.3644267478
0.0402197249 0.0162841433 -0.4024976374
0.0284670344 0.0258962138 -0.4232166789
0.0530648623 0.0183923673 -0.3940412849
0.0306130336 0.0496691665 -0.4054453653
0.0883738728 0.0529355465 -0.4084832227
0.0223454520 0.0560541395 -0.4093028029
-0.0212590629 0.0633484320 -0.4082308775
0.0169704727 0.0293214320 -0.3992275243
0.0179719805 0.0456535379 -0.3542192023
0.0340548097 0.0922534360 -0.3986904409
-0.0066075420 0.0985405811 -0.3947958766
0.0413117331 0.0822721076 -0.4704234251
0.0746233042 0.0036147531 -0.3906626889
-0.0127073642 0.0706501940 -0.4283351471
-0.0203660509 0.0443117565 -0.4355774362
0.0894814634 0.0524500853 -0.4366561395
0.0850915470 0.0735233983 -0.4125379643
0.0152919407 0.0153974697 -0.3893026282
-0.0107379728 0.0465482741 -0.4144896836
0.0257097468 0.0206611318 -0.4158282654
-0.0014291192 0.0509036502 -0.3615435732
0.0904047639 0.0490129449 -0.4176162731
0.0456995802 0.0486450068 -0.5004143950
0.0780849308 0.0135221025 -0.3991855085
0.0235910648 0.0443074573 -0.3607961982
0.0410181737 0.0818473945 -0.4749614229
-0.0099560603 0.0283542265 -0.4392183244
0.0346674534 0.0410029714 -0.4497323564
0.0399514290 0.0611784609 -0.4591052678
0.0557922203 0.0872984726 -0.3765763948
-0.0156741093 0.0713773759 -0.3910892297
0.0390587419 0.0365605059 -0.4220390151
0.0465123677 0.0897417611 -0.4580485559
-0.0194820059 0.0477932489 -0.4250093780
0.0726332745 0.0287867434 -0.3643411021
0.0406570079 0.0831555316 -0.3981611035
0.0375231466 0.0676285148 -0.4055266457
0.0042195597 0.0918976108 -0.4236819495
0.0695076423 0.0695020557 -0.3604374226
0.0356200259 0.0132958323 -0.4097228546
0.0326746457 0.0109806867 -0.4188659293
0.0554572086 0.0034018355 -0.4661548362
0.0207426379 0.0303144602 -0.4080813265
0.0224278508 0.0492806206 -0.3649341160
0.0929669181 0.0286007337 -0.4467129971
0.0874891384 0.0350314809 -0.4211459265
0.0458422273 0.0097653470 -0.4318743080
0.0231524932 0.0298231214 -0.3727622824
0.0082054374 0.0963277048 -0.4083826959
0.0770111822 0.0345817388 -0.3699764705
-0.0182708751 0.0500001348 -0.4051647317
0.0488885573 0.0296417447 -0.4663704243
0.0679374747 0.0805002931 -0.4098791696
-0.0145591194 0.0577179489 -0.3731267657
0.0640895184 0.0132946444 -0.4139897041
-0.0141310194 0.0733568165 -0.3943433137
-0.0015838878 0.0898453384 -0.4168603858
0.0873251711 0.0680172125 -0.4257973071
0.0303696360 0.0882369190 -0.4054449008
0.0479693462 -0.0085566304 -0.3965807085
0.0892128457 0.0501939082 -0.4013065009
0.0333471612 -0.0044593889 -0.3937072668
0.0012522687 0.0988920217 -0.4186126062
0.0461528007 0.0379126491 -0.3667570297
0.0801624056 0.0726986414 -0.3675955594
0.0303279984 0.0486117503 -0.5141928459
0.0163522688 0.0806935491 -0.3605765549
0.0839384373 0.0743841874 -0.3838658172
0.0446042052 0.0377695093 -0.4151075618
0.0413227542 0.0269189551 -0.4081120246
0.0532186826 0.0600356645 -0.3513261012
0.0001839107 0.0793514539 -0.3709047839
0.0575638125 0.0099184978 -0.4631973664
0.0180241824 0.0215378109 -0.4176787516
-0.0226460104 0.0518387098 -0.3879916786
-0.0045773431 0.0176594140 -0.4011945716
0.0189465364 0.0774005440 -0.5099649246
-0.0096264225 0.0057154572 -0.4140857702
0.0193434727 0.0819474200 -0.4932091428
0.0311732585 0.0077440031 -0.4000780323
0.0162466574 0.0711145173 -0.5129750262
0.0579243442 0.0018672609 -0.3870554764
0.0700059338 -0.0045678724 -0.3939232024
-0.0014598375 0.0483636906 -0.3611874126
0.0455622810 0.0134611850 -0.4434233382
0.0334715298 0.0585763417 -0.3653973302
0.0797192024 0.0759778122 -0.3812407628
0.0337573755 0.0606393128 -0.3663018708
0.0097507653 0.0265047230 -0.4054978173
0.0831966129 0.0759890245 -0.3942986177
0.0529814032 0.0462136334 -0.3439372956
0.0684688294 0.0267555329 -0.3707003737
0.0725279676 0.0710000401 -0.3640098513
0.0390246033 0.0283127327 -0.4155676627
0.0143747489 0.0259548963 -0.3962232055
0.0901314580 0.0713258659 -0.4898676530
0.0140319886 0.0195002574 -0.3854877353
0.0372190517 0.0642266718 -0.4037943248
0.0759651993 0.0877141686 -0.3878272275
0.0404108547 0.0155537458 -0.4042312018
0.0112880718 0.0326904607 -0.4065935781
0.0243932024 0.0858656759 -0.4602357176
0.0925715870 0.0454170247 -0.3839296239
0.0283817643 0.0769930954 -0.3799003491
0.0235607843 0.0399755543 -0.3663076052
