-0.2763546673 -0.0681684588 -0.4380473854
-0.2069620616 -0.0650888637 -0.4241742326
-0.2905081343 -0.0772534997 -0.4588233037
-0.2842595720 -0.0755500892 -0.4412383445
-0.2146154166 -0.0656048165 -0.4275955038
-0.1879077490 -0.0610822388 -0.4377820392
-0.2668061034 -0.0602528382 -0.4589606133
-0.2699043637 -0.0631334387 -0.4361505813
-0.3027066148 -0.0806373114 -0.4564671398
-0.2124506079 -0.0610602019 -0.4555641971
-0.1445028797 -0.0786105761 -0.4420822835
-0.2721233416 -0.0559527175 -0.4736228993
-0.2498102333 -0.0911382539 -0.4274658871
-0.1789370257 -0.0677431428 -0.4234151474
-0.1824651738 -0.0810329772 -0.4237075993
-0.2426258438 -0.0683003214 -0.4276005397
-0.2295884119 -0.1009362954 -0.4238696614
-0.2878749134 -0.0880967574 -0.4457568634
-0.1772564950 -0.0656760299 -0.4228993900
-0.3073636889 -0.0870760009 -0.4594667852
-0.3056281311 -0.0842128261 -0.4591659005
-0.1944594816 -0.0612729559 -0.4880570935
-0.2144080573 -0.0853553836 -0.4235378069
-0.1544721485 -0.0610598394 -0.4605835955
-0.2508667186 -0.0873643650 -0.4294629608
-0.2075070053 -0.0625789756 -0.4787879853
-0.2355502974 -0.0601671743 -0.4805999486
-0.2251299109 -0.0853086570 -0.4246240265
-0.2367112682 -0.0608620689 -0.4411061502
-0.1720501210 -0.0610917953 -0.4627511373
-0.2648587701 -0.0658797926 -0.4333425691
-0.2572164522 -0.0613202732 -0.4608994364
-0.2366539593 -0.0583291133 -0.4833283741
-0.2318863587 -0.0591371690 -0.4625781886
-0.2272918106 -0.0592482577 -0.4512814494
-0.1798652832 -0.0684795356 -0.4251823483
-0.2627204210 -0.0623868313 -0.4379281998
-0.2622416907 -0.0610572848 -0.4459383255
-0.2752193765 -0.0698578739 -0.4381852202
-0.2878584472 -0.0613699052 -0.4755490898
-0.1954997854 -0.1008009108 -0.4213411102
-0.1844989200 -0.0615002455 -0.4422647209
-0.1999891067 -0.0906959880 -0.4227624746
-0.1896258897 -0.0607704863 -0.4555356419
-0.2702473009 -0.0655947855 -0.4335928842
-0.2348699033 -0.0709889031 -0.4266024957
-0.2800279853 -0.0662989334 -0.4511057747
-0.2450492870 -0.0598785147 -0.4660238470
-0.2946423562 -0.0658706390 -0.4707372792
-0.2073981254 -0.0604234898 -0.4604257575
-0.1740824466 -0.0604459639 -0.4703123273
-0.2089548570 -0.0607057624 -0.4610296016
-0.1924940259 -0.0611501446 -0.4387699076
-0.1702972311 -0.0884474299 -0.4210617455
-0.2100936489 -0.0610621852 -0.4433092235
-0.2922092149 -0.0652350108 -0.4717844824
-0.1640930396 -0.0587570065 -0.4715803547
-0.2687166333 -0.0593366064 -0.4726335406
-0.2021428673 -0.0602123881 -0.4597437042
-0.2144680693 -0.0606056205 -0.4536629672
-0.2932133706 -0.0825081922 -0.4587513883
-0.2379387343 -0.0604420656 -0.4504584361
-0.1921223415 -0.0612410920 -0.4532536371
-0.1651059569 -0.0757659857 -0.4229481284
-0.2664663125 -0.0566675862 -0.4803573782
-0.2175186807 -0.0986040383 -0.4227380637
-0.1874587787 -0.0879567047 -0.4229372007
-0.2841488321 -0.0973727929 -0.4461750512
-0.2467749521 -0.0572226449 -0.4889898394
-0.1869068325 -0.0863296145 -0.4209427572
-0.2740465412 -0.0678215743 -0.4384698601
-0.2793331503 -0.0660457134 -0.4490654567
-0.2276493472 -0.0632097120 -0.4282799366
-0.2127163412 -0.0703644829 -0.4242020468
-0.2001467829 -0.0611099650 -0.4509946110
-0.2149189039 -0.0901479325 -0.4252168898
-0.2150299592 -0.0984057345 -0.4229828633
-0.2768029316 -0.0637325946 -0.4579314456
-0.2769794044 -0.0661674396 -0.4436201186
-0.2596512195 -0.0609247851 -0.4637410139
-0.2797086596 -0.0648800373 -0.4684410341
-0.2505143383 -0.0604688688 -0.4633072551
-0.2746364530 -0.0709424225 -0.4360938214
-0.2145376951 -0.0992474034 -0.4218696654
-0.2617154642 -0.0623540201 -0.4587797164
-0.1799917991 -0.0603188382 -0.4351909714
-0.2162945740 -0.0979953358 -0.4208178793
-0.1919233673 -0.0606516301 -0.4554324753
-0.2044418064 -0.0609147040 -0.4660275116
-0.1677878873 -0.0908164213 -0.4214174415
-0.2720738891 -0.0999732464 -0.4353302802
-0.2019921702 -0.0610215091 -0.4505376473
-0.2577428790 -0.0542526261 -0.4841013273
-0.2046696837 -0.0605147348 -0.4633187201
-0.2176178370 -0.0681395238 -0.4242899928
-0.2249871410 -0.0611448984 -0.4285065216
-0.2144079322 -0.0679668697 -0.4243029007
-0.2631365061 -0.0553551763 -0.4766483009
-0.1975488079 -0.0924777949 -0.4212755057
-0.1670215900 -0.0607360148 -0.4533229447
-0.2070480535 -0.0759539701 -0.4253510106
-0.2093621133 -0.0806969430 -0.4249294079
-0.2232646303 -0.0593527164 -0.4479529541
-0.2194916354 -0.0589608585 -0.4485227856
-0.2220786730 -0.0602643401 -0.4709740280
-0.2170637826 -0.0602877586 -0.4528135059
-0.2102812423 -0.0646209444 -0.4241282853
-0.2223678351 -0.0705803036 -0.4257345972
-0.2539457000 -0.0565377273 -0.4803238804
-0.1776619565 -0.0611136705 -0.4428138463
-0.2368142707 -0.0607055278 -0.4457785130
-0.2831667364 -0.0840621516 -0.4394468665
-0.2374567994 -0.0609431479 -0.4481053293
-0.2243660086 -0.0605463054 -0.4416563430
-0.2440414448 -0.0651407506 -0.4293700446
-0.2240592644 -0.0590596982 -0.4412186386
-0.1902666536 -0.0607653011 -0.4355931244
-0.2161347330 -0.0563146565 -0.4817244810
-0.2248880578 -0.0758045469 -0.4260003560
-0.2401265972 -0.0735271362 -0.4285921232
-0.2192356122 -0.0602382079 -0.4565054811
-0.1628218181 -0.0680656968 -0.4297532682
-0.2195190414 -0.0590143293 -0.4564685533
-0.2318189212 -0.0605824072 -0.4779207390
-0.2398784412 -0.0933017720 -0.4253857701
-0.2709190544 -0.0899064576 -0.4322574756
-0.2350586431 -0.0829947545 -0.4251322526
-0.2097869731 -0.0953089000 -0.4255583934
-0.2169016824 -0.0830723315 -0.4237470762
-0.2020873234 -0.0622485520 -0.4758176589
-0.2525679506 -0.0536992847 -0.4788157565
-0.2421083976 -0.0724466085 -0.4307477852
-0.2806216151 -0.0779607722 -0.4358918222
-0.2044369913 -0.0625539703 -0.4309586759
-0.1918598067 -0.0618675226 -0.4458117566
-0.1736472837 -0.0608697832 -0.4412057793
-0.1594643866 -0.0578972069 -0.4688467646
-0.2525772340 -0.0564937152 -0.4790739780
-0.2773484852 -0.0781343780 -0.4326198319
-0.2218552863 -0.0611007863 -0.4740731330
-0.1846655218 -0.0611575960 -0.4307770648
-0.1774275296 -0.0683399062 -0.4250773390
-0.2298997662 -0.0806266095 -0.4257047793
-0.2597128269 -0.0584549762 -0.4807174195
-0.2422179280 -0.0591766151 -0.4712305173
-0.1823875217 -0.0607347860 -0.4380235175
-0.2246344581 -0.0593043260 -0.4581575731
-0.1773671498 -0.0609494115 -0.4483177496
-0.1446873487 -0.0759729689 -0.4455670593
-0.2049020727 -0.0653475271 -0.4250778282
-0.2996479816 -0.0805516423 -0.4641359287
-0.2025511039 -0.0873786300 -0.4244949437
-0.2096024439 -0.0834366373 -0.4254087738
-0.2144602301 -0.0602786428 -0.4805356373
-0.2680913210 -0.0771284103 -0.4323903024
-0.2618585981 -0.0610280651 -0.4610442877
-0.1961222627 -0.0774955618 -0.4272251146
-0.1645389979 -0.0608523500 -0.4603099045
-0.2498268329 -0.0560289921 -0.4861382038
-0.2142972895 -0.0609199288 -0.4711814660
-0.2391971667 -0.0606037846 -0.4353283395
-0.1493963552 -0.0690830268 -0.4453081055
-0.1975200259 -0.0616232221 -0.4456184415
-0.1891601980 -0.0856508948 -0.4247259498
-0.2098259286 -0.0955581460 -0.4236550852
-0.2124637379 -0.0951183450 -0.4234345761
-0.2669945618 -0.0772227774 -0.4292275653
-0.1945313799 -0.0604492938 -0.4583990397
-0.2145874538 -0.0879677342 -0.4231865316
-0.1876181769 -0.1008425288 -0.4209577433
-0.2169315925 -0.0607266067 -0.4711648164
-0.2342863870 -0.0592379851 -0.4597372990
-0.1998403867 -0.0602783692 -0.4630330609
-0.2347705534 -0.0597542772 -0.4608934170
-0.2649030952 -0.0737168624 -0.4314361417
-0.2251217552 -0.0601151575 -0.4302650523
-0.2149848558 -0.0683993256 -0.4262591316
-0.2601567358 -0.0604566038 -0.4781986624
-0.2370053791 -0.0608881958 -0.4358497813
-0.1970284871 -0.0603028530 -0.4610018971
-0.2300108369 -0.0593325635 -0.4662800379
-0.2294186574 -0.0603088075 -0.4662027880
-0.2150104411 -0.0653450883 -0.4256574043
-0.2628420836 -0.0583675859 -0.4785621327
-0.2512838233 -0.0616718491 -0.4516153827
-0.2621183149 -0.0610993409 -0.4708621318
-0.2520721362 -0.0625464708 -0.4504310810
-0.2857349217 -0.0909369215 -0.4446265399
-0.1923134787 -0.0780924202 -0.4236189209
-0.1693577707 -0.0603488877 -0.4378496199
-0.1893877412 -0.0685875355 -0.4241580210
-0.2290037005 -0.0597725345 -0.4535976921
-0.2164839924 -0.0592563912 -0.4633814829
-0.2570054226 -0.0602597072 -0.4660276694
-0.2244419399 -0.0606472577 -0.4603444732
-0.2447722574 -0.0831815538 -0.4277985296
-0.2102372984 -0.0615958249 -0.4849817025
-0.2254079083 -0.0625702671 -0.4286113937
-0.2147220514 -0.0608110684 -0.4675055187
-0.2395694150 -0.0589865959 -0.4635003364
-0.2572249525 -0.0567101517 -0.4833899744
-0.2170690313 -0.0682934945 -0.4264669689
-0.1496334291 -0.0655891856 -0.4596767970
-0.2878430671 -0.0753772768 -0.4479232331
-0.2546441424 -0.0601355706 -0.4763183070
-0.1749820660 -0.0658645026 -0.4231655177
-0.1771460050 -0.0609841174 -0.4651218111
-0.2171420955 -0.0600819196 -0.4483834427
-0.2078174015 -0.0601435299 -0.4429657693
-0.2090342713 -0.0583587794 -0.4837172450
-0.1976561204 -0.0628791439 -0.4832869910
-0.1976359752 -0.0606350271 -0.4357312208
-0.2821435157 -0.0756661364 -0.4387515658
-0.1897457824 -0.0614186758 -0.4280589061
-0.2790533515 -0.0638057040 -0.4665090063
-0.2241502810 -0.0658051810 -0.4274452864
-0.2873691506 -0.0634131954 -0.4709380947
-0.2972216202 -0.0855982246 -0.4603735996
-0.2226376558 -0.0599104022 -0.4306815957
-0.2072384862 -0.0735117800 -0.4240387237
-0.2418488322 -0.0581731900 -0.4800616828
-0.2773492819 -0.0650370873 -0.4512934229
-0.2815727506 -0.0581310401 -0.4719461191
-0.2253919787 -0.0831038157 -0.4254565292
-0.1496901252 -0.0862643952 -0.4325301697
-0.1502172815 -0.0883582540 -0.4326560110
-0.2279511686 -0.0854388266 -0.4248905536
-0.2307122088 -0.0680083718 -0.4273986315
-0.2802522709 -0.0682296188 -0.4459526523
-0.2802881101 -0.0678626221 -0.4482130438
-0.2373340451 -0.0602039876 -0.4533595195
-0.2620725235 -0.1004582395 -0.4285958581
-0.2016152533 -0.0610362981 -0.4268722499
-0.2093161994 -0.0796864665 -0.4238176246
-0.2445064966 -0.0545294299 -0.4833087752
-0.2602251668 -0.0628707314 -0.4337589269
-0.2744996260 -0.0604333615 -0.4705811912
-0.2024820931 -0.0607457936 -0.4654597986
-0.1921531978 -0.0838047431 -0.4270910082
-0.1873737252 -0.0709068240 -0.4256277385
-0.2965253294 -0.0709782317 -0.4654457569
-0.2041884169 -0.0594126537 -0.4615129501
-0.2754290067 -0.0980810754 -0.4394785962
-0.2553244188 -0.0614839057 -0.4480076447
-0.2342619700 -0.0602348629 -0.4386804399
-0.2399135677 -0.0608205902 -0.4337835438
-0.2446955214 -0.0781071164 -0.4278475248
-0.2425066695 -0.0731521945 -0.4286514510
-0.1871819587 -0.0611279172 -0.4508615898
-0.1926623486 -0.0806345111 -0.4237712127
-0.1800813756 -0.0727349190 -0.4247804994
-0.1975426700 -0.1029350328 -0.4214883664
-0.1528479233 -0.0905319415 -0.4309090885
-0.2646232823 -0.0606236708 -0.4530285081
-0.2863380388 -0.0855307076 -0.4418119645
-0.2601302260 -0.0761204774 -0.4291449939
-0.2646896252 -0.0604223979 -0.4630597133
-0.2174469580 -0.0587370582 -0.4807561735
-0.2191438542 -0.0682633615 -0.4275025482
-0.1947389955 -0.0617993938 -0.4454804115
-0.2498710804 -0.0615141872 -0.4385674245
-0.2142104047 -0.0592357919 -0.4884424037
-0.2931891717 -0.0880859077 -0.4559654546
-0.1949232592 -0.0856782021 -0.4233943796
-0.1872485107 -0.0777496547 -0.4250968252
-0.1998120556 -0.0833638111 -0.4238073775
-0.2073823702 -0.0610978028 -0.4675250882
-0.1577646489 -0.0637491731 -0.4481734775
-0.2321515981 -0.0601776741 -0.4806491908
-0.2563869979 -0.0572623504 -0.4863021706
-0.2496606134 -0.0981005362 -0.4259063561
-0.1935648548 -0.0626301771 -0.4498754607
-0.2635319455 -0.0589437197 -0.4615305072
-0.2500931158 -0.0959282651 -0.4263082857
-0.2153676722 -0.0590936662 -0.4464325587
-0.2150283848 -0.0604246869 -0.4486689515
-0.2598129660 -0.0659376860 -0.4330071321
-0.1327534845 -0.0839131180 -0.4539539802
-0.2506015816 -0.0929300314 -0.4263365722
-0.2520707669 -0.0587122760 -0.4785325600
-0.2467606217 -0.0612618025 -0.4403421443
-0.2315665036 -0.0591720603 -0.4318816960
-0.1794612286 -0.0614280815 -0.4707456047
-0.2049628705 -0.0585551390 -0.4291871879
-0.2092379519 -0.0954649105 -0.4208580285
-0.2198142540 -0.0684389097 -0.4259945967
-0.2287722725 -0.0588026959 -0.4386561423
-0.2048182228 -0.0610516803 -0.4407132655
-0.2246119529 -0.0601669010 -0.4854485095
-0.1400317522 -0.0983861905 -0.4480750221
-0.2112227792 -0.0592941150 -0.4581604254
-0.2200380096 -0.0831899691 -0.4252784022
-0.2743334520 -0.0622985278 -0.4609280523
-0.1969786577 -0.0608147954 -0.4328171983
-0.2019018172 -0.0601591444 -0.4630867272
-0.2904397977 -0.0628244690 -0.4762297847
-0.2076355128 -0.0902405933 -0.4244436419
-0.2501057519 -0.0756281856 -0.4298545982
-0.3015636794 -0.0716703098 -0.4666803523
-0.2145889947 -0.0601879154 -0.4612670300
-0.1890662451 -0.0612188413 -0.4673304766
-0.1823259232 -0.0659633317 -0.4253071924
-0.1747368945 -0.0757096285 -0.4228898920
-0.1590893574 -0.0628975357 -0.4599901537
-0.2645711645 -0.0684452352 -0.4324089291
-0.2526574340 -0.0956387915 -0.4266098480
-0.2516505883 -0.0983525677 -0.4259827821
-0.2000954995 -0.0628826280 -0.4811272361
-0.2491644782 -0.0620772121 -0.4496356437
-0.2097718269 -0.0612321472 -0.4511883961
-0.2861934709 -0.0707002762 -0.4584166072
-0.1971626316 -0.0835366007 -0.4259273467
-0.2421532067 -0.0631167470 -0.4311999572
-0.1630143333 -0.0630033856 -0.4439072317
-0.1852928356 -0.0904150481 -0.4209985007
-0.2242478822 -0.0602181464 -0.4709631729
-0.2314255504 -0.0598789810 -0.4511755811
-0.2792973924 -0.0784766336 -0.4337680673
-0.2380202201 -0.0698400457 -0.4276662904
-0.2602524247 -0.0611116776 -0.4436950061
-0.2099186487 -0.0781220033 -0.4253162512
-0.2317426054 -0.0729754327 -0.4275870513
-0.1698756408 -0.0604202778 -0.4302789026
-0.2500563280 -0.0622754823 -0.4428454108
-0.1848106920 -0.0981041802 -0.4187250664
-0.2043100675 -0.0601487392 -0.4335767933
-0.2169413337 -0.0588607460 -0.4372274338
-0.2601933907 -0.0787321463 -0.4310912697
-0.1869915652 -0.0614553406 -0.4709485991
-0.3043115397 -0.0846200982 -0.4645620402
-0.2502820299 -0.0775927599 -0.4299494966
-0.2016146603 -0.0616272455 -0.4735013415
-0.1725526445 -0.0613361955 -0.4456526681
-0.2777503609 -0.0903459269 -0.4359226072
-0.1724651482 -0.0609687256 -0.4551678530
-0.1901447440 -0.0606731870 -0.4529425706
-0.2518796771 -0.0657831845 -0.4310641423
-0.2173448058 -0.0603641669 -0.4585822727
-0.2224574970 -0.0603562824 -0.4551765050
-0.1870679199 -0.0639884336 -0.4262536808
-0.2567712621 -0.0826123691 -0.4290855493
-0.1965370476 -0.0609533489 -0.4842639565
-0.2046635301 -0.0757306265 -0.4257147136
-0.2602309626 -0.0654005974 -0.4316413446
-0.2842236134 -0.0605729790 -0.4787037688
-0.2125773265 -0.0988788799 -0.4230731605
-0.2340718285 -0.0593241574 -0.4709836032
-0.2676782879 -0.0602344510 -0.4679052923
-0.1728436385 -0.0681366694 -0.4227702145
-0.2041589491 -0.0958025114 -0.4209523570
-0.1724046713 -0.0695104005 -0.4207949511
-0.2499796887 -0.0733967359 -0.4298944393
-0.2218317637 -0.0595067802 -0.4586215324
-0.1994458191 -0.0835027473 -0.4257945214
-0.1863740524 -0.0626106006 -0.4557857829
-0.2440644636 -0.0598991039 -0.4606659171
-0.2941405541 -0.0662170297 -0.4751965410
-0.3018691476 -0.0764318418 -0.4657036221
-0.2829800844 -0.0681804717 -0.4556298554
-0.1515566229 -0.0594048672 -0.4661112278
-0.1820881767 -0.0616121512 -0.4660639619
-0.2817774143 -0.0665529570 -0.4558333527
-0.2811982754 -0.0637496823 -0.4655274142
-0.2017730126 -0.0613774158 -0.4857332968
-0.2550107994 -0.0592075614 -0.4736362993
-0.2081983918 -0.0593998449 -0.4580452059
-0.2775713396 -0.1003532900 -0.4428043015
-0.2398081324 -0.0680117215 -0.4288297105
-0.2199508799 -0.0588050494 -0.4341699302
-0.2217355933 -0.0611397579 -0.4762545039
-0.1948341976 -0.0888858244 -0.4214224166
-0.2198361244 -0.0598458526 -0.4332296963
-0.2698027939 -0.0756540745 -0.4323710650
-0.2300542218 -0.0780159616 -0.4257218817
-0.2699681433 -0.0753890581 -0.4311887053
-0.1922537984 -0.0847307243 -0.4212708289
-0.1897478318 -0.0657762482 -0.4242707868
-0.2369791417 -0.0584080355 -0.4803489061
-0.2044496900 -0.0590881637 -0.4479075023
-0.2069053738 -0.0593397839 -0.4484042807
-0.2556633537 -0.0949961899 -0.4277986411
-0.1947346016 -0.0834473226 -0.4253348587
-0.1848691106 -0.0773651413 -0.4249127378
-0.2145502367 -0.0602041958 -0.4412042156
-0.1921545016 -0.0708076739 -0.4256532683
-0.1993757002 -0.0612065947 -0.4430159466
-0.2340861349 -0.0842849783 -0.4270648850
-0.2019694489 -0.0732425349 -0.4255557704
-0.2076602440 -0.0929955888 -0.4235448108
-0.1967481166 -0.0606412644 -0.4578594145
-0.1943942937 -0.0616477421 -0.4409663053
-0.2478234052 -0.0617006723 -0.4381102985
-0.2089789853 -0.0624117436 -0.4529448305
-0.2023477537 -0.0616830319 -0.4713009044
-0.2042237665 -0.0781121226 -0.4249202803
-0.2669415862 -0.0564844208 -0.4789337511
-0.2251846389 -0.0931065702 -0.4245001919
-0.2496836929 -0.0603675877 -0.4610035815
-0.2301401989 -0.0834108798 -0.4253152336
-0.2080540435 -0.0679956450 -0.4272729282
-0.1540369838 -0.0646244809 -0.4533637762
-0.2476502918 -0.0621497065 -0.4484083396
-0.2122963223 -0.0861862619 -0.4239235764
-0.1895883767 -0.0737888624 -0.4259739037
-0.2725066825 -0.0604726660 -0.4584458884
-0.2976449738 -0.0822991971 -0.4652522455
-0.2345573450 -0.0755047483 -0.4260826491
-0.2453215770 -0.0613095266 -0.4511073751
-0.2411186932 -0.0588424336 -0.4835888941
-0.2547165081 -0.0616819335 -0.4527041692
-0.2562599724 -0.0542911172 -0.4808728388
-0.2325336775 -0.0832359702 -0.4251853534
-0.2045152951 -0.0606719633 -0.4510809739
-0.2787234393 -0.0678515644 -0.4381306281
-0.1974764120 -0.0625613298 -0.4274641643
-0.2593025995 -0.0561337199 -0.4839441002
-0.2771336069 -0.0631478219 -0.4692080919
-0.2100934340 -0.0656492495 -0.4263285978
-0.2324586419 -0.0600951106 -0.4435475789
-0.2872895375 -0.0950871260 -0.4484969978
-0.2350374649 -0.0973762362 -0.4245383381
-0.2726611008 -0.0800078899 -0.4316332111
-0.1895070098 -0.0614052440 -0.4454040582
-0.2500475085 -0.0591969564 -0.4732164970
-0.2315881086 -0.0598787339 -0.4479965937
-0.2177908151 -0.0756946182 -0.4259110888
-0.2517944766 -0.0677367668 -0.4287566925
-0.1874302138 -0.0614455475 -0.4308186818
-0.2520740641 -0.0704695319 -0.4292207759
-0.2902639383 -0.0848418925 -0.4508361450
-0.2640486191 -0.0567321929 -0.4791067038
-0.2296829491 -0.0600382009 -0.4584951168
-0.1817728175 -0.0618348339 -0.4536444834
-0.1874426714 -0.0611257591 -0.4465527527
-0.1730630493 -0.0777534516 -0.4224515701
-0.2763697797 -0.0613167306 -0.4691879194
-0.2174277883 -0.0902575089 -0.4253032971
-0.2013542946 -0.0592758552 -0.4816530750
-0.2799287209 -0.0655352777 -0.4579066000
-0.2345797410 -0.0798752595 -0.4243153648
-0.2539962074 -0.0568008775 -0.4835086859
-0.2749112019 -0.0761657751 -0.4330355118
-0.2048333195 -0.0591713742 -0.4341245205
-0.2600176727 -0.0679527537 -0.4328728448
-0.2571514197 -0.0688848927 -0.4330012277
-0.2445260030 -0.0637405535 -0.4305964788
-0.1918396752 -0.0709319623 -0.4238953282
-0.2392614580 -0.0627918609 -0.4303942425
-0.2701943571 -0.0629384630 -0.4387015531
-0.2643567384 -0.0604595094 -0.4333313212
-0.2048058890 -0.0613189307 -0.4264088976
-0.2022169464 -0.0680882444 -0.4254332641
-0.1743954311 -0.0602338057 -0.4282428383
-0.2995450522 -0.0827233024 -0.4558914518
-0.1555172767 -0.0663423192 -0.4360247900
-0.2070874543 -0.0674767982 -0.4236266266
-0.2371673712 -0.0602303880 -0.4555757892
-0.2340663145 -0.0545142776 -0.4810370307
-0.1623093387 -0.0613603840 -0.4634129438
-0.2270792475 -0.0598980621 -0.4504918903
-0.2846442586 -0.0608140928 -0.4752045736
-0.2969597961 -0.0682872579 -0.4632507759
-0.2103099832 -0.0681147634 -0.4256027025
-0.1925750214 -0.0605831201 -0.4582617365
-0.2468911189 -0.0683636333 -0.4290021996
-0.2765881538 -0.0560885755 -0.4758098670
-0.2323741694 -0.0781009001 -0.4256485668
-0.2298254880 -0.0590320053 -0.4583717109
-0.1774991589 -0.0627989825 -0.4473394838
-0.2215214719 -0.0606156626 -0.4681440783
-0.1827419617 -0.0610310186 -0.4403952071
-0.2492742704 -0.0603467947 -0.4733690137
-0.2092545124 -0.0674280388 -0.4239636817
-0.2911263625 -0.0799875638 -0.4533600609
-0.2517559282 -0.0612370101 -0.4609868486
-0.2216326198 -0.0623359216 -0.4279044207
-0.1800330491 -0.0608231409 -0.4398023545
-0.2978692486 -0.0760958969 -0.4657055846
-0.2493253217 -0.0567142389 -0.4807797092
-0.1635296941 -0.0831599906 -0.4211709201
-0.2197200347 -0.0598262043 -0.4481020162
-0.2547877253 -0.0881783518 -0.4262569006
-0.1970789656 -0.0812069733 -0.4258973493
-0.2346761365 -0.0950086489 -0.4255196719
-0.2173357571 -0.0600707041 -0.4664425641
-0.1872309083 -0.0684110782 -0.4254524239
-0.2839753561 -0.0574858261 -0.4684398197
-0.2025803411 -0.0930109783 -0.4229626694
-0.1720013257 -0.0846606781 -0.4249501851
-0.2373862843 -0.0776167851 -0.4272356339
-0.2244436242 -0.0787927880 -0.4235119729
-0.2901059213 -0.0751767102 -0.4608105352
-0.2201449187 -0.0810752205 -0.4253098081
-0.2420464697 -0.0566828658 -0.4880291030
-0.2521355822 -0.0684518702 -0.4304591588
-0.2097093083 -0.0706994231 -0.4272398454
-0.1874892931 -0.0800404143 -0.4245475392
-0.2348505305 -0.0579638074 -0.4915308464
-0.2789086797 -0.0561191302 -0.4755132462
-0.2275152224 -0.0828193297 -0.4269403823
-0.1898894642 -0.0652475292 -0.4250889245
-0.2302989713 -0.0860407669 -0.4249823777
-0.2037120301 -0.0590538600 -0.4409730377
-0.2046298745 -0.0594932202 -0.4582705463
-0.2695652709 -0.0679249918 -0.4316316229
-0.2495488997 -0.0621866429 -0.4590614457
-0.2485638708 -0.0620966740 -0.4415205717
-0.2892958962 -0.0628422868 -0.4735395744
-0.1990422381 -0.0615715926 -0.4734313402
-0.2176117635 -0.0781818373 -0.4255595006
-0.1568938965 -0.0607262040 -0.4631032491
-0.2149778586 -0.0878129160 -0.4247814352
-0.2354419297 -0.0726491505 -0.4274597404
-0.2046101489 -0.0606319304 -0.4426388512
-0.2053146462 -0.0684087415 -0.4272808031
-0.2667486221 -0.0680275824 -0.4288811116
-0.2599185186 -0.0613833567 -0.4413226550
-0.2496909287 -0.0808075972 -0.4287872583
-0.1869610794 -0.0652527517 -0.4276965950
-0.2001139637 -0.0619017322 -0.4713054219
-0.1929468588 -0.0607815050 -0.4355107849
-0.1995311854 -0.0809977255 -0.4259156205
-0.2126803557 -0.0733194972 -0.4253438805
-0.2121219654 -0.0655662034 -0.4262671198
-0.2374679677 -0.0833477053 -0.4254914426
-0.2425910285 -0.0610089264 -0.4536571941
-0.2195591654 -0.0591144525 -0.4530712432
-0.1908659607 -0.0742723074 -0.4236610628
-0.2196293804 -0.0602303842 -0.4531696690
-0.2041854813 -0.0619470357 -0.4752772417
-0.2464870952 -0.0600889857 -0.4680983031
-0.2250235563 -0.0782133276 -0.4260626930
-0.2471759017 -0.0829626641 -0.4284982224
-0.1772367491 -0.0614642540 -0.4458958751
-0.2616924338 -0.0600593642 -0.4805698081
-0.2905139700 -0.0805640484 -0.4527919303
-0.2475506571 -0.0730130108 -0.4288329214
-0.2113509476 -0.0620838776 -0.4779834449
-0.2646321328 -0.0606190768 -0.4787114030
-0.2462232774 -0.0561970395 -0.4854356868
-0.2873089587 -0.0688183627 -0.4666206739
-0.1970500704 -0.0823545525 -0.4236239649
-0.2624917989 -0.0836422783 -0.4290192271
-0.2661465947 -0.0621018850 -0.4612352001
-0.2414808273 -0.0996409878 -0.4240211248
-0.2863341004 -0.0690710015 -0.4630179441
-0.2664703727 -0.0604272481 -0.4341463340
-0.1793793043 -0.0937410121 -0.4190101326
-0.2273163417 -0.0706265083 -0.4284095681
-0.2592455591 -0.0620853664 -0.4456987719
-0.1899383407 -0.0625765354 -0.4303196928
-0.2089260416 -0.0651436297 -0.4278425127
-0.3014725916 -0.0738214374 -0.4707200215
-0.2929221285 -0.0800387933 -0.4608088871
-0.1977756545 -0.0879737400 -0.4215122312
-0.2296051822 -0.0730565426 -0.4261658560
-0.2525153473 -0.0786148046 -0.4291246018
-0.2070338875 -0.0621183459 -0.4732657373
-0.2587464479 -0.0563017423 -0.4793351145
-0.2596271132 -0.0817973850 -0.4286584957
-0.2595839201 -0.0790118204 -0.4286797609
-0.2098346220 -0.0883813104 -0.4236578461
-0.2921425253 -0.0700972304 -0.4698395878
-0.2189456571 -0.0677812932 -0.4238535804
-0.2383859833 -0.0626202081 -0.4289139003
-0.2798169582 -0.0705242684 -0.4408260824
-0.2000742976 -0.0773135976 -0.4270773946
-0.2492433440 -0.0605247856 -0.4705896247
-0.1599307393 -0.0635364874 -0.4407608609
-0.2901243920 -0.0747953464 -0.4636584866
-0.2338355591 -0.0651529589 -0.4299122444
-0.2421112746 -0.0544490183 -0.4829968130
-0.2443840740 -0.0568946215 -0.4791983913
-0.2417308917 -0.0621508832 -0.4531099793
-0.2396482164 -0.0623421939 -0.4537792668
-0.1790944084 -0.0746427226 -0.4245823312
-0.2623580292 -0.0749360153 -0.4294082726
-0.1843945194 -0.0852210264 -0.4208637167
-0.1749270707 -0.0622335850 -0.4755750195
-0.2723966819 -0.0600656502 -0.4737438320
-0.2888544626 -0.0748085075 -0.4535570474
-0.2070077718 -0.0700885221 -0.4238625104
-0.2862640045 -0.0775979036 -0.4401808375
-0.2540669960 -0.0622405588 -0.4607012926
-0.2443537427 -0.0622840513 -0.4554904065
-0.1798102005 -0.0739163494 -0.4237081140
-0.1376942098 -0.0834177339 -0.4504293229
-0.2166406367 -0.0698084592 -0.4242951406
-0.2239369703 -0.0587781129 -0.4876443382
-0.2221060385 -0.0854228974 -0.4269516030
-0.2602599989 -0.0609153520 -0.4467099900
-0.2019537924 -0.0859622724 -0.4211907496
-0.2197822941 -0.0601920018 -0.4626940368
-0.2201303644 -0.0600505101 -0.4586810278
-0.2172894322 -0.0684553742 -0.4270923690
-0.1677037661 -0.0780256024 -0.4244653901
-0.1775001564 -0.0859251371 -0.4246079155
-0.2543272651 -0.0589801587 -0.4639710667
-0.2072539505 -0.0933851398 -0.4209905418
-0.2721299653 -0.0780454190 -0.4292691531
-0.1528065596 -0.0828595294 -0.4282676009
-0.2494562679 -0.0918547227 -0.4296317893
-0.2217589518 -0.0570844275 -0.4811356057
-0.2819248043 -0.0660702873 -0.4683312777
-0.1845965333 -0.0730863162 -0.4262140169
-0.1553634023 -0.0833340484 -0.4261606402
-0.2245290266 -0.0857401355 -0.4235378060
-0.2390910402 -0.0784493056 -0.4298211698
-0.1822975045 -0.0960094934 -0.4199902131
-0.1847222980 -0.0614919152 -0.4282679674
-0.2772897434 -0.0659305447 -0.4459891901
-0.1706275445 -0.0649186574 -0.4211543392
-0.1677166428 -0.0707444370 -0.4232627368
-0.2323909553 -0.0658153258 -0.4264034488
-0.1719168710 -0.0801128129 -0.4212605543
-0.1703844203 -0.0904370245 -0.4211858571
-0.1704356037 -0.0974905198 -0.4200674331
-0.2173111103 -0.0594846546 -0.4584874525
-0.2371131388 -0.0591105787 -0.4558335592
-0.2602279186 -0.0657199373 -0.4350281556
-0.2156384331 -0.0591093146 -0.4484959296
-0.2168802018 -0.0590476184 -0.4331819564
-0.1821989799 -0.0612056659 -0.4280374296
-0.2917073096 -0.0739679316 -0.4664124944
-0.1986899372 -0.0594080191 -0.4612190208
-0.1679261333 -0.0684422063 -0.4239520193
-0.1748826529 -0.0633347826 -0.4233984367
-0.1683063337 -0.0595658790 -0.4489273395
-0.2217721976 -0.0675873999 -0.4241716935
-0.2623488401 -0.0623669885 -0.4657654564
-0.2021647621 -0.0710668371 -0.4239821228
-0.1803432319 -0.0759488136 -0.4233676204
-0.1749995267 -0.0785632778 -0.4246602659
-0.1677887152 -0.0810405818 -0.4222034997
-0.2418281222 -0.0780474156 -0.4263092051
-0.1620169020 -0.0639759409 -0.4312389661
-0.2347479165 -0.0979618728 -0.4214709476
-0.2192190895 -0.0646453540 -0.4299981774
-0.2291699372 -0.0682519799 -0.4296939532
-0.2575667941 -0.0704245024 -0.4327915890
-0.1626201016 -0.0735391230 -0.4230493790
-0.2051812893 -0.0782706938 -0.4237816309
-0.1798181220 -0.0859108795 -0.4209282059
-0.1650214281 -0.1035374558 -0.4272608311
-0.1978736118 -0.1003136002 -0.4229271745
-0.2452884606 -0.0921833152 -0.4271935825
-0.2731461144 -0.1044064308 -0.4397628868
-0.2173305864 -0.0601645956 -0.4624802536
-0.2124677435 -0.0604882802 -0.4585266671
-0.2188152747 -0.0587788242 -0.4435863506
-0.2068887243 -0.0610237946 -0.4255861147
-0.2899512351 -0.0656307116 -0.4730539918
-0.1695655729 -0.0653336818 -0.4247964436
-0.2540008284 -0.0629390245 -0.4316565240
-0.1744100975 -0.0676892898 -0.4254717979
-0.1679014354 -0.0805000146 -0.4212078073
-0.2410364270 -0.0709461879 -0.4326361326
-0.2095058677 -0.0896205351 -0.4211208546
-0.2752353966 -0.0931777279 -0.4356993613
-0.2736015320 -0.0935170949 -0.4346751571
-0.2147197018 -0.0632606683 -0.4282716529
-0.2527317853 -0.0928673453 -0.4263459687
-0.1822417941 -0.0627959405 -0.4536750744
-0.2073599187 -0.0954784399 -0.4208878654
-0.2214511434 -0.0590071275 -0.4560458913
-0.2608201726 -0.0623405599 -0.4626277460
-0.1744186106 -0.0625447358 -0.4276116855
-0.1719015916 -0.0625755316 -0.4277053808
-0.2518358747 -0.0705874228 -0.4324571329
-0.2930218238 -0.0856262540 -0.4559487426
-0.2368792538 -0.0600653709 -0.4630792400
-0.2038999349 -0.0627274290 -0.4823605716
-0.2738364241 -0.1034612545 -0.4399247852
-0.1618101092 -0.0631669920 -0.4406950107
-0.1914981266 -0.0610131146 -0.4261357997
-0.1724317761 -0.0631545183 -0.4252195087
-0.1643147803 -0.0676018797 -0.4279279169
-0.1664378099 -0.0704634541 -0.4249358477
-0.1466761522 -0.0757501248 -0.4408334406
-0.3055945170 -0.0848007211 -0.4566088336
-0.2771099252 -0.0736418363 -0.4338354835
-0.2971697817 -0.0862615695 -0.4561390422
-0.2444697987 -0.0856676362 -0.4264810541
-0.1828398475 -0.0909268903 -0.4210268551
-0.2643600553 -0.0983744524 -0.4294823408
-0.2593627982 -0.0592433468 -0.4714527432
-0.1669722367 -0.0610166098 -0.4482675561
-0.2350098206 -0.0593652960 -0.4566020814
-0.2619141010 -0.0557931048 -0.4784863881
-0.2198790179 -0.0600503769 -0.4506094678
-0.1645952405 -0.0613595441 -0.4353447886
-0.1618570627 -0.0725487284 -0.4275117858
-0.1592788728 -0.0729830732 -0.4275988695
-0.2372365565 -0.0781076353 -0.4296315393
-0.2348306690 -0.0910987539 -0.4238304717
-0.2400840462 -0.0957971108 -0.4235449844
-0.1873562990 -0.1025327235 -0.4209563090
-0.2595189040 -0.0594736157 -0.4763788921
-0.2542457938 -0.0590988892 -0.4757549752
-0.1848215039 -0.0636848576 -0.4624801500
-0.1833837417 -0.0636333911 -0.4647161200
-0.1848937268 -0.0628772400 -0.4557318717
-0.1669538318 -0.0594414084 -0.4434187419
-0.2856419981 -0.0674420595 -0.4697234929
-0.1623185711 -0.0617653568 -0.4454804995
-0.1872403662 -0.0626185367 -0.4529892076
-0.1849971297 -0.0632223277 -0.4532585313
-0.1575483301 -0.0641438369 -0.4429115110
-0.1906667855 -0.0933596891 -0.4211394146
-0.2875160058 -0.0661809245 -0.4713341060
-0.1871914310 -0.0627940330 -0.4457419802
-0.1452742387 -0.0719208173 -0.4509585576
-0.1548166762 -0.0678706794 -0.4360966232
-0.1724917400 -0.0641863138 -0.4237510719
-0.2298881832 -0.0609832337 -0.4290319070
-0.2197221364 -0.0601420386 -0.4263378082
-0.1571437680 -0.0708739415 -0.4305053798
-0.2553299806 -0.0637580574 -0.4330065122
-0.1720839046 -0.0654734658 -0.4211825167
-0.1638226723 -0.0705056121 -0.4285429909
-0.1622025189 -0.0705809485 -0.4297796703
-0.1488974597 -0.0757679828 -0.4351439581
-0.1393545110 -0.0837974491 -0.4474780057
-0.2890809760 -0.0734302440 -0.4538793519
-0.2842475616 -0.0708112291 -0.4437458392
-0.2772903716 -0.0699122759 -0.4383258356
-0.1819921228 -0.0704819599 -0.4259974433
-0.1574199253 -0.0733201269 -0.4258788144
-0.2866930495 -0.0733949858 -0.4457856791
-0.2822718243 -0.0707297638 -0.4409431586
-0.1674066706 -0.0731727529 -0.4228159061
-0.2887580306 -0.0752326624 -0.4486119469
-0.1790001094 -0.0874232799 -0.4193495810
-0.3030941243 -0.0829721109 -0.4585151838
-0.2697132716 -0.0733540545 -0.4323469811
-0.1719153380 -0.0760378371 -0.4212589296
-0.1824490302 -0.0784633522 -0.4236088983
-0.2941740053 -0.0866174339 -0.4565298662
-0.2444226754 -0.0747020792 -0.4264965834
-0.1630754814 -0.0808293244 -0.4214176153
-0.2227281712 -0.0785977553 -0.4253555693
-0.2743404335 -0.0775594390 -0.4318847944
-0.2572476665 -0.0855823358 -0.4304962158
-0.2855032808 -0.0883280109 -0.4429614770
-0.2354451471 -0.0852082720 -0.4238833967
-0.1609365677 -0.0955971817 -0.4282618417
-0.1513010412 -0.0670970827 -0.4481580853
-0.2717307117 -0.0896885936 -0.4309523316
-0.2377621210 -0.0875029342 -0.4238520198
-0.3020393316 -0.0832358713 -0.4651826631
-0.2392096201 -0.0897612491 -0.4236335763
-0.2394147277 -0.0923729141 -0.4232687943
-0.2473059309 -0.0979197050 -0.4255714081
-0.2219297697 -0.0991327323 -0.4244673137
-0.1725129196 -0.1008425367 -0.4157280820
-0.2294063206 -0.0607520107 -0.4809263347
-0.2269805597 -0.0609842576 -0.4811098004
-0.2566925159 -0.0592719837 -0.4788245645
-0.2189009651 -0.0589677623 -0.4634585505
-0.1830926441 -0.0902701930 -0.4219394841
-0.2294548564 -0.0585395763 -0.4605448148
-0.2251332925 -0.0590404650 -0.4610287047
-0.2324475892 -0.0591424425 -0.4555045432
-0.2371200572 -0.0593017293 -0.4602659970
-0.1494822898 -0.0659155247 -0.4579505799
-0.1437396187 -0.0689943010 -0.4572732475
-0.1605020846 -0.0617584181 -0.4408721609
-0.1922376676 -0.0623576084 -0.4464603700
-0.1442665871 -0.0729291209 -0.4530897145
-0.2716833042 -0.0631218077 -0.4392875687
-0.1920722210 -0.0630261347 -0.4258618256
-0.1437531098 -0.0791999892 -0.4447633130
-0.1753943829 -0.0675734989 -0.4270078713
-0.2328960523 -0.0596878752 -0.4715343863
-0.1728082042 -0.0673307465 -0.4247189772
-0.2822756467 -0.0700521693 -0.4456893399
-0.1478995656 -0.0783813432 -0.4356065264
-0.1891184578 -0.0703599738 -0.4238886458
-0.2540375447 -0.0687039594 -0.4287285748
-0.2128260950 -0.0701169598 -0.4270491100
-0.2573421770 -0.0735311180 -0.4311377122
-0.2970678089 -0.0878930851 -0.4588072953
-0.3000629310 -0.0906330598 -0.4583590030
-0.1678852552 -0.0836024891 -0.4214735193
-0.1746852730 -0.0878967578 -0.4178757542
-0.2572416281 -0.0945784235 -0.4300581954
-0.2569267013 -0.0984437991 -0.4279217501
-0.1602874071 -0.0591492018 -0.4634477110
-0.1573757435 -0.0563046511 -0.4583427214
-0.1625474031 -0.0591129746 -0.4627101013
-0.2467254831 -0.0606684257 -0.4701305074
-0.2440147997 -0.0601068044 -0.4682656734
-0.2220198253 -0.0600641540 -0.4579119287
-0.2763707970 -0.0706925192 -0.4337745409
-0.1854606704 -0.0626084316 -0.4451369655
-0.1747088179 -0.0593498939 -0.4356460085
-0.1767453899 -0.0979104936 -0.4191229343
-0.1552759705 -0.0643490720 -0.4422140825
-0.1766095031 -0.0592635132 -0.4327482898
-0.1700328140 -0.0593095807 -0.4302237531
-0.1670602898 -0.0592527002 -0.4304867147
-0.2995850436 -0.0709681058 -0.4634236407
-0.2145885915 -0.0611487671 -0.4266828360
-0.1370748150 -0.0819148681 -0.4532160372
-0.2907489624 -0.0826219292 -0.4528138387
-0.1951133906 -0.0774631476 -0.4241629546
-0.2526962828 -0.0847028334 -0.4304647068
-0.1555012335 -0.0997350728 -0.4348017942
-0.2253185958 -0.0598869026 -0.4356620908
-0.1999933063 -0.0626000933 -0.4878825343
-0.1846530511 -0.0613234917 -0.4798811731
-0.1623887295 -0.0557845646 -0.4609948888
-0.2326829860 -0.0585273929 -0.4811958253
-0.1794901288 -0.0608098814 -0.4753291897
-0.2107117059 -0.0626294988 -0.4828309582
-0.2793097555 -0.0559714762 -0.4732402590
-0.2668866250 -0.0588204464 -0.4760114043
-0.2627224028 -0.0599520353 -0.4774455832
-0.2547144084 -0.0600370965 -0.4726363987
-0.2779219214 -0.0604307782 -0.4736244192
-0.2448175405 -0.0591935546 -0.4613104630
-0.2418006292 -0.0601852607 -0.4586668112
-0.2294927568 -0.0590781052 -0.4556087691
-0.2062525560 -0.0591773752 -0.4509684527
-0.2751296843 -0.0622141278 -0.4674512974
-0.2323703911 -0.0586540082 -0.4515616386
-0.1930135236 -0.0626228736 -0.4530937478
-0.2325757592 -0.0591400476 -0.4486772297
-0.2175075217 -0.0595694535 -0.4475892142
-0.2107337290 -0.0594363353 -0.4459059587
-0.1945045739 -0.0621444732 -0.4521982670
-0.2076246921 -0.0595389513 -0.4455096253
-0.2296172555 -0.0589890465 -0.4453379531
-0.1901216222 -0.0609405624 -0.4383539856
-0.1569097049 -0.0649751414 -0.4404826575
-0.2203913339 -0.0587198842 -0.4306726932
-0.2940384520 -0.0685847513 -0.4681006209
-0.2823530140 -0.0672377439 -0.4666873215
-0.1590957195 -0.0921531692 -0.4267586172
-0.2434867587 -0.0624639644 -0.4495490935
-0.2219172925 -0.0598598284 -0.4405265722
-0.2131523197 -0.0593418691 -0.4329230193
-0.1429793289 -0.0765210785 -0.4491548176
-0.2873219507 -0.0704587195 -0.4659582157
-0.2755472984 -0.0645915152 -0.4500143382
-0.2510895519 -0.0624112762 -0.4404587096
-0.2001403542 -0.0614182614 -0.4283543494
-0.1944390349 -0.0629650546 -0.4299084558
-0.1516542453 -0.0705530465 -0.4373032242
-0.2703364058 -0.0626379019 -0.4406952985
-0.2673860034 -0.0635013149 -0.4330909212
-0.1698395357 -0.0699262704 -0.4210534147
-0.3036144960 -0.0806706487 -0.4694336214
-0.1579714387 -0.0717279300 -0.4247976445
-0.3039930574 -0.0792317196 -0.4633029483
-0.2352545849 -0.0688599690 -0.4265870171
-0.2741997209 -0.0708992976 -0.4332289083
-0.2245090121 -0.0732451559 -0.4275114895
-0.2673695087 -0.0594423562 -0.4727104604
-0.3024792794 -0.0853460739 -0.4609740830
-0.2020472437 -0.0905413702 -0.4218888581
-0.2454538428 -0.0731802541 -0.4267492870
-0.2226138595 -0.0759033610 -0.4252917500
-0.2955714826 -0.0916233426 -0.4599096955
-0.2959478025 -0.0939404093 -0.4607912018
-0.2521374264 -0.0810215810 -0.4287785033
-0.2345073656 -0.0783423603 -0.4240015694
-0.2791026119 -0.0828726999 -0.4341136662
-0.2871905910 -0.0906515779 -0.4457242675
-0.1554746310 -0.0947965773 -0.4303317343
-0.2702749463 -0.0858733502 -0.4322686859
-0.2673425428 -0.0847444503 -0.4305947566
-0.2776556290 -0.0884302716 -0.4346054122
-0.2857418169 -0.0978300205 -0.4478547608
-0.1454651803 -0.0684172362 -0.4537106156
-0.2701250384 -0.0942674736 -0.4321687106
-0.2716641709 -0.0980925780 -0.4336965082
-0.2451112594 -0.0961082765 -0.4234869725
-0.2000322962 -0.0992300524 -0.4208002632
-0.1975200780 -0.1003151270 -0.4209403028
-0.1694097040 -0.1028334541 -0.4184988289
-0.2302258611 -0.0584141128 -0.4836358726
-0.2151242644 -0.0583915822 -0.4807119966
-0.2122131288 -0.0591633990 -0.4823310971
-0.1999083161 -0.0612061322 -0.4856679589
-0.1770004630 -0.0588916652 -0.4742858112
-0.2580479085 -0.0583963953 -0.4822598100
-0.1754401028 -0.0595123079 -0.4715758264
-0.1705436260 -0.0598693937 -0.4715021849
-0.2673642635 -0.0566576310 -0.4769260585
-0.2066764832 -0.0626459420 -0.4826842546
-0.2018191144 -0.0627843440 -0.4821033180
-0.1888548732 -0.0621241778 -0.4545676112
-0.1659193188 -0.0601114705 -0.4670865238
-0.1647500843 -0.0605678894 -0.4660861641
-0.2581216991 -0.0600011572 -0.4806148112
-0.2022370473 -0.0630491935 -0.4788331985
-0.2754061520 -0.0581565015 -0.4724072516
-0.2524468303 -0.0592469461 -0.4736899137
-0.2483704239 -0.0591611415 -0.4727827013
-0.2349111438 -0.0595849864 -0.4716138244
-0.2036532909 -0.0622148067 -0.4728625417
-0.2827688754 -0.0599145405 -0.4762397408
-0.2660220265 -0.0595466793 -0.4727823436
-0.2416929752 -0.0587189607 -0.4666424990
-0.1753953844 -0.0592900366 -0.4552977979
-0.2523621321 -0.0593015105 -0.4661965668
-0.2503777742 -0.0594311189 -0.4662164003
-0.2871380746 -0.0624356046 -0.4757774472
-0.2483542264 -0.0590053201 -0.4610858858
-0.2779824038 -0.0628975593 -0.4706934988
-0.2483863980 -0.0594978072 -0.4587515593
-0.2915378511 -0.0616178028 -0.4667685926
-0.2305173129 -0.0595055968 -0.4522507787
-0.2266629040 -0.0600506924 -0.4529610872
-0.1901727766 -0.0626216959 -0.4507651627
-0.1482110769 -0.0668660030 -0.4540829659
-0.2920230925 -0.0660632141 -0.4725574255
-0.2877794504 -0.0654661842 -0.4723613709
-0.2244473994 -0.0594868064 -0.4476873279
-0.1918605864 -0.0622650646 -0.4484580159
-0.1871279031 -0.0630690455 -0.4495096803
-0.1560223401 -0.0644569770 -0.4461596906
-0.2950408906 -0.0675978549 -0.4730855525
-0.2915302813 -0.0671238825 -0.4733075202
-0.1726906747 -0.0599365644 -0.4351298809
-0.2373847961 -0.0930020213 -0.4243455529
-0.2899297774 -0.0682314485 -0.4703999609
-0.2880027890 -0.0678909371 -0.4699229300
-0.2498581111 -0.0623478815 -0.4521989524
-0.2193431780 -0.0599525962 -0.4412276447
-0.2168462500 -0.0602325648 -0.4414630681
-0.2048900425 -0.0594520792 -0.4373019636
-0.1867615730 -0.0624042768 -0.4409327954
-0.1522002071 -0.0671630353 -0.4450129271
-0.1426704451 -0.0729922429 -0.4553912431
-0.2543100864 -0.0624721870 -0.4498122931
-0.2504806221 -0.0623486266 -0.4489364475
-0.2275346220 -0.0598086528 -0.4390568733
-0.1515871733 -0.0675627515 -0.4423913658
-0.2770458758 -0.0637800395 -0.4527797699
-0.2712533772 -0.0615785234 -0.4467313886
-0.2649821937 -0.0620894954 -0.4471106231
-0.2542582601 -0.0624964088 -0.4465578198
-0.2504647002 -0.0623673256 -0.4456829131
-0.2295546979 -0.0596976522 -0.4359327704
-0.2223530114 -0.0596241299 -0.4345133454
-0.2063376456 -0.0593690723 -0.4309639037
-0.2699309140 -0.0833116174 -0.4324913919
-0.2051460743 -0.0593976118 -0.4308043718
-0.2884239256 -0.0705482289 -0.4669646323
-0.2768964469 -0.0642017871 -0.4504478872
-0.2717571259 -0.0619204510 -0.4443625212
-0.2548259497 -0.0624539740 -0.4432963729
-0.1799440334 -0.0612827266 -0.4260121286
-0.2945197225 -0.0711853877 -0.4657108784
-0.2926676571 -0.0717691556 -0.4668779075
-0.2596816123 -0.0620761216 -0.4399136007
-0.2554281354 -0.0627766587 -0.4409576058
-0.2498158664 -0.0623743050 -0.4391939044
-0.1839927137 -0.0618872568 -0.4262347817
-0.1441013813 -0.0749548376 -0.4481360316
-0.2882974446 -0.0722542629 -0.4640841782
-0.2676467299 -0.0621918216 -0.4381294399
-0.1802428365 -0.0632231474 -0.4230521202
-0.1775743574 -0.0631576620 -0.4229270279
-0.1523880064 -0.0698795617 -0.4347769320
-0.1453414112 -0.0745747462 -0.4441280961
-0.3037934899 -0.0767161548 -0.4726766646
-0.2580126425 -0.0633774971 -0.4354700247
-0.3001810759 -0.0734754018 -0.4648206234
-0.2975887756 -0.0737613166 -0.4640802046
-0.2843866944 -0.0698491409 -0.4547235668
-0.2553402483 -0.0630643666 -0.4353959262
-0.2330415696 -0.0629649982 -0.4302871674
-0.2306131274 -0.0625323802 -0.4304035902
-0.2282256037 -0.0626428351 -0.4302619100
-0.2120319754 -0.0633453801 -0.4280436337
-0.2781128585 -0.0675831214 -0.4455861747
-0.2398673862 -0.0638195649 -0.4282527566
-0.2128447294 -0.0656905969 -0.4285410742
-0.1803001538 -0.0655324459 -0.4232454747
-0.2753440440 -0.0677686408 -0.4425570369
-0.2646945417 -0.0655588172 -0.4347514361
-0.2517427653 -0.0643288791 -0.4317349046
-0.2976436516 -0.0781530539 -0.4640083412
-0.2722124755 -0.0663117170 -0.4358710051
-0.2540571988 -0.0658698902 -0.4305785000
-0.1935900301 -0.0681499839 -0.4274230003
-0.1837256700 -0.0690418854 -0.4274008572
-0.1566140875 -0.0730638728 -0.4288533628
-0.3014957309 -0.0791187584 -0.4643332958
-0.2952891886 -0.0793647617 -0.4642645866
-0.2753818035 -0.0696437582 -0.4406235814
-0.2694691420 -0.0660092756 -0.4319020212
-0.2629123330 -0.0669592023 -0.4331779182
-0.2148602083 -0.0675486550 -0.4271512479
-0.2130774558 -0.0676040128 -0.4269560277
-0.2973763645 -0.0803818852 -0.4634375870
-0.2568916380 -0.0684506670 -0.4312702641
-0.2536859810 -0.0666663125 -0.4284061491
-0.1825405061 -0.0716773793 -0.4270385206
-0.1566934213 -0.0755392909 -0.4282570332
-0.1553573757 -0.0757213160 -0.4283386469
-0.2069264054 -0.1025376320 -0.4237629473
-0.2374995500 -0.0687018087 -0.4266736209
-0.2246269360 -0.0687430874 -0.4256690294
-0.1727354328 -0.0736174236 -0.4232889960
-0.1650172696 -0.0729583912 -0.4215811193
-0.3047108650 -0.0837316215 -0.4632782787
-0.2848234177 -0.0738737583 -0.4418385327
-0.1586918384 -0.0853424370 -0.4244472682
-0.2790774405 -0.0718660355 -0.4369306266
-0.2710884213 -0.0700310171 -0.4321081340
-0.2644610032 -0.0711376593 -0.4322410598
-0.1691765587 -0.0740886331 -0.4215765297
-0.1589585543 -0.0757651329 -0.4247870147
-0.1548358053 -0.0781836063 -0.4275403023
-0.1476315260 -0.0819891319 -0.4355533719
-0.2964604050 -0.0852232799 -0.4625051469
-0.2862887979 -0.0753054693 -0.4420618713
-0.2744416595 -0.0729311854 -0.4348088503
-0.2540040016 -0.0707661808 -0.4286990464
-0.1448047310 -0.0857045054 -0.4397578239
-0.3047288656 -0.0853653774 -0.4619581699
-0.2728574872 -0.0738177449 -0.4345801473
-0.2640435696 -0.0732621029 -0.4323892295
-0.1843058169 -0.0756536052 -0.4243422151
-0.1695600189 -0.0760972742 -0.4206744134
-0.1478576958 -0.0843204707 -0.4344539940
-0.3072915077 -0.0858603567 -0.4600581527
-0.2361864597 -0.0736108571 -0.4265407622
-0.1750897244 -0.0782519877 -0.4235571101
-0.1667882875 -0.0774846226 -0.4215368778
-0.1648918142 -0.0781113928 -0.4214640657
-0.1520021558 -0.0837175399 -0.4296688586
-0.2855285704 -0.0797016397 -0.4423419535
-0.2623743042 -0.0759371128 -0.4306870848
-0.2321033999 -0.0758839585 -0.4264510646
-0.1850146055 -0.0787189137 -0.4238009825
-0.1466933340 -0.0888532996 -0.4375993907
-0.2839345634 -0.0796739236 -0.4392387569
-0.2700552195 -0.0779593308 -0.4329005331
-0.1729005526 -0.0810934380 -0.4228134056
-0.1587263644 -0.0826607719 -0.4246983230
-0.1462539732 -0.0909197330 -0.4387269914
-0.3052265048 -0.0875104070 -0.4540669620
-0.2650123090 -0.0782585051 -0.4301669449
-0.2470116541 -0.0912988670 -0.4263655543
-0.1948722452 -0.0809256484 -0.4251556496
-0.1425739676 -0.0960976779 -0.4453826249
-0.2937265038 -0.0908933580 -0.4569074214
-0.2728569880 -0.0808349773 -0.4334139898
-0.2683309317 -0.0797698498 -0.4321872592
-0.2028224543 -0.0812504739 -0.4241140038
-0.1775342599 -0.0834484827 -0.4234621376
-0.2586578429 -0.0821019262 -0.4329392910
-0.1929350197 -0.0830674693 -0.4244786501
-0.1891715378 -0.0835500658 -0.4246908426
-0.1652400196 -0.0853014812 -0.4216770679
-0.2833724320 -0.0856373534 -0.4397553802
-0.2744913896 -0.0832457369 -0.4323832989
-0.2685718834 -0.0824164376 -0.4319599569
-0.2394943833 -0.0807217211 -0.4241383473
-0.2372722551 -0.0804853477 -0.4242444336
-0.1879036576 -0.0851091370 -0.4247760177
-0.1776911989 -0.0850915089 -0.4226291925
-0.1750912294 -0.0855324231 -0.4229395390
-0.1729300569 -0.0858735740 -0.4222282767
-0.1601198912 -0.0875992700 -0.4236620069
-0.2761187255 -0.0833119377 -0.4317719042
-0.1582662463 -0.0900695845 -0.4252980649
-0.1477679759 -0.0996576697 -0.4416092932
-0.2600004077 -0.0843909159 -0.4294303358
-0.2593380312 -0.0859473025 -0.4305482308
-0.1824073742 -0.0865152727 -0.4209846854
-0.1694751382 -0.0885869861 -0.4222092927
-0.2779633999 -0.0872221291 -0.4340483844
-0.2453786284 -0.0855679810 -0.4272095561
-0.1693619043 -0.0901550129 -0.4224885404
-0.2847318053 -0.0938226059 -0.4444210827
-0.1929268986 -0.0889171660 -0.4210514128
-0.1646944731 -0.0935594365 -0.4252182543
-0.2690372616 -0.0886654407 -0.4292301238
-0.2662525773 -0.0866914988 -0.4265764356
-0.2650374472 -0.0867922381 -0.4266345203
-0.2565231621 -0.0874555260 -0.4269129336
-0.1769013455 -0.0912388042 -0.4190741181
-0.1682110876 -0.0933542252 -0.4215710759
-0.1599593163 -0.0993958861 -0.4324176311
-0.2668164869 -0.0884080008 -0.4263622661
-0.2651146352 -0.0878696665 -0.4260520041
-0.2529523075 -0.0887963623 -0.4263803363
-0.2505175173 -0.0889636278 -0.4263909757
-0.2468644232 -0.0892031118 -0.4263724983
-0.2250235230 -0.0906512104 -0.4246632457
-0.1852231175 -0.0931486636 -0.4221654832
-0.1789286882 -0.0916162282 -0.4193346500
-0.1561329961 -0.1058013141 -0.4407177269
-0.2691979110 -0.0905324817 -0.4287810326
-0.2524642050 -0.0903933644 -0.4266742766
-0.2066423297 -0.0929754227 -0.4245980680
-0.1996123940 -0.0921386257 -0.4217967987
-0.1570705324 -0.1079803258 -0.4421146810
-0.2786994576 -0.0995064527 -0.4433808625
-0.2768504918 -0.0972497985 -0.4391185641
-0.2738847136 -0.0955788568 -0.4358103871
-0.2693662345 -0.0920956582 -0.4290566742
-0.2623839974 -0.0930806870 -0.4283947249
-0.2499801417 -0.0928159778 -0.4273452163
-0.2294188216 -0.0931029432 -0.4246589020
-0.1764087528 -0.0952668861 -0.4190095514
-0.2741689384 -0.0976518691 -0.4369336367
-0.2276182920 -0.0939662829 -0.4246724546
-0.2202463150 -0.0947484225 -0.4249397218
-0.1883477718 -0.0963472426 -0.4221293032
-0.1796673052 -0.0960029270 -0.4184555039
-0.1617867798 -0.1064699963 -0.4347976446
-0.2678418159 -0.0956975389 -0.4289401993
-0.2121009727 -0.0977961297 -0.4247920016
-0.1924729198 -0.0984647572 -0.4224408269
-0.1839693189 -0.0964382291 -0.4188496768
-0.1813816130 -0.0969239473 -0.4191869795
-0.2553744912 -0.0959904082 -0.4268601537
-0.2073381618 -0.0987729095 -0.4248561412
-0.1813055724 -0.0984992385 -0.4194258749
-0.1653576344 -0.1043099910 -0.4263128042
-0.2687059641 -0.0983077474 -0.4285333008
-0.2624943256 -0.0985252261 -0.4295521975
-0.2524203062 -0.0977827236 -0.4271397889
-0.2413482890 -0.0980327912 -0.4249536246
-0.2388554364 -0.0971370712 -0.4243137538
-0.2302670181 -0.0980720297 -0.4247486591
-0.2074382380 -0.1006491482 -0.4243557006
-0.1933571920 -0.1008607410 -0.4221654832
-0.1883454025 -0.1005941629 -0.4219970703
-0.1838312149 -0.0995871648 -0.4193259180
-0.2739173174 -0.1056794599 -0.4405277967
-0.2537382543 -0.0987756327 -0.4265099466
-0.2426590323 -0.0987829641 -0.4239339828
-0.2125864029 -0.1008474696 -0.4230629876
-0.1851047873 -0.1027405579 -0.4206605852
