0.0882085915 -0.0885427126 -0.2147992245
0.0559531807 -0.0976510562 -0.2132299344
0.1279955682 -0.1051787823 -0.2128910825
0.0985159696 -0.0855552031 -0.2202192035
0.1203158041 -0.1485492121 -0.2528850866
0.1235576268 -0.1281792628 -0.2021589796
0.1091096227 -0.1651025203 -0.2698098471
0.1001425492 -0.1521201997 -0.2596553306
0.0589181237 -0.1406493304 -0.2467910787
0.1644341139 -0.1268485883 -0.2515982524
0.0602114255 -0.0749087745 -0.2245114064
0.0907669328 -0.0802018383 -0.2177762659
0.1158583021 -0.0753237957 -0.2258379202
0.1383503075 -0.0805501908 -0.2246447575
0.1631985600 -0.1294109955 -0.2455598612
0.1260499735 -0.1253921335 -0.2050774338
0.0705124978 -0.1533554403 -0.2573776935
0.0957018292 -0.0882671020 -0.2156178781
0.0578483590 -0.1067980388 -0.2080437590
0.0595536908 -0.1079904190 -0.2088125168
0.1283484909 -0.0926603973 -0.2203271663
0.1187496861 -0.1384530573 -0.2373361002
0.0762506628 -0.1539510605 -0.2625390856
0.0991825923 -0.1680694604 -0.2719517337
0.1281786944 -0.1525329043 -0.2526779810
0.0428079659 -0.1085619819 -0.2183022082
0.0661728218 -0.0880863816 -0.2169964112
0.0711334804 -0.1031195581 -0.2095430072
0.0417754265 -0.1103171431 -0.2221047896
0.0863247525 -0.1622449890 -0.2655281941
0.0600483878 -0.1196889767 -0.2067543914
0.1216341983 -0.1688446458 -0.2725834620
0.0928478593 -0.1322774773 -0.2021343482
0.1362952942 -0.1178275943 -0.2081842299
0.1011417457 -0.0718416413 -0.2157788280
0.0665394284 -0.1296682910 -0.1993715576
0.1408205346 -0.1148826940 -0.2117411268
0.1394682351 -0.0814763457 -0.2290941895
0.0958045579 -0.1176492111 -0.2050841771
0.1161912572 -0.1678999467 -0.2704482339
0.1295881038 -0.0799495759 -0.2304260339
0.0849938681 -0.1206754721 -0.2065677812
0.0932912480 -0.1398890266 -0.2448069842
0.1434205875 -0.1447417399 -0.2479300856
0.1207360105 -0.1125992434 -0.2073567153
0.0915760050 -0.1153639051 -0.2143978162
0.0384555588 -0.1084535254 -0.2340824164
0.0660481089 -0.1313069240 -0.2303149180
0.1418580698 -0.0829819581 -0.2300065107
0.0757594786 -0.1184148538 -0.2028117058
0.0694198885 -0.1333845058 -0.1980566157
0.0947482510 -0.1186939505 -0.2168635008
0.0803833760 -0.1550140233 -0.2596475421
0.1220798194 -0.1316380387 -0.2293447498
0.0802490740 -0.1151429429 -0.2101660825
0.1416331935 -0.1199004543 -0.2182851555
0.0941499559 -0.1404017223 -0.2417715115
0.0781059584 -0.1585259014 -0.2649288986
0.0828201525 -0.1110820751 -0.2109833866
0.1140886895 -0.1101133145 -0.2078227407
0.1310967069 -0.1625830529 -0.2652263897
0.0888274290 -0.1166767232 -0.2068992416
0.0836461155 -0.1188373158 -0.2130641213
0.1406828670 -0.1282105790 -0.2324376617
0.1294971795 -0.1317529026 -0.2281551173
0.0934262765 -0.1253663542 -0.2028178335
0.0828702892 -0.1331374208 -0.1982509222
0.1209004349 -0.0825252268 -0.2245988225
0.0556101449 -0.0851463930 -0.2171659912
0.1359240727 -0.0724009404 -0.2264155525
0.0603534505 -0.1027161032 -0.2137621790
0.1371074659 -0.1248056804 -0.2231804639
0.0662242821 -0.1504803903 -0.2562279042
0.0728156395 -0.1345087540 -0.2347832947
0.0255223354 -0.0933527677 -0.2350856606
0.1084528129 -0.1044174733 -0.2128077636
0.1776576287 -0.1193168328 -0.2301987830
0.0610235528 -0.0867749622 -0.2114018860
0.1355302349 -0.1309576060 -0.2320262961
0.1764085782 -0.1252417406 -0.2288979730
0.1309292311 -0.1076460748 -0.2148140835
0.1088218938 -0.1261911125 -0.2247483842
0.0560967029 -0.1106151146 -0.2124292572
0.1238636398 -0.1672460292 -0.2666432463
0.0971545078 -0.1159132143 -0.2173627427
0.0738471026 -0.1212763224 -0.1999614020
0.0413654122 -0.1078920166 -0.2216262185
0.0638910529 -0.0970269590 -0.2138145764
0.1501475693 -0.1436071419 -0.2383829223
0.1227721184 -0.1172071613 -0.2168313333
0.0838805451 -0.0720884624 -0.2220488803
0.0789728631 -0.1532214459 -0.2545464521
0.0745267255 -0.0870872110 -0.2124816571
0.1312719733 -0.1251762262 -0.2052876753
0.0738573966 -0.0877524569 -0.2173364304
0.1312183510 -0.1148755260 -0.2122523111
0.1784346103 -0.0920370687 -0.2318995668
0.0691468599 -0.1290712638 -0.2290030964
0.1475502019 -0.1425956603 -0.2365125973
0.1188119206 -0.1264427810 -0.2043770363
0.0989425250 -0.1578485018 -0.2651251140
0.1552126955 -0.1315511550 -0.2282201657
0.1597954826 -0.1127420801 -0.2101647829
0.1354372250 -0.1673887449 -0.2695976023
0.0794003891 -0.1228138724 -0.2222876761
0.1431402909 -0.1226868859 -0.2048354467
0.0601153407 -0.0880275355 -0.2153308045
0.1192542352 -0.1025313847 -0.2132778391
0.0839308608 -0.1206401650 -0.2167966094
0.0733947760 -0.1201938383 -0.2029137329
0.1727815005 -0.1279802197 -0.2336018249
0.0785814477 -0.1249034860 -0.2019482847
0.1197062682 -0.1014818556 -0.2136467379
0.1190844781 -0.0904137231 -0.2181116160
0.0250227536 -0.0911365534 -0.2323418261
0.1234500699 -0.0931454934 -0.2199405031
0.0876322849 -0.1494450843 -0.2556064165
0.1678667202 -0.1244693712 -0.2505212757
0.1605507938 -0.1274645726 -0.2306480262
0.0499526298 -0.0828166990 -0.2160087123
0.1457622687 -0.1225190623 -0.2155225135
0.0680586727 -0.1327215961 -0.2303486007
0.1720288295 -0.1231804481 -0.2292120164
0.1220836450 -0.1342891463 -0.2323608485
0.0845220492 -0.1339596226 -0.2383159625
0.0547644143 -0.1625330339 -0.2718189174
0.1009599939 -0.1347028829 -0.2001172901
0.1061283596 -0.1616468632 -0.2674318553
0.0933727136 -0.1435774371 -0.2490172273
0.1102212212 -0.1104718813 -0.2078339214
0.1584203668 -0.1230466343 -0.2096302558
0.1430748345 -0.1302645514 -0.2034628395
0.0481868564 -0.1119486444 -0.2140506014
0.1340746967 -0.1263699466 -0.2226474212
0.1670785589 -0.1267786210 -0.2494956941
0.1434616466 -0.1324620359 -0.2005460210
0.0423798192 -0.1103905670 -0.2165774146
0.0982686440 -0.1279170447 -0.2275690839
0.1291557505 -0.0849729233 -0.2275351763
0.1202346674 -0.1316101449 -0.2314799174
0.1137593522 -0.1585142678 -0.2628758163
0.1568099397 -0.1149830389 -0.2110889324
0.0778138807 -0.1461334279 -0.2490119564
0.0268101992 -0.0948623883 -0.2309833565
0.1761018293 -0.1192745353 -0.2254090089
0.1193443730 -0.1164364033 -0.2091614343
0.1857891083 -0.1026771875 -0.2318546686
0.0655205221 -0.0950701444 -0.2148921487
0.1549087559 -0.1056328600 -0.2100925930
0.1313244675 -0.1247559192 -0.2016624161
0.0957079312 -0.1647083601 -0.2667909095
0.0863157350 -0.1180351328 -0.2045746201
0.0358891744 -0.0964432008 -0.2239952167
0.0759981018 -0.1028349325 -0.2069768459
0.0522614668 -0.1597741018 -0.2654684640
0.1027279151 -0.1325170109 -0.1971101891
0.1212726903 -0.0999244325 -0.2152253564
0.1036325483 -0.1200186140 -0.2030160374
0.0733483755 -0.1131628829 -0.2066805008
0.0865129150 -0.1366444647 -0.2331120126
0.1190434857 -0.1011009030 -0.2166862626
0.0636779979 -0.0882570416 -0.2153775400
0.1180320316 -0.1001814535 -0.2152261758
0.1286547833 -0.1224169478 -0.2052792670
0.0908331542 -0.0751741431 -0.2257243680
0.0985986238 -0.0904418104 -0.2170219343
0.1209660571 -0.1329359177 -0.2004039475
0.0352409320 -0.0872738137 -0.2262954244
0.1391616231 -0.1361556801 -0.2370536051
0.0871718513 -0.1534435844 -0.2596972495
0.1262873749 -0.0707367019 -0.2315066731
0.1529674291 -0.1218043438 -0.2202036547
0.1362766144 -0.0715196371 -0.2313932440
0.1017922677 -0.0885723533 -0.2214057614
0.1882423672 -0.0996462240 -0.2451078747
0.1304796774 -0.1205036604 -0.2074443838
0.1286123223 -0.1271009307 -0.2025094311
0.0800138386 -0.0803139983 -0.2218302199
0.1721537166 -0.1220239041 -0.2254095391
0.0633072586 -0.1156267454 -0.2141584830
0.1388679416 -0.1143897688 -0.2117648233
0.1250902070 -0.1590624783 -0.2599415511
0.1462241826 -0.1426014633 -0.2425140021
0.0685722163 -0.1201629712 -0.2024033456
0.1332666407 -0.1534910251 -0.2551061338
0.1008387158 -0.1387666965 -0.1999249719
0.1282714994 -0.1256203517 -0.2054309900
0.1286486318 -0.1195959246 -0.2061012017
0.0374131543 -0.0869280257 -0.2246060538
0.1574002539 -0.1293156251 -0.2260719688
0.1360162398 -0.1227299186 -0.2071633878
0.0580455003 -0.1635187931 -0.2721089331
0.1539703988 -0.0974445543 -0.2224239322
0.0425664326 -0.1133560588 -0.2369212645
0.1345146874 -0.0931055741 -0.2227450299
0.1215339372 -0.1380983353 -0.2351342949
0.1446258825 -0.1559667606 -0.2555572311
0.1164120036 -0.1153972407 -0.2166120007
0.0772621818 -0.1247797371 -0.2229343382
0.1009392670 -0.1363879671 -0.1972388439
0.0537646767 -0.1225698195 -0.2306646651
0.0850759403 -0.1546688743 -0.2605650845
0.0800191791 -0.0739146835 -0.2193620728
0.0479248921 -0.1074180048 -0.2184964570
0.0829853298 -0.1561344176 -0.2599887111
0.1459265023 -0.1169348488 -0.2057132238
0.0878527047 -0.1560722409 -0.2623551543
0.1294303739 -0.1013286597 -0.2164672654
0.1247477444 -0.1340361715 -0.2341448738
0.1077636853 -0.1177819967 -0.2060473412
0.1309353608 -0.1048578302 -0.2146716828
0.0670845862 -0.0887962331 -0.2155161160
0.1851089180 -0.0959847539 -0.2349630033
0.1157856677 -0.1120613321 -0.2096029859
0.1099866823 -0.1149075568 -0.2155795963
0.0835140795 -0.1075834657 -0.2078081916
0.1014241316 -0.1447082556 -0.2458038135
0.1357566194 -0.1028230821 -0.2146201960
0.1149927685 -0.0771377720 -0.2207157732
0.1616354167 -0.1422177167 -0.2520690460
0.0744863614 -0.1310917733 -0.1998331798
0.1310745407 -0.0782722933 -0.2281706717
0.0678117742 -0.1584608289 -0.2633056954
0.1002550109 -0.1430825765 -0.1953627557
0.1079184089 -0.0759599727 -0.2198518384
0.0812781589 -0.1182385811 -0.2011520338
0.1379943936 -0.1007644969 -0.2177275963
0.1172572410 -0.1505044863 -0.2527265520
0.0454481083 -0.1154999595 -0.2332920925
0.0412604024 -0.0876609083 -0.2207627042
0.0585096601 -0.1132116963 -0.2097959604
0.0274427181 -0.0904172937 -0.2302180955
0.1042738089 -0.1324669744 -0.2327485218
0.0734670020 -0.1085393514 -0.2057150620
0.1900012585 -0.1004688889 -0.2401861575
0.1163108250 -0.1346083591 -0.2362512309
0.1677338510 -0.1215513103 -0.2261838538
0.1285561051 -0.1149314113 -0.2097595022
0.1259085468 -0.1683289045 -0.2732983902
0.0469980473 -0.1056384393 -0.2183998413
0.0523866411 -0.0986797791 -0.2093192207
0.1115058166 -0.1106647634 -0.2091948513
0.0384260709 -0.0979164029 -0.2239394033
0.1321585546 -0.1220670872 -0.2190513016
0.0565039494 -0.1482068716 -0.2538898047
0.1276948346 -0.0806130747 -0.2211777660
0.0758128794 -0.1347943134 -0.2342290515
0.0986750859 -0.0975809537 -0.2144349696
0.0960201164 -0.1367219661 -0.1976913241
0.0699438043 -0.1019987339 -0.2124000800
0.1410874375 -0.1177608090 -0.2123200861
0.1359932718 -0.1302835194 -0.2028846298
0.1283207068 -0.1294331852 -0.2301353548
0.1332874560 -0.1212868796 -0.2224390519
0.0973180581 -0.1441874501 -0.1943586677
0.1413655054 -0.1170561525 -0.2158495535
0.1263285578 -0.1214767151 -0.2185411202
0.0686631823 -0.1152858074 -0.2040505790
0.0876465949 -0.1253165949 -0.2295564857
0.0962117334 -0.1229561916 -0.2045923263
0.0703403632 -0.1421356388 -0.2423188269
0.0847247342 -0.1228442673 -0.2201809899
0.1417445980 -0.0778740238 -0.2288086794
0.0893789217 -0.1377195030 -0.2422343805
0.0763050303 -0.1309890266 -0.2320111008
0.1349666837 -0.1456406056 -0.2456796869
0.0787485154 -0.1230348428 -0.2022043449
0.0637712840 -0.1190408727 -0.2152483921
0.1570329625 -0.1205442685 -0.2108228606
0.1703053088 -0.1278304781 -0.2374179703
0.1339265821 -0.1240907800 -0.2025035243
0.1060228604 -0.1270753652 -0.2276158188
0.0932078035 -0.0724699890 -0.2245346498
0.1205665466 -0.0711492507 -0.2350968187
0.0913409134 -0.1170728188 -0.2053717640
0.0563635539 -0.1399301550 -0.2467405830
0.1262048029 -0.1304673225 -0.2023217333
0.0441374597 -0.0915575436 -0.2237494654
0.1362446757 -0.1376433643 -0.2350223042
0.0814557638 -0.0831440972 -0.2144200661
0.1038022316 -0.1211459988 -0.2154059766
0.0917016750 -0.1187788514 -0.2233238318
0.0619516221 -0.1092866652 -0.2056794384
0.1055420464 -0.1183559539 -0.2194983107
0.0934220262 -0.1546878714 -0.2582613893
0.0407683183 -0.0783401222 -0.2253491037
0.1156511846 -0.1248469993 -0.2045808101
0.1434372653 -0.1318553112 -0.2258476193
0.0795786114 -0.1247908280 -0.2237214666
0.1036275892 -0.1573400471 -0.2595339784
0.1654722547 -0.1142430654 -0.2173815599
0.1183916439 -0.1281331830 -0.2020463837
0.1179868023 -0.1311332565 -0.2012057734
0.0609515803 -0.1169948669 -0.2137769420
0.0814005586 -0.1494206145 -0.2518511096
0.0977521885 -0.1375321858 -0.1994845361
0.1138045187 -0.1375208834 -0.1996628642
0.1185102033 -0.1230111897 -0.2034397069
0.1594722319 -0.1248100294 -0.2252503703
0.1177568105 -0.0772755949 -0.2225995368
0.1440173552 -0.1630641326 -0.2650447723
0.0664007982 -0.0973929251 -0.2146834603
0.0828159168 -0.1630977542 -0.2660519538
0.0692507836 -0.0992961947 -0.2082454775
0.0736957704 -0.1330335497 -0.1996810602
0.0563466393 -0.1245759522 -0.2357436154
0.1133127819 -0.1506767964 -0.2524199587
0.1056324559 -0.1639860918 -0.2701600867
0.0660523894 -0.0931723603 -0.2169627923
0.1506908133 -0.1293027789 -0.2274918098
0.0691459743 -0.1296744918 -0.2026636729
0.1033791953 -0.1028833729 -0.2117684129
0.0985665967 -0.0758348451 -0.2199415016
0.0936948816 -0.0704133553 -0.2253787206
0.1288484533 -0.1170177911 -0.2080844521
0.1150608865 -0.0786550503 -0.2214709712
0.1159146040 -0.1152661580 -0.2073646846
0.0938641576 -0.1618729208 -0.2640736986
0.0962169082 -0.1211675776 -0.2022493780
0.0744081227 -0.1593064434 -0.2646688547
0.1785325572 -0.1062825744 -0.2266991956
0.0933714209 -0.1170977617 -0.2198607686
0.1739063244 -0.1151665569 -0.2249058309
0.0527392362 -0.1232367972 -0.2334447497
0.1808573911 -0.1103612515 -0.2299430693
0.0836980958 -0.1356057578 -0.1980348860
0.0808367310 -0.1358430514 -0.1967762592
0.0784768029 -0.1206912396 -0.2003190619
0.0591307550 -0.1487031319 -0.2506252058
0.1270704978 -0.1558581644 -0.2598310312
0.1799037208 -0.1171300570 -0.2403250851
0.1434537863 -0.1252235432 -0.2058462213
0.0324141454 -0.0974564586 -0.2351314410
0.1871644732 -0.0929259138 -0.2399869736
0.0327921285 -0.0879643071 -0.2252679574
0.1440728158 -0.1195265241 -0.2053617476
0.1355386079 -0.1298894592 -0.2250989683
0.1030237148 -0.1269844980 -0.2291787118
0.1152389738 -0.1637700193 -0.2670786173
0.0833936748 -0.1506528998 -0.2560121657
0.1344576875 -0.1189278514 -0.2182336014
0.1315008259 -0.0975293371 -0.2136322828
0.0755139163 -0.1137760201 -0.2052393438
0.1032087803 -0.1175832509 -0.2072054129
0.0349002666 -0.1030256629 -0.2366388949
0.0537806386 -0.1026537668 -0.2145613510
0.1025893612 -0.1378404244 -0.2406516790
0.1430081700 -0.1024590791 -0.2087938816
0.0681869379 -0.1248565340 -0.2020977750
0.0964541415 -0.1107322554 -0.2098310736
0.1060283920 -0.1027101635 -0.2119983623
0.1887210748 -0.0951925396 -0.2434826698
0.1207475498 -0.1253366531 -0.2024439516
0.1192247564 -0.0700597786 -0.2351341949
0.1351849677 -0.1395058649 -0.2434363893
0.1198825687 -0.1379690692 -0.2013932317
0.0556768310 -0.1199117415 -0.2143790900
0.1336029855 -0.1267570018 -0.2024246214
0.1666890812 -0.1224299745 -0.2206868725
0.0520299463 -0.1510925220 -0.2588261749
0.0781872744 -0.1027347778 -0.2108928522
0.1053937081 -0.0755851726 -0.2197823437
0.1035275069 -0.1265817685 -0.2272175387
0.0964856143 -0.1511872903 -0.2576984958
0.1198095645 -0.0721556446 -0.2239388059
0.0948371126 -0.1302478180 -0.2048697687
0.1393384456 -0.1197363339 -0.2141670649
0.1532726159 -0.1151993631 -0.2106038791
0.1311902063 -0.1327268551 -0.2018064560
0.0378985802 -0.1005120311 -0.2197447615
0.1624064383 -0.1319278848 -0.2542505358
0.0696463300 -0.1436857993 -0.2473083411
0.1226882747 -0.0753406302 -0.2232785062
0.0774786894 -0.1225042176 -0.2207577933
0.0428765397 -0.0778459244 -0.2236107992
0.1259397474 -0.1225754983 -0.2021490748
0.0538107304 -0.1233521344 -0.2180969952
0.0860301941 -0.0762750170 -0.2219840810
0.1446307029 -0.0800302704 -0.2261804997
0.1167471716 -0.1243215950 -0.2224576933
0.0785871460 -0.1187822591 -0.2025040958
0.0975133096 -0.0962039366 -0.2134620252
0.0889641670 -0.1155832982 -0.2146538472
0.0440558757 -0.1132161585 -0.2198898591
0.1199422651 -0.1689737425 -0.2742948361
0.0571730026 -0.0774757667 -0.2236553674
0.1391560924 -0.1605661816 -0.2620936026
0.0969984206 -0.1584209876 -0.2673263905
0.0834127055 -0.0877153077 -0.2170439811
0.0967627044 -0.1348087352 -0.2376143182
0.0963787881 -0.1248939642 -0.2257938039
0.1050244066 -0.1384516843 -0.2408032768
0.0857143959 -0.1169476784 -0.2154380276
0.0672030720 -0.0767291159 -0.2171824643
0.1030634320 -0.1155011576 -0.2066685133
0.0558112647 -0.0829949468 -0.2155362114
0.0879382463 -0.1128897865 -0.2138111776
0.0500980972 -0.0986380008 -0.2176102278
0.0849911445 -0.1433339234 -0.2478905916
0.1073303793 -0.1345521090 -0.2327547986
0.1435725452 -0.1642426236 -0.2677787454
0.0605024471 -0.0954292757 -0.2123943055
0.0935448408 -0.1256171151 -0.2278423769
0.1145131638 -0.1509641258 -0.2549238586
0.0864945518 -0.0726300968 -0.2279208985
0.0860534657 -0.1378787756 -0.2425375695
0.0955986847 -0.1556644513 -0.2603464884
0.0597904921 -0.0930415019 -0.2130821347
0.0552225704 -0.1077077863 -0.2100656645
0.0442109443 -0.0912897624 -0.2234400757
0.1876984727 -0.0970249896 -0.2353168732
0.0804387556 -0.1282654777 -0.1996127467
0.0556460106 -0.0839463058 -0.2205519296
0.0876035801 -0.0783582151 -0.2177316825
0.0542172701 -0.1204862199 -0.2169742034
0.0771373009 -0.1256247653 -0.2259861216
0.0694597343 -0.0932577906 -0.2132058908
0.1474508553 -0.0968080218 -0.2150454405
0.0908106071 -0.0784952680 -0.2186206980
0.0924265969 -0.1649149442 -0.2688884018
0.0593897781 -0.1581792978 -0.2599767190
0.1728464043 -0.1247186906 -0.2464544203
0.1441251216 -0.0782369379 -0.2322685164
0.1289145604 -0.1355415379 -0.1972989618
0.1309548017 -0.1198919702 -0.2057212289
0.1873982885 -0.1053186325 -0.2417166708
0.0635794774 -0.1126578119 -0.2053388429
0.0833938529 -0.0852642816 -0.2204673731
0.1258212472 -0.0745704363 -0.2211947161
0.1218561422 -0.1424369198 -0.2369648443
0.1377399980 -0.1401716895 -0.2412335999
0.0815392128 -0.1185837682 -0.2046952697
0.0786397843 -0.1333348643 -0.1979438177
0.0505272337 -0.1228913991 -0.2283006625
0.1134252172 -0.1149832762 -0.2074381849
0.0702339878 -0.1221214326 -0.2021972915
0.1294861314 -0.1423367255 -0.2444110135
0.1007924115 -0.0721968246 -0.2227887936
0.0727676605 -0.1025399105 -0.2081518834
0.1162565106 -0.1306535439 -0.2257487844
0.1120179298 -0.1299752064 -0.2282894315
0.0736080930 -0.1267882919 -0.2302882917
0.1511805925 -0.1252907348 -0.2080622826
0.0451882579 -0.0813756502 -0.2198036364
0.0569307879 -0.0948270559 -0.2121049166
0.1380449919 -0.1105001034 -0.2107384860
0.1051212307 -0.1145741025 -0.2128590516
0.0544168942 -0.0956523735 -0.2134193589
0.1355285924 -0.1073801229 -0.2092082419
0.0615662228 -0.1485457564 -0.2543440767
0.1050363004 -0.1177497504 -0.2054248425
0.1197365257 -0.0788218074 -0.2212002836
0.0837966264 -0.1443742434 -0.2439421764
0.1145390083 -0.1378852529 -0.2376421450
0.1160049577 -0.0921659779 -0.2193999446
0.0458479688 -0.1054618951 -0.2198559172
0.0924060200 -0.1367152869 -0.1987424096
0.0792451051 -0.1156960300 -0.2143827221
0.0851529209 -0.1336894097 -0.2305848738
0.1657381437 -0.1268854463 -0.2375440892
0.1645006269 -0.1093479643 -0.2158466095
0.0622219050 -0.1447706548 -0.2443869862
0.1315940198 -0.0821201426 -0.2211395242
0.1081959584 -0.1126858972 -0.2075770125
0.0609566390 -0.1495019479 -0.2570615397
0.1840479767 -0.1155756202 -0.2371161520
0.0371549461 -0.1071641742 -0.2236030292
0.0911571825 -0.1149160812 -0.2100637098
0.1443505568 -0.1091430230 -0.2100919323
0.1308121735 -0.0817725135 -0.2281365727
0.0703533108 -0.0852943221 -0.2184654184
0.1149553429 -0.0739866525 -0.2308148151
0.1403584961 -0.1476290724 -0.2477840797
0.1340027870 -0.1095563616 -0.2099562989
0.0983932737 -0.1407384785 -0.2380597911
0.1038957888 -0.1602030002 -0.2636400633
0.1182969784 -0.1200171513 -0.2051707340
0.1586039236 -0.1385684369 -0.2349257407
0.1702884045 -0.1293460602 -0.2352252031
0.0758273394 -0.1639745606 -0.2681277006
0.0738418131 -0.0755972227 -0.2256405728
0.1163685689 -0.1185788321 -0.2088318044
0.0701407930 -0.1198232338 -0.2192875763
0.1461506030 -0.1321947826 -0.2045496036
0.0781179875 -0.1001494254 -0.2106500748
0.1161431936 -0.1307801055 -0.2020230941
0.1372126788 -0.1590186796 -0.2616769019
0.1503929840 -0.1015719422 -0.2192095296
0.1207255341 -0.1230202173 -0.2176294087
0.1106831850 -0.0950495355 -0.2146787353
0.1390314260 -0.0940841810 -0.2228575853
0.1307738568 -0.0927071909 -0.2198458386
0.1007472998 -0.0951789435 -0.2154504166
0.1303586026 -0.0998937668 -0.2131762085
0.1313540766 -0.0912333998 -0.2236950880
0.1314521397 -0.0942030281 -0.2199934557
0.0861809170 -0.1282091895 -0.2301581944
0.1286405250 -0.1203009300 -0.2095161825
0.0865613828 -0.1453471861 -0.2528400470
0.1213294678 -0.1352241075 -0.2342253733
0.1281003367 -0.1183859481 -0.2092892383
0.0891397691 -0.1463642892 -0.2529322034
0.1409152149 -0.1153263162 -0.2104814817
0.1618628713 -0.1345580771 -0.2362526805
0.0807104907 -0.1154583911 -0.2026736678
0.1162057762 -0.1257978532 -0.2034362758
0.0563064172 -0.0998879401 -0.2143681726
0.0909229063 -0.1103469817 -0.2093832774
0.1111846644 -0.1511853904 -0.2557484567
0.1390606763 -0.1649484953 -0.2669215973
0.0777903431 -0.1481025001 -0.2547828387
0.0421557440 -0.0918504805 -0.2217743589
0.0786003584 -0.1125651478 -0.2054032908
0.1675466141 -0.1236490507 -0.2161849930
0.0570179868 -0.0723456537 -0.2208180094
0.0796678820 -0.1035339286 -0.2075521614
0.1436116206 -0.1153114690 -0.2080863456
0.0657008865 -0.0732200035 -0.2177010075
0.1361133979 -0.0978210155 -0.2128447773
0.0888328110 -0.1139457907 -0.2059714145
0.0816832767 -0.1338204720 -0.2336268846
0.1033810611 -0.1311910338 -0.2025865802
0.0743451658 -0.1526182256 -0.2567678558
0.0690463527 -0.1311844400 -0.1985398216
0.1661311925 -0.1277826061 -0.2187171967
0.0795298615 -0.1107184917 -0.2070781042
0.1005054899 -0.1052062437 -0.2096343488
0.0501864702 -0.1052340425 -0.2147221257
0.1625302025 -0.1136140250 -0.2122768533
0.1605116870 -0.1254782112 -0.2219288610
0.1331641467 -0.0907313461 -0.2203631745
0.1014947896 -0.1243201404 -0.2051839220
0.1202248585 -0.1402482380 -0.2399129642
0.1061649063 -0.1125933662 -0.2071087201
0.1648285871 -0.1221475148 -0.2132839052
0.0995214654 -0.0742847217 -0.2216010485
0.0334223519 -0.0959480347 -0.2271368581
0.0359065368 -0.1005845842 -0.2238496340
0.1013716024 -0.1279970431 -0.2017825067
0.1266841382 -0.1584867469 -0.2612455900
0.0886980352 -0.1104212894 -0.2077703207
0.1009391592 -0.1069928271 -0.2117469452
0.0860348807 -0.1104697142 -0.2077687589
0.0640108495 -0.1229345312 -0.2026163790
0.1416366988 -0.1296036239 -0.2006803204
0.1824789969 -0.1170913817 -0.2333489347
0.0886116539 -0.1062508034 -0.2083115248
0.0662862482 -0.1248062348 -0.2008525831
0.1157557927 -0.1163610595 -0.2092059763
0.1057630145 -0.0924688826 -0.2175524953
0.1136825812 -0.1163296239 -0.2143999781
0.1492415876 -0.1266800725 -0.2253358551
0.0636265015 -0.0752662556 -0.2198803820
0.1562810324 -0.1210993512 -0.2197531548
0.1198177944 -0.1165898659 -0.2144512358
0.1237791493 -0.1144420871 -0.2073561365
0.0535219059 -0.1432104636 -0.2501845701
0.0583949646 -0.1180234382 -0.2069032500
0.1059907562 -0.0720900232 -0.2153843361
0.1760025159 -0.1232100198 -0.2369571398
0.0734094689 -0.1236560079 -0.2007594475
0.0811647094 -0.0897986168 -0.2169997346
0.0388013293 -0.1013004352 -0.2237479915
0.0910191417 -0.1325214265 -0.2003261265
0.1193105647 -0.1257053797 -0.2216582131
0.0605283439 -0.1630441317 -0.2741246104
0.0827449681 -0.1261105389 -0.2269736908
0.1220734816 -0.1052714582 -0.2099059611
0.0633250996 -0.1065782532 -0.2096150070
0.1498913011 -0.1141797294 -0.2094789861
0.1086062435 -0.1478738802 -0.2499848401
0.1078910614 -0.1635914028 -0.2675328636
0.1488858624 -0.1227947505 -0.2170090923
0.1436054680 -0.1172935152 -0.2107037016
0.0694839556 -0.1401950296 -0.2401227584
0.0714533933 -0.1405815502 -0.2401972706
0.1452684276 -0.0782442067 -0.2288669909
0.0969748376 -0.1623866543 -0.2639542320
0.0923919454 -0.1021759883 -0.2140822709
0.1038119702 -0.1533665988 -0.2538015786
0.0712700507 -0.1054328876 -0.2080429842
0.0642781258 -0.1125505120 -0.2076489329
0.0767499093 -0.1441667508 -0.2458560443
0.0863742650 -0.1251267497 -0.2047282770
0.0655392462 -0.1126894561 -0.2071863163
0.1233964775 -0.1649943637 -0.2649158382
0.0683209956 -0.1127306122 -0.2099882704
0.0666616732 -0.1133653822 -0.2107867949
0.1469032373 -0.1333089619 -0.2287336244
0.1082742399 -0.1247033499 -0.2008939977
0.1466833376 -0.1275778303 -0.2020449297
0.1459482971 -0.1198744513 -0.2224678374
0.0761564115 -0.1333309780 -0.1974896308
0.1135511675 -0.1258647796 -0.1989376013
0.0700424951 -0.1292812487 -0.2324852051
0.0448218177 -0.0738034973 -0.2233093225
0.1116838819 -0.0838503391 -0.2244522438
0.0608569078 -0.0756036724 -0.2185867620
0.0891754217 -0.1272081288 -0.2253127514
0.1466745810 -0.0814804920 -0.2282410997
0.0729650630 -0.0856339271 -0.2153948011
0.0885042852 -0.1289161916 -0.2002235667
0.0829217572 -0.1201042785 -0.2008348751
0.0370033970 -0.1026764971 -0.2290783437
0.0433211527 -0.1053431744 -0.2205805363
0.0912989116 -0.1027837559 -0.2101189586
0.0940448732 -0.1342051863 -0.1995208712
0.0907169531 -0.1005612219 -0.2142225454
0.1290030777 -0.1236392449 -0.2260657234
0.1070473025 -0.1277554845 -0.2044365176
0.1235333019 -0.1145114310 -0.2092636549
0.1361637597 -0.0794946815 -0.2237183953
0.1332152285 -0.1645083111 -0.2662892810
0.1480218289 -0.1195514519 -0.2121691294
0.0862655534 -0.1228228504 -0.2024223982
0.1792541631 -0.1218215268 -0.2303433977
0.1058212959 -0.0878727402 -0.2197833070
0.1585545401 -0.1325369073 -0.2355952888
0.0448673470 -0.1139342454 -0.2172281319
0.0771602804 -0.0786105365 -0.2204770085
0.0775311254 -0.1264038589 -0.2300022149
0.1200878670 -0.1408018146 -0.1973334456
0.0410954872 -0.1110400216 -0.2345709316
0.0880951519 -0.1148537635 -0.2098712188
0.1614724425 -0.1330042490 -0.2503017908
0.0527545096 -0.0854159064 -0.2199217625
0.0958569177 -0.1328557906 -0.2013069759
0.0918410655 -0.1384112658 -0.2455470661
0.1127080396 -0.1286239028 -0.2010196149
0.1568885823 -0.1245313541 -0.2260977676
0.1355434358 -0.1192178279 -0.2091223150
0.1030393372 -0.0753970914 -0.2223990349
0.1207626198 -0.1502334734 -0.2522345128
0.0546600741 -0.1000348840 -0.2103108235
0.0974207612 -0.1138444095 -0.2139817098
0.1219869941 -0.0684626119 -0.2321701868
0.1751797417 -0.1124408097 -0.2221758358
0.1285713874 -0.0920088487 -0.2231821961
0.0644961998 -0.1270006864 -0.2262685358
0.1539564985 -0.1373632729 -0.2321103647
0.1334595123 -0.1153323188 -0.2082103697
0.0617968367 -0.1468799303 -0.2500402746
0.1498913850 -0.1501191476 -0.2509760792
0.1126983683 -0.1255935330 -0.2028584193
0.1381529956 -0.1121276617 -0.2101689392
0.1250137039 -0.1313435515 -0.2313579093
0.1473174513 -0.1457217569 -0.2447958020
0.1335242889 -0.1102554809 -0.2123091203
0.0638575395 -0.1009379950 -0.2078973233
0.1160425360 -0.0793214530 -0.2247087935
0.0886770216 -0.0779291852 -0.2198887346
0.0769898949 -0.0720902442 -0.2217364572
0.1483182904 -0.1247138930 -0.2192338354
0.0506411952 -0.0817427214 -0.2199947785
0.1312085611 -0.1252457396 -0.2192942078
0.1240002416 -0.1699208600 -0.2719355888
0.0341119516 -0.1025076592 -0.2398208588
0.1693030965 -0.1270299455 -0.2321954926
0.0982221722 -0.1047066125 -0.2102010632
0.1328461439 -0.1425116337 -0.2393248775
0.1139651877 -0.1445730486 -0.2444829751
0.1650266260 -0.1267975097 -0.2473668748
0.0884793545 -0.1275905529 -0.2021334208
0.0861673682 -0.0783058101 -0.2197224164
0.1608002092 -0.1210555543 -0.2104321003
0.1588566597 -0.1055032542 -0.2134730549
0.1924631786 -0.0974948075 -0.2407652247
0.1183654788 -0.1299719487 -0.2325199334
0.1363976772 -0.0773238811 -0.2301683419
0.1181373465 -0.1231267142 -0.2063126570
0.0329153345 -0.0996694203 -0.2272957748
0.0570037179 -0.1048419923 -0.2146548331
0.1333352186 -0.1258200778 -0.2199062461
0.1390500290 -0.1606105338 -0.2647744401
0.0611008643 -0.1102410636 -0.2070314102
0.1138965017 -0.0931413699 -0.2161933525
0.1313302760 -0.1653851981 -0.2711342988
0.1077321759 -0.1511514306 -0.2572523048
0.0399626643 -0.1110795794 -0.2374600607
0.1152351500 -0.1376632071 -0.2405438959
0.0452279160 -0.1168083286 -0.2270670185
0.1509891737 -0.1243790648 -0.2049467790
0.1107173765 -0.1285599300 -0.1999269684
0.1681769515 -0.1048580191 -0.2224746237
0.0926862535 -0.1530237797 -0.2574906900
0.0562881215 -0.0720904075 -0.2243624988
0.1307709041 -0.0826109144 -0.2228630287
0.0943518764 -0.1228428816 -0.2227281264
0.0436413682 -0.1132063601 -0.2343711934
0.0668391085 -0.1252278984 -0.1984231953
0.0597666785 -0.0755217471 -0.2198793766
0.0915141725 -0.1316786879 -0.2334332890
0.1689371224 -0.1258187298 -0.2177582529
0.1245874338 -0.1481208168 -0.2493917670
0.1332064661 -0.0793739799 -0.2254519353
0.0856642357 -0.1071843202 -0.2058510406
0.1284063354 -0.0730721075 -0.2295308336
0.1033616611 -0.0849426894 -0.2175634438
0.1100053642 -0.1331454165 -0.2376166785
0.0942480869 -0.1574584526 -0.2622247664
0.1279875226 -0.0725273008 -0.2337100682
0.1124714086 -0.1359409484 -0.2405544881
0.0910005659 -0.1353498839 -0.2388714322
0.1187420064 -0.1354371313 -0.2349636871
0.0789357776 -0.1303913550 -0.2045249471
0.0832283236 -0.1211155835 -0.2217562122
0.1776413390 -0.1196304322 -0.2375973251
0.0610500970 -0.1034235608 -0.2106500237
0.1039015811 -0.1202412748 -0.2103631425
0.0854155332 -0.1529192067 -0.2564234833
0.1554350193 -0.1198398845 -0.2168929442
0.1253882394 -0.1395686119 -0.2388749984
0.1380484849 -0.0938403159 -0.2199369371
0.0939119561 -0.1148596105 -0.2148499764
0.1072848264 -0.1576992300 -0.2598613603
0.0963555528 -0.1272392662 -0.2006668036
0.1661897591 -0.1114097220 -0.2211397366
0.1422375407 -0.1232064152 -0.2262642033
0.1434127128 -0.1376027826 -0.2379877560
0.0532921314 -0.1257599541 -0.2391048192
0.1444633386 -0.1259728458 -0.2264229080
0.0787067924 -0.1283445414 -0.2306334060
0.1454275722 -0.1198584083 -0.2122932256
0.0872247378 -0.1271151733 -0.2272105948
0.1034121991 -0.1339991897 -0.2363150834
0.1133677622 -0.1272455838 -0.2050204264
0.0968409339 -0.0900141286 -0.2168529550
0.1007914052 -0.1503229446 -0.2507860808
0.0985706274 -0.1229866621 -0.2031132643
0.0387515918 -0.1085241443 -0.2364521592
0.0531065226 -0.1103298471 -0.2153985632
0.1029268532 -0.1191177035 -0.2175873666
0.0939756763 -0.1507785971 -0.2581488446
0.1158830975 -0.0951282052 -0.2158876787
0.1109744875 -0.1681707648 -0.2704750624
0.0729455374 -0.0822970259 -0.2228976496
0.1399249181 -0.1527062683 -0.2537260676
0.0975923357 -0.0763216906 -0.2244337490
0.0604187984 -0.1077481605 -0.2099297636
0.1411575714 -0.1223444589 -0.2158571215
0.1132690120 -0.1078102086 -0.2101353829
0.1015696971 -0.0700100291 -0.2273942091
0.0972453068 -0.1473012308 -0.2506795249
0.0932757879 -0.1100709588 -0.2093569591
0.0489792866 -0.1002326794 -0.2147206102
0.0594103519 -0.1019506421 -0.2083059882
0.1303615769 -0.1442487761 -0.2399364977
0.0737602781 -0.1415093817 -0.2459064791
0.1332999914 -0.1551594691 -0.2598565073
0.1263216825 -0.1322096315 -0.2017857453
0.0641544494 -0.1581163261 -0.2608957263
0.1099544888 -0.1313595040 -0.2328236761
0.0906313028 -0.1205510991 -0.2189076877
0.0559221379 -0.1131207173 -0.2125167485
0.1805279319 -0.0998485961 -0.2265569230
0.0758572476 -0.1263229348 -0.2007526984
0.1086934384 -0.1406813721 -0.2422027811
0.0988776704 -0.1633607060 -0.2680544309
0.0893389524 -0.1358955778 -0.2001979726
0.1795702723 -0.0943918936 -0.2285224834
0.0742595644 -0.1397140596 -0.2383276270
0.1840595356 -0.1002328472 -0.2381695713
0.1329842268 -0.0748348212 -0.2258459245
0.1256083078 -0.0720943820 -0.2322950218
0.0636946405 -0.1485384302 -0.2488407002
0.1522364105 -0.1322014474 -0.2298795878
0.1493519935 -0.1316663456 -0.2295937945
0.0609469560 -0.1256872059 -0.2302216368
0.1166859979 -0.1220705416 -0.2219897298
0.1235783565 -0.1552622334 -0.2616460408
0.1742165709 -0.1251135696 -0.2319034431
0.0571925254 -0.1169038308 -0.2124150753
0.0589157226 -0.1583686088 -0.2625160862
0.0510295553 -0.0929326422 -0.2155967602
0.0424749529 -0.1087511153 -0.2246013118
0.0752159707 -0.1254918298 -0.2273672195
0.0413308734 -0.0829940719 -0.2196023286
0.0821040525 -0.1564592881 -0.2645491535
0.1042376255 -0.1423471558 -0.1959297574
0.1117097430 -0.1327516858 -0.2325966974
0.1189704832 -0.1200863073 -0.2151061352
0.0789569553 -0.1256360247 -0.2045670884
0.0423430579 -0.0984964705 -0.2207725136
0.0677860191 -0.0803680314 -0.2198916764
0.1411668954 -0.1172594066 -0.2069816105
0.1575847065 -0.1101449793 -0.2078617073
0.1238533112 -0.1356068066 -0.1995833922
0.0805770950 -0.1429097490 -0.2439487778
0.1136703385 -0.1206477458 -0.2202090312
0.1133906630 -0.0926521582 -0.2182492114
0.1170385664 -0.1270427258 -0.2064830592
0.1051414581 -0.1547363954 -0.2576410418
0.1137868930 -0.1659139304 -0.2695554320
0.1009503456 -0.0853057555 -0.2182115378
0.1398694175 -0.0847553416 -0.2263888086
0.0634241099 -0.1279918437 -0.1983346075
0.1709020920 -0.1176424849 -0.2202189152
0.1131383386 -0.1555037746 -0.2602813475
0.0808624753 -0.0783899752 -0.2199544491
0.0667732907 -0.1240258378 -0.2227728620
0.0372356309 -0.1072916978 -0.2272141517
0.1286261175 -0.1494609541 -0.2455581680
0.1159295143 -0.0813290219 -0.2285094702
0.0987375982 -0.1209227980 -0.2027950620
0.1236488752 -0.1449035579 -0.2485100051
0.0559367333 -0.1209230299 -0.2248372645
0.1240750381 -0.1617887489 -0.2614577598
0.0866690716 -0.0887366406 -0.2191940860
0.1455107774 -0.0968034447 -0.2179714739
0.0759695295 -0.1332060036 -0.2289846398
0.0685689093 -0.1127699026 -0.2066648554
0.1145310362 -0.1232393538 -0.2226058062
0.0835634754 -0.1485085931 -0.2525594765
0.0516832838 -0.1231841965 -0.2372969872
0.1229810357 -0.0904729940 -0.2181010621
0.0710998538 -0.1156924946 -0.2031561597
0.1456684884 -0.1220307725 -0.2248574858
0.0847571434 -0.0911945707 -0.2148042003
0.0919484631 -0.1287801760 -0.2267393877
0.0730642265 -0.0925108114 -0.2165955677
0.1237165528 -0.0715965342 -0.2332939095
0.0640344990 -0.1250912718 -0.2288897027
0.1108634700 -0.0971011311 -0.2126289211
0.0803814255 -0.1179116584 -0.2192062953
0.1555751398 -0.1117302670 -0.2105637279
0.1320062908 -0.0943549119 -0.2144774054
0.0483832284 -0.1185116131 -0.2195269549
0.1036676556 -0.0693117097 -0.2297104940
0.0538542836 -0.1003098491 -0.2124820653
0.1448190171 -0.1608897938 -0.2637864665
0.1526704991 -0.1096232083 -0.2076271368
0.1115630012 -0.1191983616 -0.2127763354
0.1514512615 -0.1272343378 -0.2030705305
0.0774963035 -0.1513715865 -0.2575224845
0.1187144396 -0.0832583611 -0.2277761891
0.0680735877 -0.0956444556 -0.2105839690
0.1183479441 -0.0828962085 -0.2220409914
0.1639381349 -0.1326117004 -0.2409041049
0.1064021970 -0.0755946499 -0.2230243520
0.1619590404 -0.1383267470 -0.2472994487
0.0685768814 -0.1081106734 -0.2082224156
0.0719365666 -0.0785891337 -0.2185193968
0.1393098495 -0.1167508357 -0.2075058958
0.1259646067 -0.1038227706 -0.2097128218
0.1574066888 -0.0964911534 -0.2190890157
0.1105785589 -0.0771353438 -0.2225444648
0.0839230728 -0.0714726667 -0.2218227990
0.0832900431 -0.1601862370 -0.2659995867
0.0844042218 -0.1255599136 -0.2042659192
0.1013160369 -0.1304771881 -0.2000848888
0.0774039781 -0.0833971705 -0.2151035169
0.0625311416 -0.0862056170 -0.2158811624
0.1080756456 -0.1478726787 -0.2480264613
0.0442731390 -0.0983960261 -0.2186628511
0.0934701430 -0.1016162558 -0.2082690979
0.1567611738 -0.0974685097 -0.2225144155
0.1243935546 -0.1142664404 -0.2118659547
0.1363352178 -0.1089836290 -0.2086535319
0.1040014550 -0.1237066010 -0.2247140641
0.1728994035 -0.1213121075 -0.2280207780
0.0865868448 -0.1445902510 -0.2435502447
0.0678872183 -0.1038452374 -0.2072440911
0.1881522162 -0.0916611491 -0.2364142657
0.1284587115 -0.1328056577 -0.2021983074
0.1157373111 -0.1472940561 -0.2472925399
0.1124580749 -0.1223617055 -0.2240046437
0.1304750189 -0.1002250623 -0.2148461991
0.1137221610 -0.1223873982 -0.2068309156
0.0552960430 -0.1385787443 -0.2477254238
0.0835282834 -0.1255226295 -0.2022535834
0.0981565157 -0.1591788565 -0.2653799011
0.1631259069 -0.1284653262 -0.2333377175
0.1111529663 -0.0725636328 -0.2268662559
0.1495733796 -0.1234581455 -0.2230509072
0.1699538796 -0.1174761875 -0.2177447143
0.0862367018 -0.1030228794 -0.2124328309
0.0517701175 -0.1077802064 -0.2156386773
0.1215206029 -0.0877735802 -0.2186832827
0.1118344189 -0.1411548649 -0.2438859473
0.1214256693 -0.1033045233 -0.2164947642
0.0426053042 -0.1035557700 -0.2243405522
0.0504177357 -0.1074596233 -0.2167776019
0.0846182151 -0.1405518647 -0.2399415730
0.1324595809 -0.1095266566 -0.2139956206
0.1435796264 -0.1401985640 -0.2350004051
0.0600771910 -0.1203350171 -0.2160000624
0.1061703724 -0.0786011939 -0.2202352085
0.1465458857 -0.1368073446 -0.2336932254
0.0702731865 -0.1447818588 -0.2505449686
0.0950151756 -0.0954260901 -0.2135313302
0.0792519502 -0.1122325910 -0.2092666893
0.0752107219 -0.1513276582 -0.2550869788
0.0506017228 -0.1206731252 -0.2330375524
0.1495120368 -0.1580040533 -0.2558898179
0.1080215996 -0.0950844472 -0.2151518004
0.0951772197 -0.1344981564 -0.2423971500
0.1626877638 -0.1298246690 -0.2424704908
0.0983002797 -0.0810962349 -0.2197898435
0.0834644471 -0.0929834951 -0.2164680749
0.1604983417 -0.1049610857 -0.2173699799
0.1340984353 -0.1344645456 -0.2346732644
0.0743216297 -0.1211174568 -0.2203589338
0.0585998807 -0.1390082325 -0.2439713395
0.1276368575 -0.1269425201 -0.2242739421
0.1079549874 -0.1108973999 -0.2116683840
0.1128948708 -0.0957123118 -0.2154981230
0.0382784028 -0.0873033128 -0.2219095051
0.1412660528 -0.1213351179 -0.2236271530
0.0552066274 -0.1018475665 -0.2110729232
0.0987382366 -0.1366325551 -0.2359329123
0.1798936459 -0.1153520510 -0.2374592064
0.1261062620 -0.1636547801 -0.2647829321
0.0717605580 -0.0963729473 -0.2065228452
0.1801457485 -0.1041346905 -0.2335465300
0.1497929936 -0.0843985727 -0.2302692170
0.0553627337 -0.1436359956 -0.2503294911
0.0486617566 -0.1055921922 -0.2173019088
0.1519493650 -0.1121110937 -0.2104604216
0.1292902023 -0.1193604579 -0.2139266859
0.1198524872 -0.0856944986 -0.2210111885
0.0603924200 -0.0855895202 -0.2169432279
0.1576197912 -0.1249675007 -0.2089493408
0.1331851557 -0.1198302731 -0.2104049027
0.0462540113 -0.0762696358 -0.2219700138
0.0711566773 -0.0958356430 -0.2120015809
0.0886741680 -0.1312627461 -0.2008497810
0.0504441569 -0.0874369453 -0.2138080735
0.1205724105 -0.0922530442 -0.2200829759
0.1183614710 -0.0931573364 -0.2174102034
0.1009477100 -0.0707223884 -0.2233962477
0.0854462528 -0.1502519864 -0.2585781074
0.0982374997 -0.1645627605 -0.2649493806
0.0733837499 -0.1151353335 -0.2051687095
0.1075107585 -0.1329574453 -0.2301829246
0.0887496469 -0.0905663105 -0.2170226466
0.1181783877 -0.0863782127 -0.2259129662
0.0355617552 -0.1090181863 -0.2243534223
0.0691587088 -0.1089877855 -0.2054394772
0.1453421822 -0.1059305976 -0.2108733109
0.1608246019 -0.1382518844 -0.2446056179
0.1192064743 -0.0794284299 -0.2300820036
0.0730935372 -0.0954459645 -0.2121185362
0.1125936785 -0.0738497866 -0.2315045996
0.0695228461 -0.1214389069 -0.2216409115
0.0543460011 -0.1301926098 -0.2381665521
0.0419020413 -0.1038932890 -0.2178388501
0.0681008346 -0.0773846615 -0.2219814556
0.0486632520 -0.0786637350 -0.2201862743
0.1434807246 -0.1197215612 -0.2100906829
0.1176272858 -0.1560404380 -0.2596917506
0.0664008502 -0.1226679234 -0.2021955874
0.1220836230 -0.0879041988 -0.2253634441
0.0764942804 -0.1138205591 -0.2137257396
0.1055564026 -0.1325393723 -0.2022229738
0.1202068041 -0.1484815280 -0.2452123213
0.1358714508 -0.1153438739 -0.2104176438
0.1161365460 -0.1342537990 -0.2039082004
0.0485827732 -0.1564847016 -0.2679803499
0.0640767245 -0.1180861602 -0.2050126968
0.1017163575 -0.1230215834 -0.2231537441
0.1017757771 -0.1195952657 -0.2224237591
0.0754102076 -0.1236642769 -0.2248805454
0.0880137510 -0.1360099386 -0.2387159751
0.1020071657 -0.1499269732 -0.2523737799
0.0617722019 -0.0874665290 -0.2170270156
0.0733096703 -0.1182276183 -0.2045208996
0.0508041756 -0.1132294339 -0.2198920114
0.0882448809 -0.1028988724 -0.2102108306
0.1086183158 -0.1354007042 -0.1975864050
0.0418545856 -0.0813880947 -0.2241685219
0.0803656810 -0.1261947353 -0.2265231361
0.0857145331 -0.1286584276 -0.1985444906
0.0589435340 -0.1204366540 -0.2082941211
0.0317156395 -0.0957864711 -0.2304960010
0.0993981770 -0.1150240065 -0.2153010039
0.0905609000 -0.1337654174 -0.1982075181
0.1374927484 -0.1203684100 -0.2136470239
0.1694398601 -0.1226257126 -0.2195945910
0.1157867362 -0.1416830077 -0.1960851192
0.1134646635 -0.1146243164 -0.2125665524
0.1435763294 -0.1477601443 -0.2480135990
0.1408682271 -0.1379058299 -0.2401969978
0.1182196272 -0.1153159131 -0.2067266287
0.0728356807 -0.0702190320 -0.2241863739
0.1136144598 -0.0710111781 -0.2335226499
0.0977034405 -0.0794195882 -0.2266396218
0.1136255421 -0.1253286155 -0.2046636872
0.0806952658 -0.1102935262 -0.2082445651
0.1360550516 -0.1242468475 -0.2064699947
0.1713657042 -0.1115599777 -0.2253255332
0.1070663208 -0.0713596555 -0.2165167599
0.1031479666 -0.1001918063 -0.2133232118
0.1157427585 -0.1214516115 -0.2150964941
0.1201697414 -0.1681904019 -0.2675732122
0.0836850681 -0.1151927446 -0.2033025366
0.0402477358 -0.1109231773 -0.2266167224
0.1844656844 -0.1077280607 -0.2362868040
0.0920464377 -0.1145218668 -0.2124017299
0.0551112724 -0.1130471205 -0.2091139676
0.1916472780 -0.0968208713 -0.2381139412
0.0361490112 -0.0937000054 -0.2219361029
0.0732791916 -0.1280153249 -0.1985523473
0.1814836849 -0.1063473156 -0.2359902916
0.1740863737 -0.1129835936 -0.2270467020
0.0700051413 -0.1487357820 -0.2554210629
0.0666741213 -0.1129864621 -0.2029379674
0.0997754731 -0.1167365418 -0.2180497024
0.1802854575 -0.1193289037 -0.2296190385
0.0316496354 -0.0973296698 -0.2272346502
0.0881680817 -0.0953118719 -0.2140228047
0.0584273832 -0.0836898309 -0.2184718671
0.1125438416 -0.1360649559 -0.2358364948
0.0629972731 -0.1207673836 -0.2029512571
0.0937609791 -0.1430432714 -0.2438619521
0.1096831222 -0.1342347134 -0.2322824078
0.1320981615 -0.1516691948 -0.2536834783
0.0489945253 -0.0858364219 -0.2192248479
0.0669953611 -0.1332020455 -0.1983964072
0.1800302437 -0.1091172688 -0.2336839766
0.1356877245 -0.1558697675 -0.2595275049
0.1036638050 -0.1394229353 -0.1979417677
0.0887037486 -0.1240369296 -0.2253471834
0.1820319986 -0.1021607794 -0.2294943501
0.1617458982 -0.1355660800 -0.2395416956
0.0689134142 -0.1537820610 -0.2549384658
0.0881747093 -0.1335267826 -0.2009627421
0.1043821797 -0.0729220957 -0.2206440568
0.0563814571 -0.1151028331 -0.2137663703
0.1094053203 -0.1493734200 -0.2550315347
0.1135619842 -0.0851907879 -0.2198583782
0.1302514935 -0.0719115512 -0.2281243268
0.1467356467 -0.1341223507 -0.2366095046
0.1019392779 -0.0779532832 -0.2234236699
0.0408841385 -0.0912508431 -0.2195597608
0.0563752892 -0.1231412982 -0.2284313262
0.0863741812 -0.1591807867 -0.2641341034
0.0884045948 -0.1255336595 -0.1986743868
0.1675324224 -0.1268973232 -0.2458547574
0.1779557009 -0.1052162718 -0.2306053482
0.0782690316 -0.1178382876 -0.2163671151
0.0963751618 -0.0995704649 -0.2166921945
0.0859692146 -0.1380280822 -0.1957408513
0.1237477906 -0.0923829308 -0.2185469163
0.1312240977 -0.1536399944 -0.2567134165
0.1618996149 -0.1296337818 -0.2507415958
0.0474441315 -0.1129923730 -0.2169668296
0.1412074209 -0.1325584296 -0.2010026717
0.1079314743 -0.1292115154 -0.2277492964
0.1344659211 -0.1272608805 -0.2272273813
0.0671160776 -0.1454119686 -0.2420845987
0.1339590271 -0.1212942086 -0.2177041610
0.0909937569 -0.0855432631 -0.2166878316
0.0735414693 -0.1256106711 -0.1991025783
0.1457679324 -0.1276946436 -0.2070198570
0.1069366857 -0.1014622524 -0.2111331969
0.0488002898 -0.1326318049 -0.2127445536
0.1194264472 -0.1467035443 -0.2426212590
0.1284240678 -0.0826347294 -0.2225918090
0.1273530614 -0.1285371194 -0.2319566214
0.0756693561 -0.1645636871 -0.2706523542
0.1311024320 -0.1369503834 -0.2366367485
0.1341485557 -0.1155700600 -0.2131233059
0.0490051378 -0.0906880327 -0.2180938402
0.0503414341 -0.0900679458 -0.2162302981
0.0349038224 -0.0961192704 -0.2230248066
0.1007872652 -0.1180642067 -0.2070767956
0.1014410243 -0.0999031418 -0.2144568352
0.1104385799 -0.0730568702 -0.2203086372
0.0465256311 -0.1142721017 -0.2272847390
0.1000962374 -0.1542868813 -0.2612121145
0.1439011531 -0.1578586120 -0.2579609956
0.0768769307 -0.1299173177 -0.2274036276
0.0979390425 -0.1044203134 -0.2124403412
0.1256249696 -0.1144023687 -0.2095310688
0.0641081614 -0.0770542499 -0.2236599211
0.0825252854 -0.0926402852 -0.2147953075
0.1602845221 -0.0978399221 -0.2221495507
0.1141631427 -0.0911184226 -0.2159117498
0.0623110365 -0.0851808291 -0.2174342738
0.1008019600 -0.1153248687 -0.2075689788
0.0964642728 -0.1117784376 -0.2114900447
0.0802496393 -0.1311692687 -0.2353937484
0.1283853494 -0.1603902116 -0.2626640487
0.0938956054 -0.0710068441 -0.2174777470
0.0998107212 -0.0782182097 -0.2189423553
0.1286814763 -0.1370180209 -0.2371159486
0.1190168388 -0.1275587572 -0.2254262821
0.0561618668 -0.1616135250 -0.2628412436
0.1337091929 -0.1325274628 -0.2023200924
0.1315085222 -0.1146558585 -0.2083625078
0.0857614595 -0.1458490459 -0.2470252892
0.0776311535 -0.1173245544 -0.2124712643
0.1644587026 -0.1135321577 -0.2152988386
0.1161589985 -0.0729531915 -0.2248359526
0.1114308180 -0.1583321859 -0.2577906087
0.1226981041 -0.1682073717 -0.2698494714
0.1150350754 -0.1388368025 -0.2418560593
0.0863080400 -0.0734291234 -0.2163455120
0.1060409318 -0.0976782499 -0.2142985783
0.0975003136 -0.0825290023 -0.2198839433
0.1703436829 -0.1254851303 -0.2424995962
0.1419366789 -0.1285074561 -0.2256844147
0.1375546986 -0.1076654456 -0.2109905193
0.0866434646 -0.1210433526 -0.2222447285
0.0617381733 -0.1200939768 -0.2215780476
0.1037831520 -0.1274078282 -0.2006080113
0.0906755148 -0.1027388784 -0.2122315764
0.0616936303 -0.1214353521 -0.2188596669
0.1036231623 -0.1604649781 -0.2657966472
0.0718166796 -0.0914357264 -0.2128365004
0.1110221433 -0.1192614247 -0.2199724479
0.1394900811 -0.1449049462 -0.2409167045
0.1072279244 -0.1427783053 -0.2431794619
0.0668505879 -0.1478029435 -0.2492364826
0.1028351097 -0.0761068490 -0.2195370779
0.1009418146 -0.0804896266 -0.2199196302
0.1213554985 -0.0905691422 -0.2216409952
0.1549707513 -0.1449318493 -0.2458708136
0.0732493491 -0.1000000292 -0.2101110623
0.0984932325 -0.0837340610 -0.2142773663
0.0695335175 -0.1156062748 -0.2034869058
0.1137040464 -0.1256972246 -0.2268606475
0.1617738457 -0.1404925775 -0.2496038018
0.1211152977 -0.1102013766 -0.2101499396
0.1211393775 -0.1076438514 -0.2103871381
0.1383738756 -0.1345649506 -0.2013409117
0.0534447028 -0.1252739164 -0.2346615436
0.0801274198 -0.0854072244 -0.2166062129
0.1232485751 -0.1119378778 -0.2100538139
0.0839600890 -0.1206017006 -0.2053610582
0.1433615886 -0.1125110536 -0.2130677506
0.1252130584 -0.1310627999 -0.2347713695
0.1003718100 -0.1454246351 -0.2473230176
0.0593650418 -0.1224116253 -0.2280186787
0.0662705297 -0.0937885588 -0.2106473561
0.0530023423 -0.0996334583 -0.2144962225
0.1334533351 -0.1321352138 -0.2010415960
0.1234611147 -0.1074018084 -0.2083945797
0.0750963218 -0.0930041191 -0.2165420950
0.0880188117 -0.0828981851 -0.2179920925
0.0890273718 -0.0947370678 -0.2167315421
0.1628111782 -0.1055738628 -0.2151059356
0.1465879179 -0.1235737606 -0.2190245156
0.0795488304 -0.1318555544 -0.2303487080
0.1180320457 -0.0839510486 -0.2209507674
0.0775475697 -0.0757589904 -0.2228184244
0.0767972092 -0.1413118631 -0.2437314307
0.0580604809 -0.1189146584 -0.2032901488
0.0808879849 -0.1139379353 -0.2134680839
0.1234198939 -0.1484603058 -0.2477805547
0.0705924423 -0.0796857887 -0.2181469185
0.1161507535 -0.1535088883 -0.2580296452
0.1666386560 -0.1293317113 -0.2452936122
0.1868475021 -0.0986833306 -0.2408688622
0.1410743045 -0.1305201167 -0.2035078674
0.0863597358 -0.1173595206 -0.2063978206
0.0431869568 -0.0960593363 -0.2208188277
0.1589037170 -0.1203338260 -0.2169173676
0.0767867214 -0.0752890605 -0.2176673504
0.0879255753 -0.1259352169 -0.2011557338
0.0775000485 -0.1387496444 -0.2436435086
0.0659937454 -0.1417741967 -0.2471419967
0.0410586815 -0.1029008885 -0.2206878488
0.0607213817 -0.1648071610 -0.2675032919
0.0350060676 -0.0915051582 -0.2252087800
0.0675906744 -0.0975423812 -0.2104549582
0.0834296764 -0.1105570192 -0.2078788668
0.0707933716 -0.1295835059 -0.1963787513
0.1083620257 -0.1253217457 -0.2042969924
0.0785958767 -0.1029235640 -0.2116040988
