-0.1618944609 -0.0166514388 -0.4065224815
-0.1016346142 -0.0561374370 -0.4100953490
-0.1597116577 -0.0161103154 -0.4062879521
-0.1595789698 -0.0439658273 -0.3986636179
-0.0552982223 -0.0364426752 -0.4507570210
-0.1511666328 -0.0507286526 -0.3966795802
-0.1521665354 -0.0163761332 -0.4081535031
-0.0570279807 -0.0165168655 -0.4333931347
-0.1500078412 -0.0159294274 -0.4104484803
-0.1400303803 -0.0163613500 -0.4104920436
-0.0696485593 -0.0165723995 -0.4261850030
-0.1096812002 -0.0087808913 -0.4208593741
-0.1050288464 -0.0219048651 -0.4186254050
-0.1316936202 -0.0162498065 -0.4114315965
-0.1146664754 -0.0338648838 -0.4107280978
-0.0527140915 -0.0253606118 -0.4443418526
-0.1297007822 -0.0162237495 -0.4132924639
-0.1288664534 -0.0160706632 -0.4113071366
-0.1115579429 -0.0314954475 -0.4135305354
-0.0496998637 -0.0360847456 -0.4608712342
-0.1271703650 -0.0160581894 -0.4136652414
-0.0593435435 -0.0436084805 -0.4507125919
-0.1241602912 -0.0160190540 -0.4133528877
-0.1206153721 -0.0150757900 -0.4129901580
-0.1507302970 -0.0160948960 -0.4067433774
-0.1298565908 -0.0768974380 -0.3928355403
-0.0472642569 -0.0563358759 -0.4553277834
-0.0889798145 -0.0237518147 -0.4209101807
-0.1188728995 -0.0156192632 -0.4149795933
-0.0639965683 -0.0367790088 -0.4271400869
-0.1167348594 -0.0161711987 -0.4158517891
-0.1122786490 -0.0162451744 -0.4203134134
-0.0540980196 -0.0716906033 -0.4211105877
-0.0668675991 -0.0190439731 -0.4254875902
-0.1091162664 -0.0165644563 -0.4197807698
-0.1070868146 -0.0289403475 -0.4157614644
-0.1098299646 -0.0164444721 -0.4180474713
-0.1039385547 -0.0162098134 -0.4206946095
-0.1542342926 -0.0233867831 -0.4056825857
-0.1002223783 -0.0164053129 -0.4208213217
-0.0598901277 -0.0286762171 -0.4379600164
-0.0539631433 -0.0491447718 -0.4548537855
-0.0992289958 -0.0162719319 -0.4223439165
-0.1078044400 -0.0795113593 -0.4020400345
-0.0694251422 -0.0766198070 -0.4091320997
-0.1346963903 -0.0513286488 -0.4005547889
-0.0745103144 -0.0643727882 -0.4106317528
-0.1521470694 -0.0582432990 -0.3980546509
-0.1594156394 -0.0239707014 -0.4035252889
-0.0571760355 -0.0269210639 -0.4385790801
-0.0718114391 -0.0566457999 -0.4177335294
-0.1230700220 -0.0163594142 -0.4119460369
-0.0974770935 -0.0168062503 -0.4228217616
-0.0572193662 -0.0537775074 -0.4282803229
-0.0953478230 -0.0188092996 -0.4214799097
-0.0923907745 -0.0163855676 -0.4235379060
-0.0845349269 -0.0161101723 -0.4251491965
-0.0794620152 -0.0160732162 -0.4284785683
-0.0771563528 -0.0156568135 -0.4296153440
-0.0789478943 -0.0335361529 -0.4204440862
-0.0741665610 -0.0158912347 -0.4282001902
-0.0589692332 -0.0289532673 -0.4402932525
-0.0483809382 -0.0188106453 -0.4565001694
-0.1287648156 -0.0332792196 -0.4073770493
-0.1030691568 -0.0463550263 -0.4093552471
-0.1140258461 -0.0051860115 -0.4189722240
-0.0458821396 -0.0203146982 -0.4645006325
-0.0416687290 -0.0209699105 -0.4655065381
-0.0820733659 -0.0412535117 -0.4182968709
-0.1224863613 -0.0463730063 -0.4060255976
-0.0426732674 -0.0192872537 -0.4637632817
-0.0415910695 -0.0205457093 -0.4677038200
-0.0392111389 -0.0204198931 -0.4677596042
-0.0668370132 -0.0263403447 -0.4265278836
-0.1122666825 -0.0214255594 -0.4155269670
-0.0516428909 -0.0610067813 -0.4233836662
-0.1638356816 -0.0167213074 -0.4067906210
-0.1493849888 -0.0166608599 -0.4087938144
-0.1347656934 -0.0164414110 -0.4116022069
-0.1275996908 -0.0170639143 -0.4109154704
-0.1529591680 -0.0442325957 -0.3983531594
-0.1249683955 -0.0163341936 -0.4113782465
-0.0606554039 -0.0091284374 -0.4315502942
-0.1176752257 -0.0166989781 -0.4139722494
-0.0816786315 -0.0485910564 -0.4152349452
-0.0632216962 -0.0367886885 -0.4308987918
-0.1318356395 -0.0240450591 -0.4104334235
-0.1030755413 -0.0167721502 -0.4192549972
-0.1574713979 -0.0485035370 -0.3961460953
-0.0974420386 -0.0164089099 -0.4216478288
-0.0565852134 -0.0514425993 -0.4528754341
-0.0614348784 -0.0510938129 -0.4211253395
-0.1274213096 -0.0239617973 -0.4101093986
-0.1260015326 -0.0334662180 -0.4073127882
-0.0767283121 -0.0162932142 -0.4282224562
-0.1395769034 -0.0668413192 -0.3935369242
-0.0722656820 -0.0169173453 -0.4263014745
-0.0701648729 -0.0164017378 -0.4271158377
-0.0795760443 -0.0607793689 -0.4131329092
-0.0621948516 -0.0167574960 -0.4306821631
-0.0595087643 -0.0162556883 -0.4307091782
-0.0924056197 -0.0012255924 -0.4298118055
-0.0548310294 -0.0161345746 -0.4364472284
-0.0540496015 -0.0169147126 -0.4383011481
-0.1469149172 -0.0687133617 -0.3927199500
-0.0474588162 -0.0214913609 -0.4582092344
-0.1120323848 -0.0292736012 -0.4138306386
-0.0492155717 -0.0458638694 -0.4544279326
-0.1198014615 -0.0563252320 -0.4029339999
-0.0446301737 -0.0214778117 -0.4630658369
-0.0426630795 -0.0215269481 -0.4640620718
-0.1416427271 -0.0243550723 -0.4063743149
-0.1513489099 -0.0387299067 -0.4012630728
-0.0368697292 -0.0217029921 -0.4677797250
-0.0355366602 -0.0211688383 -0.4667010009
-0.1349581444 -0.0586440067 -0.3965575122
-0.0541856013 -0.0558401274 -0.4309820982
-0.0826157109 -0.0499301556 -0.4133380075
-0.1670047992 -0.0193271315 -0.4056174974
-0.1694306845 -0.0191770979 -0.4063750604
-0.1693149880 -0.0188427586 -0.4071947921
-0.0894929347 -0.0740841543 -0.4071250749
-0.0896699550 -0.0686541849 -0.4069123858
-0.1748106218 -0.0287953886 -0.4109842199
-0.1670748363 -0.0185813483 -0.4071352598
-0.0721636222 -0.0513363850 -0.4162049301
-0.0479905676 -0.0590247415 -0.4531812868
-0.1376288477 -0.0514217980 -0.4004912579
-0.1481406689 -0.0643170848 -0.3946859539
-0.0721335262 -0.0056976110 -0.4300082177
-0.1598320265 -0.0188462361 -0.4057029096
-0.1356328875 -0.0427483842 -0.4019886553
-0.1129188699 -0.0727338443 -0.3996331620
-0.1071691026 -0.0217636180 -0.4176831783
-0.1569607168 -0.0187606605 -0.4058043400
-0.1171882303 -0.0284257855 -0.4129726273
-0.1369872193 -0.0216743511 -0.4102545480
-0.1545287506 -0.0190858357 -0.4078322270
-0.0490315250 -0.0373964849 -0.4631476558
-0.0798827638 -0.0535003753 -0.4141115624
-0.1094099691 -0.0490495442 -0.4084354139
-0.1467096283 -0.0191422523 -0.4087878485
-0.1427762458 -0.0386028133 -0.4031827368
-0.0443836586 -0.0311092914 -0.4650462421
-0.0850594267 -0.0262203300 -0.4226301312
-0.1447603441 -0.0183191318 -0.4096200415
-0.0698178560 -0.0589764100 -0.4135142267
-0.1424616224 -0.0187663253 -0.4088827338
-0.1523738351 -0.0464847666 -0.3983801646
-0.1269318648 -0.0109778275 -0.4135027975
-0.0768463572 -0.0200438457 -0.4244228960
-0.1372740981 -0.0189786562 -0.4108079632
-0.1348917564 -0.0192708610 -0.4115144534
-0.1344556652 -0.0180106144 -0.4126988147
-0.1496387017 -0.0294290337 -0.4034788855
-0.1292859359 -0.0189812322 -0.4113920581
-0.1199847832 -0.0039647238 -0.4181576222
-0.1223123884 -0.0183264957 -0.4116668314
-0.1571288560 -0.0361137832 -0.4010225399
-0.1198230165 -0.0187083188 -0.4129608205
-0.1174551224 -0.0187184877 -0.4136250329
-0.0813958562 -0.0383018706 -0.4206401480
-0.1073321179 -0.0090080385 -0.4215493004
-0.1129246494 -0.0190982330 -0.4160719349
-0.1000255570 -0.0538941945 -0.4087702393
-0.1501874224 -0.0238746265 -0.4082656423
-0.0941101581 -0.0439457530 -0.4152692047
-0.1075061173 -0.0533010038 -0.4082482465
-0.1118575373 -0.0188527130 -0.4175029901
-0.1424118448 -0.0341787560 -0.4034780911
-0.1075206553 -0.0188684182 -0.4179331991
-0.1056387549 -0.0189057111 -0.4186446623
-0.0618679263 -0.0448021069 -0.4500939846
-0.1077232013 -0.0065502004 -0.4230477810
-0.1514650384 -0.0421306635 -0.4020659400
-0.1029849811 -0.0180874534 -0.4189465319
-0.1000447720 -0.0189452216 -0.4201594810
-0.1269678808 -0.0490676648 -0.4035181371
-0.0480812989 -0.0211030074 -0.4562121713
-0.0698121046 -0.0758752069 -0.4100491793
-0.0920927831 -0.0188871545 -0.4228500218
-0.0895944874 -0.0189679424 -0.4235532181
-0.0869035406 -0.0187713028 -0.4231796890
-0.1057787537 -0.0296428011 -0.4140740830
-0.0574308800 -0.0396442192 -0.4510011653
-0.1049554681 -0.0355965832 -0.4132628531
-0.0528834136 -0.0354042712 -0.4541058953
-0.1119620278 -0.0248094136 -0.4141428769
-0.0851674764 -0.0784633500 -0.4067713863
-0.1026010822 -0.0335309778 -0.4155486128
-0.0925516533 -0.0636058544 -0.4100777467
-0.1602066657 -0.0565570015 -0.3964225496
-0.0865804107 -0.0183143259 -0.4253720510
-0.0841870244 -0.0184253805 -0.4247116424
-0.0748006253 -0.0617611408 -0.4134871294
-0.1623032293 -0.0288133291 -0.4029486849
-0.0870824205 -0.0286571797 -0.4188465870
-0.0816473592 -0.0188593501 -0.4254791500
-0.1248808086 -0.0537747246 -0.4010669299
-0.1519230907 -0.0412866688 -0.4013018840
-0.1521644739 -0.0217564670 -0.4061743154
-0.0470810275 -0.0436942761 -0.4581264509
-0.0794665428 -0.0182239346 -0.4276093153
-0.0915666280 -0.0695983693 -0.4064570557
-0.1346953296 -0.0557363411 -0.3980594686
-0.0760113381 -0.0178156285 -0.4271827792
-0.1462824827 -0.0339830128 -0.4045362487
-0.0746870177 -0.0177427390 -0.4273877795
-0.0625344575 -0.0570383407 -0.4167278488
-0.0648924592 -0.0174724049 -0.4302223206
-0.0566022538 -0.0215368494 -0.4354332320
-0.1147621647 -0.0778591707 -0.3964107335
-0.0565131498 -0.0185420962 -0.4354144034
-0.0916188142 -0.0536574598 -0.4113445794
-0.0550964909 -0.0185890098 -0.4357613087
-0.0539133523 -0.0190609073 -0.4383133813
-0.0573975607 -0.0420936159 -0.4536624661
-0.0553772259 -0.0386676368 -0.4532452931
-0.1465517133 -0.0723504573 -0.3894034624
-0.0467275857 -0.0233640010 -0.4609618998
-0.1114348471 -0.0632398576 -0.4048824012
-0.0445961684 -0.0239246539 -0.4631869686
-0.1422056070 -0.0431936094 -0.4023732375
-0.0726326372 -0.0759906912 -0.4099030527
-0.0421453487 -0.0234409956 -0.4631589291
-0.0392668195 -0.0232933700 -0.4650903474
-0.1364548057 -0.0366103649 -0.4048818648
-0.1244494896 -0.0263518478 -0.4101652080
-0.0369257978 -0.0232344960 -0.4682483156
-0.1041508261 -0.0466979658 -0.4113338739
-0.0843280380 -0.0188060073 -0.4238474358
-0.0792096897 -0.0187213639 -0.4255993270
-0.0926376569 -0.0316376212 -0.4188506336
-0.1196904048 -0.0267910281 -0.4125644093
-0.1416881499 -0.0288439282 -0.4052241322
-0.0722719686 -0.0193038047 -0.4255357085
-0.0472013764 -0.0655141994 -0.4344718754
-0.0706052162 -0.0188327653 -0.4276619647
-0.0654302016 -0.0458341520 -0.4209197164
-0.0648380554 -0.0189190028 -0.4303923425
-0.1595852717 -0.0665471369 -0.3933219139
-0.0621693095 -0.0190127691 -0.4314270537
-0.0595198186 -0.0194330589 -0.4318339293
-0.1319853517 -0.0486026077 -0.4010825175
-0.1324830465 -0.0286814762 -0.4082185217
-0.0469243470 -0.0245681612 -0.4624268918
-0.0652645126 -0.0411495843 -0.4203718263
-0.0381750293 -0.0239272055 -0.4639443081
-0.1447883763 -0.0433940840 -0.4022548611
-0.0969739288 -0.0236332334 -0.4208654757
-0.1702002990 -0.0217267524 -0.4071475960
-0.1666981945 -0.0213074574 -0.4060050472
-0.1619807407 -0.0211923315 -0.4039264687
-0.0470078492 -0.0461841361 -0.4581737650
-0.1570352016 -0.0208705606 -0.4057648308
-0.0654523339 -0.0435167880 -0.4190498151
-0.0574110793 -0.0524246193 -0.4380496565
-0.1167511267 -0.0513075911 -0.4056922928
-0.1543354595 -0.0216260529 -0.4059330666
-0.1518811350 -0.0214952589 -0.4078876369
-0.1496638777 -0.0215204203 -0.4083786087
-0.1067381650 -0.0552254058 -0.4081428945
-0.1473683293 -0.0214855623 -0.4075951372
-0.1520980569 -0.0589517662 -0.3956566635
-0.0774441889 -0.0410853166 -0.4209053817
-0.1450838334 -0.0219116130 -0.4082995454
-0.1172601219 -0.0306180640 -0.4127772123
-0.1423091040 -0.0215343750 -0.4080989435
-0.1128136367 -0.0307091717 -0.4149073064
-0.1395060213 -0.0214823855 -0.4082112614
-0.1479568015 -0.0497205378 -0.3996019043
-0.1118119456 -0.0594429006 -0.4033274765
-0.1493274640 -0.0409952041 -0.4012255294
-0.0746136982 -0.0664357914 -0.4105826755
-0.0458811897 -0.0666587572 -0.4518626529
-0.1348799687 -0.0207145821 -0.4081169859
-0.1295170128 -0.0213674398 -0.4108712532
-0.1497268297 -0.0520019879 -0.3983521524
-0.1269944600 -0.0213910455 -0.4110818749
-0.0446442713 -0.0562652694 -0.4562806227
-0.1250057833 -0.0269841489 -0.4089119761
-0.1221294949 -0.0208864506 -0.4117646530
-0.1170376311 -0.0210751461 -0.4128138691
-0.1147811353 -0.0216935750 -0.4150591823
-0.1024717507 -0.0211353484 -0.4206226623
-0.1542367267 -0.0366450438 -0.4009422804
-0.0971126250 -0.0214688072 -0.4193724809
-0.0963103085 -0.0205730320 -0.4197765211
-0.1159198273 -0.0534482974 -0.4056299444
-0.0548326576 -0.0542418866 -0.4335455332
-0.0917502611 -0.0211561492 -0.4208069117
-0.1467478783 -0.0355024597 -0.4033765395
-0.0567041300 -0.0409551524 -0.4548103213
-0.0536552090 -0.0061974069 -0.4608445019
-0.0698808956 -0.0439532265 -0.4180720006
-0.0539883748 -0.0395593643 -0.4564488232
-0.0890356688 -0.0214643637 -0.4231329488
-0.0407521449 -0.0450286396 -0.4602935578
-0.1199628215 -0.0539549020 -0.4031520711
-0.0850104307 -0.0215682828 -0.4248195182
-0.0823309099 -0.0210671041 -0.4236809138
-0.0795318049 -0.0212063041 -0.4248056494
-0.1654743691 -0.0292103743 -0.4055967779
-0.0783075813 -0.0203561500 -0.4251681032
-0.1587383067 -0.0345678099 -0.3993093969
-0.0644966012 -0.0196832966 -0.4285669738
-0.0684998706 -0.0214013848 -0.4236690402
-0.0640050923 -0.0208639792 -0.4299965469
-0.0941213875 -0.0261014944 -0.4203406347
-0.0402040090 -0.0510321727 -0.4595189091
-0.1241806270 -0.0511442783 -0.4051589884
-0.0479116179 -0.0444248654 -0.4595513642
-0.0594080382 -0.0207632628 -0.4315130036
-0.0972814898 -0.0636139482 -0.4079699711
-0.0575389129 -0.0209771214 -0.4338624724
-0.0969500511 -0.0236510954 -0.4188257861
-0.1222021691 -0.0241999060 -0.4112250522
-0.0466529422 -0.0261804700 -0.4622704693
-0.0419884128 -0.0263464531 -0.4638606604
-0.0696132814 -0.0237263255 -0.4256766237
-0.1123879701 0.0024579288 -0.4230295122
-0.1709736681 -0.0233953165 -0.4085957791
-0.1381769415 -0.0214795591 -0.4067688599
-0.1326621480 -0.0740038307 -0.3917072042
-0.1325153266 -0.0216504167 -0.4086589278
-0.1306214335 -0.0216972165 -0.4092695890
-0.1245555224 -0.0215221990 -0.4121976060
-0.1425008426 -0.0410132762 -0.4029503681
-0.0746867010 -0.0213054478 -0.4241789548
-0.0994363903 -0.0780360480 -0.4017787658
-0.0807397742 -0.0210849583 -0.4238676915
-0.1219841345 -0.0502313660 -0.4072714549
-0.0773552428 -0.0210746288 -0.4239601477
-0.0570677185 -0.0328939672 -0.4430420622
-0.0694810961 -0.0214165748 -0.4254702662
-0.0695243819 -0.0489868474 -0.4160858979
-0.0667932682 -0.0215805008 -0.4257052988
-0.0652436809 -0.0313462295 -0.4231163210
-0.0969585273 -0.0259860936 -0.4204713404
-0.1049935011 -0.0713514572 -0.4015780614
-0.0478895668 -0.0272776364 -0.4598748648
-0.0419088629 -0.0490425746 -0.4600798304
-0.0641612709 -0.0515787099 -0.4190610796
-0.0745533556 -0.0362723470 -0.4191862345
-0.0989476704 -0.0611408047 -0.4083838594
-0.0413644211 -0.0289354025 -0.4660573573
-0.0721403299 -0.0635764228 -0.4129153231
-0.1735432802 -0.0262017050 -0.4106024423
-0.1247377226 -0.0436949112 -0.4054574930
-0.1700319431 -0.0250948826 -0.4096789340
-0.1244377921 -0.0513133182 -0.4030327844
-0.1540576429 -0.0591959782 -0.3936064830
-0.1618661636 -0.0234592204 -0.4047107325
-0.1548430228 -0.0239246509 -0.4039164569
-0.0506078001 -0.0574512578 -0.4463674596
-0.1520884341 -0.0237179406 -0.4057525340
-0.1471735048 -0.0240015477 -0.4060142511
-0.1324414086 -0.0264469139 -0.4086115070
-0.0896091865 -0.0291875270 -0.4191077969
-0.1469700505 -0.0234911985 -0.4073951556
-0.1397358098 -0.0557761667 -0.3981311292
-0.1446262989 -0.0241524869 -0.4061910270
-0.0564215295 -0.0304488074 -0.4442489147
-0.0443411604 -0.0590930812 -0.4553402162
-0.1440659311 -0.0234839303 -0.4073226003
-0.1340950204 -0.0238927548 -0.4087165388
-0.1300540666 -0.0235232820 -0.4088859464
-0.0731018047 -0.0488180225 -0.4173440653
-0.1260368177 -0.0236095676 -0.4123658550
-0.1621963680 -0.0244979002 -0.4019942880
-0.1402358264 -0.0182521660 -0.4089584649
-0.1044760700 -0.0016530754 -0.4215062633
-0.1225629553 -0.0233976253 -0.4123933939
-0.1198685138 -0.0239178630 -0.4122457274
-0.1122693021 -0.0239802380 -0.4151934837
-0.1050629697 -0.0237230912 -0.4189170506
-0.1024208510 -0.0233251834 -0.4199283783
-0.0994729195 -0.0241173568 -0.4189491704
-0.1549948975 -0.0118550411 -0.4088854492
-0.0941003576 -0.0235772549 -0.4205973307
-0.0865885697 -0.0234485474 -0.4228013582
-0.0613591522 -0.0221615266 -0.4325275719
-0.1296003213 -0.0583715453 -0.3978374376
-0.0893504122 -0.0264639225 -0.4199021324
-0.0845604054 -0.0240222597 -0.4229948977
-0.0799278079 -0.0239623477 -0.4236568477
-0.0972904932 -0.0593708400 -0.4091170775
-0.0595352416 -0.0240141052 -0.4334673760
-0.0630477191 -0.0462376430 -0.4234291491
-0.0550762324 -0.0237242363 -0.4391368852
-0.1313984026 -0.0639456960 -0.3981931508
-0.0489712816 -0.0286398610 -0.4564484189
-0.0393938312 -0.0296229090 -0.4676688555
-0.0600088944 -0.0769857814 -0.4142740831
-0.0647446399 -0.0719264735 -0.4126778472
-0.0546023078 -0.0537169481 -0.4483797548
-0.1703404052 -0.0264441338 -0.4085895480
-0.1656146379 -0.0261672524 -0.4062492937
-0.0853914587 -0.0629086846 -0.4122786535
-0.1620136084 -0.0243111190 -0.4032647147
-0.0883452743 -0.0629658476 -0.4068716168
-0.1417172008 -0.0581087858 -0.3987449352
-0.1523375130 -0.0244432158 -0.4038674756
-0.1271354552 -0.0237046801 -0.4091850656
-0.0617512167 -0.0388987288 -0.4455895722
-0.1071358859 -0.0261494421 -0.4182433699
-0.1048996136 -0.0258966578 -0.4185188316
-0.1020747720 -0.0258346504 -0.4186459262
-0.1016417574 -0.0251350760 -0.4195155259
-0.0919203310 -0.0241304303 -0.4186674970
-0.0899678420 -0.0240657812 -0.4190614914
-0.1472787753 -0.0438279614 -0.4004457211
-0.0857137135 -0.0238225788 -0.4218028945
-0.0770547767 -0.0237289268 -0.4236992210
-0.0666988405 -0.0239770397 -0.4259551266
-0.0568755816 -0.0252549563 -0.4362839403
-0.0546509206 -0.0484324863 -0.4532340552
-0.1140089482 -0.0762153454 -0.3962515891
-0.0770293880 -0.0317944913 -0.4204236109
-0.0472654750 -0.0310995214 -0.4612672074
-0.0696702264 -0.0710569732 -0.4124299139
-0.0596296085 -0.0737349644 -0.4157799267
-0.0464424460 -0.0315478596 -0.4627710773
-0.1399660312 -0.0265547587 -0.4054861349
-0.0421997584 -0.0311375686 -0.4661602757
-0.1099234261 -0.0026864473 -0.4215807319
-0.0407478306 -0.0312347264 -0.4672190918
-0.0939711541 -0.0411754223 -0.4154364657
-0.1696472696 -0.0283930299 -0.4085188229
-0.1639331701 -0.0263937878 -0.4040875178
-0.1681333235 -0.0289912767 -0.4082700689
-0.1195468658 -0.0740694966 -0.3954822120
-0.1615835114 -0.0263136326 -0.4028708018
-0.0853579482 -0.0571905822 -0.4131914242
-0.1572962745 -0.0265259787 -0.4030720651
-0.0605906428 -0.0439864907 -0.4489148026
-0.1126677543 -0.0529542528 -0.4041871727
-0.1446019367 -0.0583056266 -0.3974907995
-0.0669469303 -0.0304997211 -0.4249945925
-0.1547918131 -0.0265718518 -0.4033948892
-0.1522743096 -0.0266225998 -0.4034595456
-0.1267121423 -0.0316301353 -0.4078410941
-0.1517917032 -0.0260121802 -0.4047600757
-0.0770968664 -0.0384486043 -0.4203516883
-0.1466808943 -0.0317832504 -0.4039267204
-0.1497156843 -0.0264179627 -0.4055022773
-0.1471228451 -0.0265747666 -0.4059922330
-0.1443490488 -0.0263424774 -0.4058704312
-0.1418435919 -0.0268229204 -0.4057988973
-0.1093792743 -0.0587035298 -0.4062199755
-0.1370564443 -0.0259302453 -0.4056594442
-0.1018446308 -0.0267238670 -0.4165482902
-0.0844793171 -0.0766770169 -0.4072004259
-0.1074685825 -0.0413626163 -0.4115198034
-0.1068052761 0.0023530752 -0.4254044294
-0.1270084947 -0.0265150288 -0.4089858524
-0.1146819387 -0.0263843300 -0.4147789751
-0.1122912620 -0.0264112360 -0.4153560731
-0.1369985730 -0.0690859826 -0.3931484766
-0.1040786132 -0.0268466086 -0.4163501904
-0.0695194506 -0.0341937624 -0.4205883012
-0.0827322677 -0.0365240810 -0.4180551767
-0.0995258676 -0.0264259433 -0.4184525817
-0.1072419881 -0.0359923366 -0.4130049942
-0.0969501180 -0.0265273085 -0.4190953911
-0.0919679230 -0.0265545531 -0.4193813511
-0.1007704735 -0.0413588323 -0.4112318158
-0.0901337810 -0.0264191626 -0.4190860732
-0.0875078612 -0.0267587979 -0.4209255342
-0.0470286596 -0.0535893226 -0.4558944123
-0.0848524493 -0.0266082794 -0.4212581052
-0.0795883042 -0.0262129701 -0.4227830345
-0.0948814396 -0.0208208817 -0.4230652452
-0.1296814328 -0.0289109196 -0.4081853521
-0.0745019656 -0.0260464000 -0.4232905007
-0.0533089950 -0.0547124960 -0.4418283943
-0.0716484176 -0.0261561439 -0.4250336815
-0.0593161405 -0.0513080422 -0.4484822233
-0.1680781809 -0.0310973284 -0.4080293750
-0.0647416503 -0.0250766655 -0.4267442770
-0.0625651321 -0.0261717336 -0.4318833480
-0.0619853027 -0.0258855717 -0.4333159219
-0.0551159008 -0.0278350088 -0.4414518540
-0.0533806644 -0.0107855974 -0.4430550933
-0.0542501895 -0.0291810972 -0.4432333297
-0.0876291876 -0.0562482769 -0.4110440265
-0.0514254206 -0.0291102771 -0.4504180894
-0.0495009655 -0.0403527813 -0.4622953467
-0.0920607796 -0.0335122243 -0.4181801124
-0.0491011153 -0.0315320858 -0.4584962460
-0.0397827901 -0.0534976287 -0.4600585384
-0.1523775059 -0.0489610601 -0.3980543424
-0.0442707776 -0.0326858738 -0.4651605792
-0.1145415519 -0.0287549076 -0.4138038443
-0.1370494629 -0.0539345855 -0.3985327384
-0.1768499043 -0.0315749383 -0.4133241079
-0.1747999445 -0.0316386144 -0.4128011837
-0.0801288364 -0.0686986419 -0.4104724856
-0.1499209622 -0.0461962291 -0.3989193298
-0.1724112128 -0.0301421491 -0.4111126043
-0.1705940296 -0.0296774065 -0.4103687889
-0.0499825514 -0.0465875700 -0.4558917191
-0.1497216772 -0.0264909926 -0.4040178286
-0.1202493492 -0.0285158497 -0.4125543977
-0.1449279523 -0.0681244651 -0.3932372940
-0.1095965259 -0.0284254464 -0.4152939603
-0.0640772628 -0.0414234565 -0.4238453058
-0.0963217424 -0.0279916904 -0.4207539164
-0.0742200956 -0.0733810776 -0.4106403282
-0.0947044239 -0.0273420398 -0.4193359148
-0.0917952262 -0.0267408351 -0.4208824371
-0.0941251652 -0.0467938312 -0.4155064733
-0.0625462781 -0.0277637956 -0.4324974350
-0.0971309003 -0.0567751068 -0.4103859641
-0.0616893926 -0.0289212410 -0.4353864864
-0.0566280509 -0.0738398098 -0.4200048812
-0.0576088182 -0.0289066990 -0.4388877132
-0.0526781585 -0.0307694779 -0.4481101523
-0.0620239246 -0.0760305562 -0.4130242448
-0.0496772921 -0.0339602405 -0.4579424259
-0.0741406704 -0.0295695712 -0.4249134163
-0.0946087870 -0.0661851476 -0.4082652037
-0.0491349602 -0.0337303695 -0.4610212357
-0.1729251433 -0.0319039333 -0.4120583791
-0.0870732129 -0.0713679612 -0.4058767502
-0.0921680002 -0.0343891760 -0.4167199972
-0.0640137568 -0.0629201606 -0.4180430174
-0.1578777501 -0.0287770066 -0.4014844135
-0.0695239424 -0.0566737639 -0.4174804459
-0.1567806200 -0.0292381541 -0.4031185595
-0.1548474307 -0.0287821728 -0.4030078717
-0.0492910677 -0.0562880703 -0.4534066721
-0.0938699469 0.0019912475 -0.4322186410
-0.0621876987 -0.0515863485 -0.4189267436
-0.1497860561 -0.0285945785 -0.4048349030
-0.0869894065 -0.0161477416 -0.4238711447
-0.1471393455 -0.0293079203 -0.4053679551
-0.0531755795 -0.0575303258 -0.4280892760
-0.1443336315 -0.0292491913 -0.4048746801
-0.1297634913 -0.0309499957 -0.4083908676
-0.0851664431 -0.0435218766 -0.4174580906
-0.1427023342 -0.0288506708 -0.4040584055
-0.1402224662 -0.0285403813 -0.4040184975
-0.0753226316 -0.0317273835 -0.4209435617
-0.1395340485 -0.0292992097 -0.4050689612
-0.1374336009 -0.0290482871 -0.4057111200
-0.1348615056 -0.0290366022 -0.4061251509
-0.0640418813 -0.0389412184 -0.4251592176
-0.1348436903 -0.0287054825 -0.4075782609
-0.1269829873 -0.0291035845 -0.4084940449
-0.1246222382 -0.0291783091 -0.4090403044
-0.1200331934 -0.0385629730 -0.4083203077
-0.1469169396 -0.0336002061 -0.4034865946
-0.1244605458 -0.0287375365 -0.4101558171
-0.1220361229 -0.0292822062 -0.4109959664
-0.1189956778 -0.0286485713 -0.4119473844
-0.1395053974 -0.0438494871 -0.4012958842
-0.0539200862 -0.0582508380 -0.4231874200
-0.1001111509 -0.0290371987 -0.4161027789
-0.0966766316 -0.0289089086 -0.4186857302
-0.0927504929 -0.0286989804 -0.4190881352
-0.0919828976 -0.0285706585 -0.4195335697
-0.1375439577 -0.0586963966 -0.3958534300
-0.0903398516 -0.0284344000 -0.4201204364
-0.0909629056 -0.0748877545 -0.4072727845
-0.0843009103 -0.0282818650 -0.4183912110
-0.1494643347 -0.0512698064 -0.3995636694
-0.0794847169 -0.0285465220 -0.4207158352
-0.0759254742 -0.0273658365 -0.4205117185
-0.0719234427 -0.0287000702 -0.4238580276
-0.0710883188 -0.0288187027 -0.4253330011
-0.0602249304 -0.0740696153 -0.4144293278
-0.0641409342 -0.0289716228 -0.4284567706
-0.0792325366 -0.0467569339 -0.4157599871
-0.0500499569 -0.0442051459 -0.4579371959
-0.0623321029 -0.0288334372 -0.4311851925
-0.0597486981 -0.0308949821 -0.4381559978
-0.1575636858 -0.0559993478 -0.3954620007
-0.0575689521 -0.0305254384 -0.4394912731
-0.0599377373 -0.0392357878 -0.4480185974
-0.0563384766 -0.0309392824 -0.4415597046
-0.0723390724 -0.0642598919 -0.4118170490
-0.0514900192 -0.0338969112 -0.4559534299
-0.0750465718 -0.0389909025 -0.4204798477
-0.1620462306 -0.0336263933 -0.4015700595
-0.0476851067 -0.0358121367 -0.4636520882
-0.1143120339 -0.0537471822 -0.4048605658
-0.1758128167 -0.0340639106 -0.4146441592
-0.1733103031 -0.0333642166 -0.4125807862
-0.0791672444 -0.0766122417 -0.4082862491
-0.1675771626 -0.0314151747 -0.4066539013
-0.0444813898 -0.0443984996 -0.4592904464
-0.1642711538 -0.0310097356 -0.4036881348
-0.0528536179 -0.0639912133 -0.4211745783
-0.1280202493 -0.0440119465 -0.4042940691
-0.1594597727 -0.0296191069 -0.4016853151
-0.1537271754 -0.0293921262 -0.4018998127
-0.1195488011 -0.0302909524 -0.4123004465
-0.0772133132 -0.0690516738 -0.4090876771
-0.1148953893 -0.0311414955 -0.4132651992
-0.1091231442 -0.0298101340 -0.4137305864
-0.0940443427 -0.0304248088 -0.4199903014
-0.0920327592 -0.0307273414 -0.4201847023
-0.0723671701 -0.0296025996 -0.4214256528
-0.0695730032 -0.0292771661 -0.4242538497
-0.1248385097 -0.0715402792 -0.3958294509
-0.0623104849 -0.0304299633 -0.4317870452
-0.0725639144 -0.0316224128 -0.4218657789
-0.0919122299 -0.0360626963 -0.4183408618
-0.1364384397 -0.0462820733 -0.4030185792
-0.0613237196 -0.0314009151 -0.4357848925
-0.0595867687 -0.0318160824 -0.4402501310
-0.0551870514 -0.0335205576 -0.4461403307
-0.0544311367 -0.0343733682 -0.4507820347
-0.1296127811 0.0032266214 -0.4180957451
-0.1200567323 -0.0368163406 -0.4058712038
-0.1642495766 -0.0242620986 -0.4034267217
-0.1740254992 -0.0352775007 -0.4139480302
-0.1698376252 -0.0340997576 -0.4099245977
-0.1596723429 -0.0313361387 -0.4002156174
-0.0847122992 -0.0685401805 -0.4062407342
-0.1544181754 -0.0312919687 -0.4027857589
-0.1519894632 -0.0311499375 -0.4028621595
-0.1448613021 -0.0311519974 -0.4048412707
-0.1470127045 -0.0637788916 -0.3935366461
-0.1422506360 -0.0314930697 -0.4035561861
-0.1398315261 -0.0317186683 -0.4040397096
-0.0587840639 -0.0240357928 -0.4353829026
-0.1065157565 -0.0583216809 -0.4071811983
-0.1373881820 -0.0314059762 -0.4061403646
-0.1319990246 -0.0307016009 -0.4077266462
-0.1150269350 -0.0341483817 -0.4092395249
-0.0495322086 -0.0599758662 -0.4396048784
-0.1245072810 -0.0317030843 -0.4088532576
-0.1239133489 -0.0306567400 -0.4097880675
-0.1219056415 -0.0313350992 -0.4108630752
-0.1196171968 -0.0316790806 -0.4113774415
-0.1241525895 -0.0637563139 -0.3976569796
-0.1165777084 -0.0317083935 -0.4112343317
-0.1211559362 -0.0332816788 -0.4098059109
-0.1090577795 -0.0310623981 -0.4136814995
-0.0419137717 -0.0562383922 -0.4577774017
-0.1074336633 -0.0316045674 -0.4131732836
-0.0571536342 -0.0713898450 -0.4180063417
-0.1292462814 -0.0389249910 -0.4055519917
-0.1051850404 -0.0316869785 -0.4136810320
-0.1002863129 -0.0363219975 -0.4144054970
-0.0845466629 -0.0290924124 -0.4203295410
-0.0692889914 -0.0081967772 -0.4298234284
-0.0552791384 -0.0638133489 -0.4183385779
-0.0573529370 -0.0486613791 -0.4536977066
-0.1023326051 -0.0314639968 -0.4154250961
-0.0970663392 -0.0311852958 -0.4182020112
-0.0692191815 -0.0391528656 -0.4212269836
-0.0469565699 -0.0516316958 -0.4560023229
-0.0950589593 -0.0314941029 -0.4184097688
-0.1425859838 -0.0513662517 -0.3986652466
-0.0917900726 -0.0643551076 -0.4082007607
-0.0900218364 -0.0309895567 -0.4199509977
-0.0733078644 -0.0164576825 -0.4274328351
-0.0893100276 -0.0321512235 -0.4188038509
-0.0875612521 -0.0306906830 -0.4202422087
-0.0823427301 -0.0691085402 -0.4083439355
-0.0866674872 -0.0315523726 -0.4190351105
-0.0843175325 -0.0312825027 -0.4183850030
-0.0816623551 -0.0462923628 -0.4157313237
-0.1322886020 -0.0462033354 -0.4029304797
-0.0814575483 -0.0309698634 -0.4188842846
-0.1570648775 -0.0490352307 -0.3989052474
-0.0792503522 -0.0308868855 -0.4191505166
-0.0565464497 -0.0773708820 -0.4225484133
-0.1326475306 -0.0642615743 -0.3963587755
-0.1197884534 -0.0351320155 -0.4097557045
-0.0622871067 -0.0320323924 -0.4323816643
-0.0600152995 -0.0343533234 -0.4432398515
-0.0788679053 -0.0382534967 -0.4205268272
-0.0795781343 -0.0761105690 -0.4099031047
-0.0578872429 -0.0351340287 -0.4454729427
-0.0502338000 -0.0123250522 -0.4593078494
-0.0572560122 -0.0365441893 -0.4478525582
-0.0540968687 -0.0362880434 -0.4534891620
-0.0740616174 -0.0392789890 -0.4189594850
-0.1370498167 -0.0564283353 -0.3985634531
-0.0528053404 -0.0378145987 -0.4567905803
-0.0503201675 -0.0387084329 -0.4616704034
-0.1165834320 -0.0428876842 -0.4081339622
-0.0488963978 -0.0388415741 -0.4627551890
-0.0575430505 -0.0524382032 -0.4416832030
-0.1790906286 -0.0384159221 -0.4180718171
-0.1266031861 -0.0133015122 -0.4146561921
-0.1714488584 -0.0359276401 -0.4114896925
-0.1670299076 -0.0342944161 -0.4075020747
-0.1640293737 -0.0340697067 -0.4039613870
-0.1523060936 -0.0320713266 -0.4016522762
-0.0689902368 -0.0482544613 -0.4170172976
-0.1447599173 -0.0317319924 -0.4030427171
-0.1293092281 -0.0715287461 -0.3960794560
-0.1353410034 -0.0320564976 -0.4060288175
-0.0743642127 -0.0264121039 -0.4254156450
-0.0574910872 -0.0739661707 -0.4189019612
-0.1270794237 -0.0318682825 -0.4063743972
-0.1097633893 -0.0335948412 -0.4124699812
-0.1248441357 -0.0339787034 -0.4059148803
-0.1126661895 -0.0322823349 -0.4115344188
-0.0826199372 -0.0539778491 -0.4133481806
-0.1092099278 -0.0319884794 -0.4114489398
-0.1079240479 -0.0319791869 -0.4117774493
-0.1046220586 -0.0308645731 -0.4152669609
-0.0997879442 -0.0334607533 -0.4162286206
-0.0997472101 -0.0359935589 -0.4156447304
-0.0403818151 -0.0499019407 -0.4609149383
-0.0947439711 -0.0322983377 -0.4168305248
-0.0905313330 -0.0327191682 -0.4196676635
-0.0676014051 -0.0801418573 -0.4114273489
-0.1340231266 -0.0685713986 -0.3948426651
-0.1168593485 -0.0361288596 -0.4067441022
-0.0632286801 -0.0326358356 -0.4289771056
-0.1393972114 -0.0461758885 -0.4008032620
-0.0623577473 -0.0339164480 -0.4339255610
-0.1085950285 -0.0770374909 -0.3995927274
-0.0543416251 -0.0394451504 -0.4570341323
-0.1123937157 -0.0759708858 -0.3978074594
-0.0515639502 -0.0408620705 -0.4604635625
-0.1097909175 -0.0366438973 -0.4106547836
-0.1048760116 -0.0455253379 -0.4092089982
-0.1395541906 -0.0638396436 -0.3948266268
-0.1656178268 -0.0359104902 -0.4049773260
-0.1542158767 -0.0689099813 -0.3928777456
-0.1597821253 -0.0339046961 -0.4001941511
-0.1542294963 -0.0340526367 -0.4008022511
-0.0520238616 -0.0582012050 -0.4337044060
-0.1521733883 -0.0334980765 -0.4027547917
-0.0773642957 -0.0832040384 -0.4120356143
-0.0850919262 -0.0046592064 -0.4262693971
-0.1513669906 -0.0339144921 -0.4008855079
-0.1349180937 -0.0718636550 -0.3910800666
-0.0795253165 -0.0431227913 -0.4185637019
-0.1493832638 -0.0339629941 -0.4032887240
-0.1016971618 -0.0069502140 -0.4246807694
-0.1371212462 -0.0335874449 -0.4052175468
-0.1293032493 -0.0341167218 -0.4059868893
-0.1270045466 -0.0342691486 -0.4060876699
-0.1242514312 -0.0343590679 -0.4083932405
-0.0618664174 -0.0490797002 -0.4236453970
-0.1569183916 -0.0214239676 -0.4073061943
-0.1221027899 -0.0340255488 -0.4082487488
-0.1191473543 -0.0334997845 -0.4100930480
-0.1100793799 -0.0344393804 -0.4109347963
-0.0668102997 -0.0634451221 -0.4135199424
-0.1073512841 -0.0335669257 -0.4129639010
-0.0713535771 -0.0661515146 -0.4126291871
-0.1050654745 -0.0336767314 -0.4132857404
-0.1015875483 -0.0334713797 -0.4139196780
-0.1198667777 -0.0585496457 -0.4013911538
-0.1002907808 -0.0334476354 -0.4142217577
-0.0973469781 -0.0338044373 -0.4163621975
-0.0747158155 -0.0200505927 -0.4242717475
-0.0871750070 -0.0337705728 -0.4191323223
-0.1475239024 -0.0762312412 -0.3895401657
-0.0821497975 -0.0337162830 -0.4189540350
-0.1449253011 -0.0353459470 -0.4046170876
-0.0774958399 -0.0339962410 -0.4202575707
-0.0696220932 -0.0323411864 -0.4204642386
-0.0847430918 -0.0384885977 -0.4166834281
-0.0640981999 -0.0333963609 -0.4257831193
-0.1200833739 -0.0784992890 -0.3962369690
-0.0541320205 -0.0417529139 -0.4575811438
-0.1067682575 -0.0489470639 -0.4106297305
-0.0666561276 -0.0787001724 -0.4107189973
-0.0825924095 -0.0518745906 -0.4129779177
-0.0520483638 -0.0416929912 -0.4577666641
-0.0492544129 -0.0412423526 -0.4599723589
-0.0450592685 -0.0612369789 -0.4548965940
-0.0870700744 -0.0612474903 -0.4109147030
-0.1121874951 -0.0362149864 -0.4107833726
-0.1762585694 -0.0414240792 -0.4184062566
-0.1618267059 -0.0365694318 -0.4012770696
-0.1500705223 -0.0346335667 -0.4011744172
-0.1491894112 -0.0360757037 -0.4028374572
-0.0616438612 -0.0008696765 -0.4433703423
-0.0695706805 -0.0585627859 -0.4158636298
-0.1371231718 -0.0349161702 -0.4041471269
-0.1220580224 -0.0358412597 -0.4080498203
-0.0672510639 -0.0638899878 -0.4118845165
-0.1079508763 -0.0348458974 -0.4119673616
-0.1025346233 -0.0355095372 -0.4153106882
-0.1469863839 -0.0010074283 -0.4151751623
-0.0975507411 -0.0357596312 -0.4176670916
-0.1112772313 -0.0491220035 -0.4081423240
-0.0891829339 -0.0361255871 -0.4178867748
-0.0692228825 -0.0557299597 -0.4157203582
-0.0867772179 -0.0361411715 -0.4187173066
-0.1393751149 -0.0485464535 -0.4005781009
-0.0979249776 -0.0493110791 -0.4128142144
-0.0863559867 -0.0351815865 -0.4196988934
-0.0651003603 -0.0337630679 -0.4232081788
-0.0642340083 -0.0350860453 -0.4271049278
-0.1248097756 -0.0786613351 -0.3943248553
-0.1123545738 -0.0483492287 -0.4060371446
-0.0602169644 -0.0412413741 -0.4483753763
-0.1086597741 -0.0488405041 -0.4100289047
-0.0896097894 -0.0787349045 -0.4064399103
-0.1574019531 -0.0359513686 -0.3994290060
-0.1519163850 -0.0366681788 -0.4011315319
-0.1043530442 -0.0492495279 -0.4091076407
-0.0597995408 -0.0525636077 -0.4234030545
-0.1446098839 -0.0360032740 -0.4027815331
-0.1319174680 -0.0511550656 -0.4007256453
-0.1414224615 -0.0366784576 -0.4027017465
-0.1392582978 -0.0366813571 -0.4026660135
-0.1446309576 -0.0439241473 -0.4006648930
-0.1368850049 -0.0354489949 -0.4019591244
-0.1135512248 -0.0480204742 -0.4071817678
-0.1366553730 -0.0366129244 -0.4032818685
-0.0851184844 -0.0410866486 -0.4173690659
-0.1346326010 -0.0364690483 -0.4035217396
-0.1192883227 -0.0739209611 -0.3972548241
-0.1321004941 -0.0367319182 -0.4057676232
-0.0523055253 -0.0569544434 -0.4331539319
-0.1270632888 -0.0362815976 -0.4050962603
-0.1149369592 -0.0362339761 -0.4085364721
-0.1142535251 -0.0432075450 -0.4097632228
-0.0873161443 -0.0612183847 -0.4083138704
-0.1125779572 -0.0363622912 -0.4086667498
-0.1077922816 -0.0367804855 -0.4113981965
-0.0740540075 -0.0754393266 -0.4099452676
-0.0918917637 -0.0367167014 -0.4161892834
-0.0842898492 -0.0368388883 -0.4178906788
-0.0623324335 -0.0434550519 -0.4268120962
-0.0836012181 -0.0363736544 -0.4198135948
-0.0818161372 -0.0359045024 -0.4201068373
-0.0773272943 -0.0366163461 -0.4202473515
-0.0748753874 -0.0366384158 -0.4209329579
-0.0721132672 -0.0361585147 -0.4207658896
-0.1096259393 0.0021350248 -0.4257408530
-0.0695690542 -0.0363629773 -0.4213000223
-0.1497863421 -0.0687956133 -0.3931412821
-0.0493949574 -0.0614502035 -0.4377962207
-0.0646932704 -0.0362784159 -0.4234131892
-0.0951640665 -0.0428934807 -0.4137269334
-0.0640676712 -0.0357882281 -0.4266477194
-0.0725817910 -0.0617475307 -0.4133678748
-0.0394799393 -0.0560504898 -0.4575902764
-0.1122310348 -0.0605229922 -0.4052200466
-0.1493797100 -0.0561337191 -0.3976199162
-0.0696227185 -0.0418469831 -0.4190954969
-0.0865331341 -0.0496038958 -0.4136917532
-0.0566891729 -0.0436587176 -0.4555963848
-0.0472729964 -0.0388198706 -0.4584294955
-0.0549563054 -0.0437924096 -0.4564775830
-0.0516901712 -0.0442993450 -0.4560558392
-0.0494513474 -0.0438869072 -0.4555331221
-0.1247532526 -0.0587712330 -0.4020460952
-0.0716849446 -0.0373546930 -0.4223677730
-0.0973263181 -0.0617340639 -0.4084450389
-0.0497513326 -0.0489364472 -0.4556432782
-0.1596702928 -0.0388711356 -0.4004101941
-0.1497188143 -0.0382229092 -0.4017905688
-0.1489311316 -0.0389317834 -0.4027309098
-0.1466780479 -0.0386867652 -0.4028328479
-0.1169462096 -0.0385462579 -0.4062072062
-0.0492553525 -0.0591542106 -0.4531787634
-0.1141663535 -0.0368993832 -0.4095468777
-0.1048476083 -0.0387148963 -0.4132044346
-0.1020468282 -0.0384528100 -0.4134180304
-0.0971362326 -0.0384236406 -0.4153526732
-0.0889908337 -0.0381779800 -0.4174368681
-0.0730855560 -0.0383772799 -0.4229174406
-0.1024646400 -0.0537246437 -0.4101006129
-0.0472378753 -0.0446784588 -0.4564636028
-0.0448615932 -0.0458188808 -0.4587805632
-0.0600343328 -0.0439461619 -0.4531350583
-0.0920284680 -0.0462794394 -0.4155108511
-0.1366432578 -0.0388242965 -0.4033959167
-0.1249576673 -0.0738096427 -0.3951096687
-0.1195328282 -0.0390423825 -0.4063885127
-0.1147132091 -0.0387871487 -0.4085394798
-0.0545703988 -0.0538757030 -0.4406611555
-0.0596902487 -0.0564658956 -0.4202326113
-0.1095528814 -0.0388902599 -0.4103840294
-0.0916830130 -0.0386550950 -0.4162820793
-0.0801197239 -0.0568140970 -0.4158929853
-0.0896539319 -0.0384878452 -0.4163670023
-0.0946398484 -0.0513033502 -0.4109181500
-0.0675033828 -0.0390545492 -0.4223636774
-0.0664640276 -0.0385696906 -0.4210589332
-0.0932919310 -0.0660846998 -0.4105653993
-0.0650853864 -0.0388538982 -0.4214757414
-0.1540266700 -0.0583368549 -0.3954482829
-0.1450758204 -0.0742863119 -0.3890792131
-0.0598138664 -0.0462674990 -0.4511510631
-0.0593025285 -0.0640525408 -0.4161975382
-0.0525604207 -0.0547429824 -0.4510838622
-0.1092699285 -0.0718737057 -0.3987556463
-0.0573366516 -0.0461782499 -0.4528129188
-0.1347196959 -0.0411122179 -0.4035157081
-0.0469590717 -0.0464341604 -0.4566821317
-0.0440085436 -0.0465509838 -0.4601976617
-0.1489639673 -0.0583712849 -0.3961694001
-0.0627119131 -0.0565118041 -0.4186715125
-0.0901179757 -0.0542760520 -0.4106999023
-0.1155639081 -0.0669500441 -0.3991700368
-0.1602709421 -0.0411346037 -0.3998544197
-0.1574183082 -0.0412161731 -0.4006598308
-0.1395019828 -0.0413102559 -0.4029267161
-0.1017346997 -0.0284028519 -0.4174417183
-0.1293797281 -0.0408614510 -0.4052870456
-0.1295742542 -0.0467677414 -0.4048067778
-0.1249850161 -0.0412502188 -0.4056583041
-0.1222684271 -0.0407159033 -0.4074199307
-0.1620125951 -0.0503740532 -0.3980504442
-0.1144180244 -0.0412746460 -0.4103679983
-0.1119630375 -0.0414879720 -0.4103346583
-0.1273414664 -0.0739667285 -0.3935416460
-0.1097219304 -0.0409025615 -0.4105217495
-0.1045825709 -0.0411162513 -0.4127087238
-0.1020358357 -0.0406763945 -0.4128945086
-0.0947062943 -0.0395047454 -0.4144041506
-0.0938087744 -0.0738904179 -0.4052735686
-0.1226011333 -0.0692320759 -0.3965087839
-0.1248764604 -0.0690165191 -0.3962209866
-0.0916660480 -0.0410514900 -0.4160063554
-0.0647499859 -0.0634504072 -0.4134279490
-0.0889416123 -0.0413365026 -0.4176752615
-0.1123946607 -0.0168363806 -0.4156165719
-0.0870451258 -0.0401230867 -0.4169613099
-0.0820839587 -0.0405087834 -0.4198285238
-0.0800688776 -0.0411410393 -0.4202159798
-0.0598459709 -0.0486120020 -0.4510198445
-0.0591832706 -0.0487056580 -0.4523050794
-0.0692347189 -0.0059603339 -0.4303047458
-0.0521222882 -0.0487268685 -0.4548909383
-0.0470072438 -0.0486847488 -0.4563363033
-0.0462948372 -0.0478828226 -0.4571072820
-0.1597294143 -0.0486963168 -0.3962498773
-0.1553674161 -0.0602138761 -0.3947525942
-0.1559861670 -0.0425149564 -0.4023556866
-0.1475574570 -0.0414346038 -0.4015052999
-0.0642227903 -0.0591865405 -0.4178507924
-0.1202285072 -0.0419046024 -0.4063212201
-0.1170695239 -0.0781675342 -0.3969170435
-0.1171029300 -0.0410967152 -0.4076744482
-0.1092226213 -0.0433135207 -0.4099691885
-0.1094104602 -0.0422131735 -0.4124647184
-0.0491010365 -0.0534980077 -0.4552257980
-0.0988717079 -0.0281432532 -0.4199980497
-0.0670507177 -0.0584118071 -0.4155798775
-0.1016066669 -0.0414452247 -0.4117346069
-0.0635530613 -0.0413719025 -0.4257543534
-0.0960937214 -0.0411336488 -0.4146572602
-0.0912383037 -0.0421651436 -0.4176431442
-0.1486631686 -0.0728243862 -0.3908509041
-0.0470686507 -0.0586690108 -0.4552556290
-0.0746511242 -0.0414394026 -0.4206700304
-0.0772967410 -0.0564906719 -0.4159774170
-0.0690985627 -0.0414023313 -0.4204583949
-0.0672988893 -0.0416014356 -0.4204160087
-0.0918982215 -0.0037818266 -0.4299157709
-0.1568149670 -0.0438129436 -0.4006271079
-0.1479385197 -0.0293921214 -0.4018690586
-0.1529885715 -0.0436674304 -0.4020502678
-0.0844351741 -0.0461628823 -0.4158336982
-0.1516505621 -0.0439745965 -0.4005373820
-0.1385467132 -0.0428529546 -0.4021381441
-0.0447933165 -0.0337643698 -0.4599330227
-0.1366450075 -0.0437903397 -0.4026970467
-0.1309070057 -0.0430912653 -0.4046698838
-0.1297197242 -0.0439501515 -0.4034955009
-0.0399600081 -0.0261588385 -0.4647995979
-0.1222419316 -0.0435786785 -0.4061149237
-0.1192107312 -0.0638439916 -0.4024831057
-0.1549343765 -0.0391209275 -0.4021557271
-0.1195395228 -0.0435336297 -0.4072464212
-0.1176100622 -0.0425683017 -0.4068572387
-0.0596821100 -0.0516253547 -0.4329818484
-0.1144336077 -0.0435266824 -0.4079979322
-0.1117697557 -0.0434201109 -0.4083845832
-0.1114182863 -0.0428945430 -0.4095410370
-0.1041193438 -0.0436328833 -0.4123028487
-0.0991858145 -0.0438673812 -0.4133490490
-0.0969940867 -0.0439769314 -0.4139872117
-0.0633658841 -0.0354540236 -0.4328434467
-0.0921140433 -0.0441782717 -0.4157019933
-0.0839492008 -0.0411283001 -0.4156733155
-0.0891629615 -0.0441976520 -0.4179011033
-0.0773696726 -0.0042776285 -0.4299444656
-0.0870895824 -0.0439693964 -0.4178264323
-0.0743038429 -0.0420662216 -0.4191258103
-0.1118375324 -0.0643194690 -0.4037721455
-0.0717829763 -0.0422510023 -0.4190502203
-0.0554067851 -0.0683668395 -0.4180400123
-0.0639354085 -0.0435288865 -0.4237062767
-0.0592184470 -0.0504350389 -0.4499802963
-0.0506638357 -0.0663755663 -0.4252015641
-0.0524867174 -0.0515231388 -0.4538892672
-0.0495062308 -0.0515187932 -0.4554112385
-0.0444012416 -0.0510744445 -0.4574534493
-0.0422154799 -0.0511530785 -0.4585623888
-0.1394732028 -0.0512072948 -0.3999287371
-0.1571085725 -0.0441740972 -0.3986767755
-0.1417738644 -0.0441687615 -0.4010680618
-0.1194442692 -0.0436904595 -0.4060772820
-0.1045505626 -0.0440495957 -0.4112494297
-0.1018059244 -0.0441708415 -0.4113051610
-0.0778193627 -0.0639009755 -0.4090788567
-0.0846128174 -0.0436553247 -0.4166072184
-0.0822810558 -0.0439544332 -0.4167377746
-0.0719885152 -0.0439819404 -0.4178272025
-0.0646933721 -0.0437907589 -0.4206311108
-0.0622996997 -0.0450748739 -0.4273450126
-0.1096606147 -0.0710217578 -0.4006214639
-0.0610845726 -0.0501283938 -0.4437741159
-0.1668557972 -0.0285328701 -0.4055578709
-0.0715402067 -0.0311728381 -0.4247923642
-0.0624002218 -0.0789186805 -0.4136572182
-0.1623876748 -0.0463178028 -0.3994155447
-0.1597204117 -0.0461278606 -0.3980909217
-0.1566894456 -0.0461995709 -0.3982392734
-0.1548056643 -0.0464186023 -0.3982319053
-0.1418037489 -0.0485900063 -0.3988126218
-0.1536917333 -0.0458795598 -0.3998411141
-0.0536238141 -0.0461116657 -0.4576713443
-0.1524270895 -0.0459549145 -0.4003310447
-0.1471232040 -0.0459393735 -0.3998260608
-0.1447206673 -0.0450270475 -0.3991713832
-0.0849918649 -0.0714615285 -0.4088595510
-0.1447431924 -0.0461762285 -0.4005331613
-0.1368576020 -0.0438686229 -0.4012621852
-0.1344450864 -0.0462613386 -0.4034304723
-0.1305312793 -0.0460202127 -0.4033572136
-0.1268846385 -0.0461388682 -0.4032417275
-0.1193247346 -0.0458283738 -0.4055025321
-0.1169237051 -0.0459102681 -0.4064351510
-0.0482283123 -0.0059717493 -0.4668044150
-0.1116095687 -0.0462657562 -0.4082608653
-0.0800615102 -0.0234676022 -0.4246988446
-0.0925287704 -0.0210655052 -0.4238961836
-0.0945276096 -0.0583191106 -0.4090276071
-0.1067664250 -0.0461617746 -0.4105254356
-0.1019581577 -0.0460996859 -0.4106069356
-0.0626040995 -0.0091721993 -0.4308427721
-0.1001901329 -0.0460943218 -0.4109474057
-0.0993235224 -0.0467131545 -0.4129821100
-0.0988018281 -0.0462617095 -0.4146965488
-0.1117420445 -0.0332803888 -0.4126139283
-0.0969687226 -0.0464465632 -0.4129705076
-0.0873671526 -0.0465670089 -0.4164087025
-0.0821073779 -0.0454005035 -0.4171441699
-0.1410656124 -0.0809515566 -0.3932834566
-0.0794676883 -0.0460803043 -0.4178756620
-0.1645823214 -0.0537152017 -0.3979558629
-0.0768810415 -0.0461065715 -0.4187985358
-0.0622651817 -0.0467003866 -0.4278704872
-0.1173250432 -0.0785806795 -0.3977949497
-0.1099953949 -0.0382170342 -0.4122251421
-0.1172342822 -0.0334084611 -0.4107502401
-0.0571207764 -0.0530364633 -0.4495023710
-0.0546944357 -0.0533888207 -0.4511324583
-0.0451525282 -0.0539424976 -0.4564292867
-0.1582542296 -0.0465288637 -0.3965403407
-0.1441601166 -0.0467548652 -0.3987608676
-0.1404926045 -0.0456423361 -0.3993283968
-0.1374677091 -0.0465052187 -0.4007128979
-0.1348053683 -0.0463757155 -0.4011838322
-0.0693993195 -0.0657966288 -0.4127561769
-0.1329002717 -0.0464370464 -0.4018183210
-0.1077205219 -0.0465635642 -0.4086843810
-0.0699968353 -0.0458120896 -0.4173805950
-0.0570712577 -0.0585157104 -0.4200377809
-0.0670362596 -0.0462757817 -0.4175368446
-0.0642546033 -0.0463665430 -0.4183995084
-0.0828912258 -0.0537689754 -0.4118941065
-0.0627862458 -0.0466918373 -0.4209299463
-0.0626145901 -0.0469773471 -0.4258770622
-0.1316525287 -0.0683448393 -0.3953551716
-0.0597207959 -0.0514293435 -0.4381506234
-0.0518101635 -0.0582988908 -0.4302627911
-0.0566735411 -0.0531683099 -0.4452682195
-0.0498445085 -0.0545605587 -0.4539500100
-0.1058980152 -0.0529973395 -0.4102809429
-0.1546871026 -0.0488059673 -0.3976306135
-0.1495249819 -0.0487665578 -0.3984666557
-0.1467303367 -0.0487033399 -0.3987545990
-0.0958973574 -0.0645105600 -0.4095617793
-0.1143137209 -0.0612657859 -0.4028950321
-0.1420397466 -0.0491222930 -0.4005745221
-0.0599973799 -0.0666995648 -0.4157940410
-0.1223197915 -0.0487913396 -0.4057620993
-0.1248891503 -0.0108908527 -0.4136035293
-0.0461288535 -0.0659386968 -0.4542421901
-0.1197315411 -0.0476538174 -0.4044581377
-0.0473045912 -0.0417137016 -0.4585513547
-0.1166628880 -0.0487257425 -0.4056189007
-0.1219846396 -0.0663873893 -0.3981035195
-0.1143509497 -0.0487275326 -0.4061449827
-0.0800933819 -0.0387298763 -0.4183983132
-0.0543726549 -0.0669032945 -0.4203399721
-0.1076040907 -0.0478402308 -0.4082618815
-0.1314989775 -0.0213736985 -0.4121460021
-0.0381449051 -0.0215659868 -0.4659362733
-0.1041934467 -0.0486177774 -0.4100089456
-0.1024063220 -0.0488160065 -0.4103762903
-0.0998913407 -0.0488246404 -0.4107920024
-0.0764316171 -0.0144123314 -0.4295743704
-0.0985622265 -0.0488427919 -0.4138494056
-0.0516802333 -0.0700411126 -0.4248917997
-0.1471630931 -0.0285665666 -0.4024147093
-0.0915870564 -0.0514488630 -0.4128227026
-0.0922085361 -0.0489552011 -0.4134473911
-0.0870406810 -0.0487370676 -0.4150855980
-0.0793005942 -0.0484004199 -0.4157935494
-0.0748458981 -0.0468856397 -0.4162999210
-0.0722830428 -0.0466513621 -0.4162650199
-0.0669009084 -0.0462055461 -0.4158509691
-0.1132577285 -0.0745764151 -0.3960835934
-0.0925835148 -0.0603886005 -0.4103714079
-0.0642448640 -0.0468268738 -0.4164760670
-0.0607255953 -0.0495460372 -0.4281268905
-0.0668649023 -0.0487113308 -0.4162771563
-0.0569871756 -0.0687437372 -0.4173276071
-0.0823289254 -0.0590029585 -0.4135904839
-0.0586537802 -0.0518964635 -0.4360022236
-0.1617301702 -0.0531155132 -0.3970910311
-0.1551678321 -0.0489467700 -0.3958125223
-0.1277234706 -0.0492505876 -0.4008421500
-0.0960294977 -0.0306991953 -0.4198519588
-0.1246801205 -0.0495465212 -0.4039399176
-0.1219485467 -0.0509742812 -0.4056239198
-0.0971218511 -0.0501011964 -0.4137162780
-0.0842358500 -0.0491450829 -0.4133368197
-0.0876399204 -0.0389916562 -0.4167902023
-0.0785625400 -0.0494273711 -0.4173969735
-0.1003941000 0.0001568416 -0.4243319929
-0.0744316701 -0.0488921533 -0.4171309568
-0.1224730834 -0.0342000003 -0.4064676464
-0.0625250996 -0.0488256893 -0.4204788923
-0.0771518144 -0.0659956111 -0.4091466957
-0.0584320146 -0.0529156492 -0.4346135619
-0.0495305465 -0.0572258852 -0.4507457869
-0.0995746106 -0.0189024284 -0.4223327041
-0.1641855256 -0.0518056070 -0.3985712573
-0.0552373292 -0.0760063226 -0.4206041389
-0.1575657765 -0.0500592586 -0.3943693446
