-3.8449935118 -2.4279383024 -2.0878215631
-3.8071994456 -2.3882614825 -2.0647267529
-3.8579335873 -2.3986212401 -2.1882163878
-3.8589001031 -2.4415587722 -2.0967808870
-3.8877997232 -2.3866854566 -2.1299652131
-3.7897175743 -2.3776543986 -2.1147249483
-3.7809081809 -2.3858076780 -2.0922595572
-3.8866815636 -2.3859745120 -2.1533799205
-3.8035533625 -2.3870199202 -2.0671751203
-3.8852001309 -2.4149073942 -2.1272735405
-3.8420515651 -2.4295189165 -2.0801624008
-3.7838206895 -2.3996396815 -2.0691610730
-3.8843415549 -2.3903341374 -2.1292313627
-3.8342654570 -2.4069209423 -2.0730635503
-3.8561816978 -2.3814648820 -2.1497676980
-3.7905313837 -2.3772919549 -2.1037570328
-3.8499667943 -2.3864896041 -2.0950509281
-3.8650039533 -2.3837177869 -2.1278301423
-3.8770369612 -2.3893216549 -2.1200467615
-3.8547368889 -2.4065170922 -2.0952319720
-3.8784313202 -2.4471583366 -2.1529264450
-3.7585162587 -2.3771744209 -2.1117719052
-3.8723596042 -2.4422920174 -2.1095825398
-3.8154835014 -2.4433446996 -2.0653604237
-3.7663099192 -2.3777206366 -2.1034172498
-3.8496202694 -2.3944031617 -2.0923558868
-3.7858177342 -2.3769714110 -2.1454163506
-3.8627255805 -2.4355243098 -2.1090499976
-3.9022373750 -2.4254551051 -2.1651509985
-3.8679428101 -2.4464378357 -2.1219317913
-3.8882524048 -2.4365729270 -2.1677026051
-3.8849271626 -2.4287876237 -2.1290717089
-3.8283190727 -2.3946871758 -2.0682079792
-3.7978995236 -2.3782779490 -2.1303555286
-3.8700931772 -2.3828089112 -2.1346202236
-3.8895597921 -2.4182794137 -2.1860559714
-3.7423088330 -2.3928978193 -2.1023934037
-3.8598224006 -2.4063377999 -2.1868072206
-3.8067480790 -2.3740196574 -2.1626774514
-3.8219098643 -2.4150075564 -2.0599865647
-3.8629383424 -2.4099515846 -2.1927612059
-3.7906887036 -2.3956915459 -2.0770316198
-3.8373050750 -2.3870078921 -2.0750108483
-3.8591018968 -2.3816538779 -2.1602527717
-3.8221882358 -2.3756872699 -2.1648784248
-3.8341844153 -2.4245495903 -2.0675036606
-3.8446812447 -2.3821176534 -2.1378500365
-3.8348088325 -2.4199159117 -2.0743819138
-3.8075350748 -2.3769164080 -2.1479979905
-3.8496370437 -2.4318330707 -2.0923367519
-3.8500830950 -2.3994761258 -2.0925010409
-3.8345537038 -2.3843792699 -2.0801109095
-3.8910078804 -2.3946007672 -2.1339798784
-3.8319098309 -2.4118506096 -2.0704268783
-3.7609769615 -2.3809991491 -2.0977447644
-3.8668442024 -2.3888866711 -2.1080234600
-3.7809640056 -2.3963731259 -2.0841257020
-3.8369871224 -2.3923103145 -2.0747673861
-3.7721533205 -2.3731138983 -2.1118574646
-3.8220158410 -2.4062307565 -2.0574879256
-3.8726745856 -2.3868478192 -2.1129031454
-3.8673690507 -2.4272422831 -2.1116844430
-3.8372120818 -2.3823656635 -2.1356949901
-3.8638299637 -2.4239819927 -2.1034064698
-3.8617784191 -2.3827970022 -2.1350692454
-3.8095126394 -2.3801580003 -2.0960928405
-3.8323760914 -2.4217650882 -2.0699772573
-3.8546998855 -2.3839939127 -2.1075449042
-3.8823985902 -2.4136825771 -2.1266853500
-3.8876508830 -2.4355526857 -2.1473639952
-3.8155606911 -2.4116132257 -2.0552145976
-3.8543818469 -2.4264665884 -2.0966523950
-3.8539279150 -2.4012955010 -2.0906336912
-3.8790380202 -2.4126603015 -2.1205054669
-3.8930157541 -2.4101282859 -2.1423024090
-3.7820287121 -2.3917064240 -2.0792378524
-3.8196432256 -2.3737469564 -2.1843417609
-3.8249500775 -2.4313086500 -2.0569739302
-3.8693237863 -2.3897435808 -2.1099179417
-3.8648666603 -2.4148956665 -2.1074393894
-3.7682915434 -2.4022083682 -2.0842884866
-3.8544342839 -2.3884354642 -2.1935052452
-3.8463604827 -2.3801714086 -2.1831043914
-3.8576740989 -2.3812804562 -2.1535618840
-3.8872653967 -2.4103219251 -2.1366650093
-3.8306096543 -2.3758432620 -2.1765801717
-3.8870813149 -2.3873792924 -2.1366161347
-3.8896158963 -2.4297580536 -2.1327100277
-3.8751084134 -2.4173579370 -2.1176273774
-3.8187640495 -2.3806759154 -2.1179945075
-3.8215744749 -2.3753788719 -2.1533608219
-3.8642244649 -2.3823820680 -2.1495333536
-3.8700578102 -2.3866332367 -2.1148797014
-3.8865530330 -2.4198654525 -2.1270341802
-3.7950932666 -2.3754278413 -2.1551743940
-3.8846822105 -2.3871469523 -2.1272289449
-3.8902192944 -2.3958481816 -2.1544992600
-3.8566379565 -2.4159698653 -2.0952205734
-3.8822380019 -2.4149129363 -2.1842780921
-3.8903813661 -2.4003735003 -2.1607101304
-3.8089601955 -2.3800612321 -2.1448840898
-3.8844252767 -2.4391941327 -2.1477262872
-3.8444369858 -2.3775917187 -2.1826181505
-3.8121706336 -2.3836381026 -2.0675061582
-3.8318476190 -2.3819023580 -2.1520118162
-3.8094785619 -2.3834798768 -2.0692781687
-3.8471471982 -2.3897148778 -2.0869986441
-3.8543012995 -2.4371316930 -2.0953376714
-3.8791586427 -2.3841493620 -2.1296401982
-3.8193977896 -2.3759546986 -2.1867433553
-3.7828075037 -2.3746901791 -2.1243678510
-3.8417123716 -2.4208411974 -2.0848524592
-3.8486774588 -2.4347992623 -2.0874571863
-3.7963140408 -2.3791204952 -2.1027880284
-3.7803853991 -2.3776719039 -2.1079433695
-3.8326347290 -2.3749542835 -2.1816311805
-3.8917366368 -2.4073342459 -2.1567660930
-3.8217512496 -2.3854032992 -2.0648569393
-3.8719946788 -2.4398401000 -2.1104482420
-3.8973277698 -2.4246345280 -2.1394741610
-3.8395355158 -2.4015719014 -2.0778114578
-3.8089701892 -2.4083536211 -2.0558325981
-3.8512236195 -2.3819605200 -2.1350121613
-3.8370585197 -2.3813883001 -2.1418981857
-3.8924827576 -2.4161813259 -2.1618585587
-3.8249569912 -2.3775488024 -2.1661605620
-3.8657661557 -2.3822356065 -2.1577654096
-3.7708652667 -2.3783927308 -2.1006050297
-3.8147197576 -2.3835501687 -2.0962374369
-3.7629872977 -2.3756233967 -2.1090825697
-3.8727411742 -2.4241349259 -2.1141018787
-3.7787787652 -2.3768859791 -2.1105634699
-3.8692323480 -2.4224274781 -2.1131419087
-3.8019888210 -2.3761019751 -2.1434463891
-3.8689083998 -2.4290636085 -2.1099481393
-3.8090849994 -2.4558339067 -2.0723064285
-3.7772921737 -2.3737905563 -2.1024503960
-3.8839176789 -2.3919894833 -2.1626360464
-3.7778566956 -2.3867681589 -2.0905295686
-3.8925412160 -2.4319422928 -2.1540304164
-3.8263198183 -2.3771209318 -2.1881626515
-3.8978266731 -2.4134511012 -2.1569128943
-3.8668400505 -2.4462296161 -2.1333980823
-3.8287790102 -2.3860160508 -2.0711478469
-3.8852241753 -2.3923141839 -2.1273303864
-3.7809757641 -2.3730062045 -2.1349221597
-3.8713002205 -2.4435513020 -2.1092905998
-3.8191066743 -2.3814591338 -2.0959063831
-3.8973280354 -2.4198921942 -2.1443126244
-3.8620852393 -2.4096498503 -2.1055658589
-3.8470687984 -2.4293409421 -2.0897549565
-3.8568530585 -2.3844199519 -2.1760276446
-3.8521196646 -2.4199204169 -2.0976341451
-3.8381855488 -2.4093530178 -2.0741541386
-3.8444573171 -2.3773928820 -2.1605436313
-3.8256907463 -2.4072349072 -2.0622293949
-3.8596587220 -2.4184802715 -2.1042727474
-3.8439149469 -2.4126827316 -2.0754660863
-3.8307554437 -2.3783731493 -2.1663903238
-3.8970739710 -2.4210037597 -2.1701169913
-3.7576937461 -2.3872204648 -2.0976828711
-3.8195850062 -2.3821133319 -2.0743442421
-3.8975471258 -2.4297012091 -2.1618589163
-3.8428114548 -2.4018513484 -2.0826418155
-3.8653145461 -2.3844071156 -2.1655082224
-3.8721927449 -2.4034500029 -2.1124808120
-3.8922030615 -2.3972030929 -2.1556728222
-3.7511159255 -2.3983795146 -2.0852623203
-3.8887530468 -2.3892238542 -2.1279980524
-3.8624399481 -2.4121484804 -2.1868757261
-3.8575413823 -2.4100798965 -2.0982058048
-3.8472895926 -2.4317731227 -2.0847094675
-3.8531016661 -2.3803542842 -2.1545518667
-3.8752583757 -2.4447935976 -2.1424398878
-3.7930729695 -2.3776619032 -2.1083337700
-3.8612951945 -2.4366066523 -2.1002044565
-3.8246717494 -2.3824868541 -2.0858412503
-3.8788061142 -2.4391894341 -2.1253952980
-3.7566457935 -2.4004134442 -2.0870505422
-3.8902415064 -2.4199128375 -2.1371074687
-3.8201097175 -2.3803340445 -2.1360292723
-3.8841408053 -2.4398590862 -2.1451117670
-3.8109805503 -2.3755832252 -2.1699829885
-3.8923835774 -2.4143592475 -2.1702092574
-3.8225746373 -2.3755339772 -2.1887546733
-3.8498755951 -2.4246567020 -2.0897230485
-3.8992847031 -2.4226509260 -2.1572143904
-3.8425372485 -2.3797365657 -2.1585145258
-3.8871356880 -2.4246224502 -2.1302214917
-3.7639461650 -2.3729154669 -2.1051718656
-3.8398330754 -2.3849016125 -2.0826535223
-3.8468086049 -2.4317525113 -2.0877874990
-3.8402528056 -2.4170457184 -2.0800871284
-3.7788735798 -2.3902513312 -2.0897574576
-3.8508836895 -2.4330348555 -2.0834133170
-3.8878634493 -2.4170342924 -2.1319883972
-3.8748879408 -2.4074209110 -2.1224082224
-3.8849871464 -2.3996807255 -2.1297486267
-3.8525027934 -2.3975083051 -2.0949310675
-3.8400806670 -2.3827606650 -2.1158003819
-3.8854059038 -2.4272788327 -2.1300694620
-3.8615911612 -2.4194493922 -2.1028769856
-3.8336114627 -2.3865724990 -2.0707654018
-3.8558175564 -2.3942359686 -2.0993758440
-3.8696672290 -2.3993251150 -2.1166490620
-3.7945616725 -2.3776179683 -2.1308787307
-3.8873174495 -2.3923890742 -2.1298223605
-3.7884905319 -2.3774734653 -2.1553273365
-3.8613953805 -2.3915918705 -2.1756313978
-3.8655877060 -2.3828659494 -2.1320546924
-3.8717336318 -2.4423125148 -2.1203144478
-3.8109450194 -2.3812174103 -2.1346523950
-3.8546708939 -2.3816366179 -2.1477369595
-3.8770188609 -2.4386791214 -2.1174250476
-3.8634264132 -2.4124434098 -2.1917668557
-3.8043793168 -2.3972031314 -2.0596431880
-3.7842744683 -2.3765799966 -2.1361229763
-3.8905109905 -2.4341084602 -2.1643075597
-3.8975864813 -2.4192674611 -2.1517120948
-3.8432741068 -2.3841009704 -2.1292385820
-3.8484899692 -2.4085205356 -2.0851291599
-3.8519538244 -2.3846984505 -2.1898390337
-3.8461003304 -2.4331591129 -2.0813164711
-3.8265598898 -2.3954531499 -2.0636681810
-3.8332414627 -2.4145712852 -2.0667989254
-3.8046268854 -2.3728306826 -2.1608578564
-3.8892081937 -2.3896518273 -2.1319051269
-3.7749817982 -2.3760826870 -2.1119981323
-3.8060038090 -2.4523112774 -2.0703201294
-3.8506357315 -2.3833910202 -2.0905876562
-3.8740365346 -2.4122128070 -2.1198862399
-3.7984920252 -2.3889856028 -2.0715777433
-3.8802731195 -2.4270318656 -2.1227616715
-3.8004611022 -2.3792809686 -2.1032808070
-3.8106966048 -2.3821190994 -2.0764933814
-3.8717187370 -2.4194086415 -2.1178253683
-3.8873618561 -2.4132133304 -2.1364757092
-3.8585779486 -2.4156969902 -2.0951326682
-3.8121155734 -2.3802545637 -2.1574086212
-3.8689723764 -2.3977002281 -2.1102073305
-3.8947955687 -2.4113896707 -2.1638561528
-3.8889785454 -2.3865480004 -2.1455018455
-3.8752309853 -2.4191128191 -2.1221633810
-3.8178280963 -2.3790284338 -2.1453185445
-3.7792576418 -2.3739947678 -2.1437026717
-3.8275518028 -2.4256772395 -2.0618218377
-3.8823214849 -2.3882444870 -2.1599391421
-3.8636569244 -2.4139259891 -2.1023149160
-3.8894949725 -2.3922592317 -2.1546205930
-3.8816673539 -2.4139854634 -2.1817930055
-3.8689959701 -2.4107320390 -2.1109080303
-3.8907442112 -2.3944007682 -2.1475638747
-3.8121272985 -2.4105191189 -2.0552660557
-3.8256409970 -2.4208885033 -2.0579776474
-3.7901414636 -2.3978401603 -2.0716720262
-3.8819836284 -2.3848887660 -2.1276075585
-3.8675380713 -2.3831191278 -2.1298872664
-3.7865984347 -2.3771966168 -2.1090415738
-3.7610592732 -2.3884171335 -2.0932765746
-3.8947050866 -2.4144994590 -2.1678620498
-3.8444815276 -2.3945564633 -2.0851904485
-3.8469678602 -2.3995821004 -2.0881131623
-3.8894707027 -2.4011804593 -2.1637562889
-3.9000975553 -2.4199823051 -2.1693349197
-3.8432325741 -2.3837690926 -2.0971567824
-3.8623660911 -2.3832000981 -2.1614276485
-3.8139390679 -2.3794526518 -2.1056159451
-3.8547992805 -2.4089687173 -2.0971606081
-3.8549909537 -2.3851742954 -2.1795403260
-3.8967710470 -2.4291945719 -2.1546737641
-3.8991314767 -2.4204890661 -2.1570689670
-3.8293466558 -2.3771266957 -2.1796977562
-3.8719620260 -2.4195614425 -2.1145031349
-3.7554494783 -2.4045618833 -2.0808040146
-3.8744416838 -2.4071324993 -2.1200325322
-3.8017822712 -2.3798929081 -2.1115450606
-3.8988601746 -2.4242273240 -2.1452456155
-3.8947318257 -2.4047485366 -2.1519607818
-3.8319994388 -2.3823935181 -2.1024787598
-3.8936182979 -2.4092703716 -2.1346761469
-3.8863279971 -2.4046416425 -2.1274057766
-3.8738015083 -2.3871373063 -2.1153923464
-3.8937947288 -2.4142737066 -2.1378159560
-3.8760936243 -2.4137444816 -2.1832027378
-3.7474332478 -2.4016717454 -2.0845962760
-3.7627451356 -2.3774937737 -2.1061628613
-3.8812942705 -2.4436815396 -2.1361542853
-3.8712480229 -2.4319047782 -2.1146113585
-3.7673030117 -2.3795367466 -2.0964535267
-3.8115849904 -2.4460996172 -2.0748879635
-3.8870913616 -2.4402132123 -2.1640679420
-3.7491528568 -2.3963689515 -2.0961144002
-3.8372418615 -2.4297703321 -2.0770988521
-3.8272448362 -2.4279365935 -2.0617684379
-3.8844744407 -2.4119172005 -2.1246299749
-3.8694005176 -2.4371123852 -2.1123137277
-3.8871266470 -2.4316857477 -2.1300417904
-3.8045191179 -2.3793498504 -2.1405689248
-3.8240567716 -2.3767919125 -2.1406164493
-3.8517861024 -2.4042874176 -2.0943521508
-3.8795707069 -2.4427980734 -2.1289420242
-3.7982706062 -2.4478276906 -2.0667563840
-3.8174240177 -2.4037018199 -2.0576720697
-3.8366988988 -2.3831209679 -2.1073590472
-3.8266763214 -2.3806745612 -2.1401844384
-3.8327750365 -2.4271795750 -2.0657769839
-3.8568937777 -2.4391798372 -2.0973888095
-3.8792904891 -2.3945336088 -2.1232705501
-3.8428708976 -2.3949551559 -2.0841657893
-3.8650206629 -2.4022809867 -2.1117656556
-3.8078464110 -2.3801816122 -2.1552358786
-3.8939189790 -2.4032012972 -2.1421214675
-3.8296029441 -2.4292123068 -2.0623324263
-3.8810433844 -2.4281239776 -2.1206498574
-3.8830860240 -2.4170418523 -2.1326880478
-3.8164168158 -2.3726971090 -2.1738287369
-3.8718662674 -2.4146848097 -2.1102076451
-3.8444435928 -2.4044446961 -2.0825601450
-3.8549117975 -2.4038834500 -2.0971484925
-3.8699129472 -2.4443122937 -2.1216324011
-3.7836426369 -2.3762699369 -2.1062602027
-3.8674246630 -2.4344804643 -2.1100083018
-3.8963083771 -2.4228235654 -2.1755327110
-3.8838498360 -2.3849359186 -2.1294454007
-3.8843976222 -2.3988253279 -2.1254400384
-3.8436801514 -2.4149437237 -2.0806814105
-3.8163677810 -2.3836567544 -2.0683447203
-3.7695594376 -2.3741788347 -2.1136687021
-3.7714055114 -2.3824324490 -2.0926054267
-3.8846165624 -2.4048282169 -2.1728937394
-3.8770650577 -2.4347986916 -2.1176443271
-3.8720775782 -2.4345800488 -2.1170512439
-3.8526348797 -2.4062635048 -2.0969710909
-3.8551861194 -2.3912861650 -2.0972719040
-3.8475155604 -2.3827607190 -2.1912141559
-3.8323204306 -2.4321645950 -2.0722222619
-3.8674574838 -2.4018037187 -2.1123096919
-3.7730179948 -2.4027109002 -2.0801180181
-3.8550456905 -2.3856874822 -2.1767053753
-3.8155144508 -2.3772658540 -2.1567564876
-3.8385447344 -2.4413410986 -2.0742200102
-3.8371898760 -2.3755727847 -2.1694479047
-3.8929677258 -2.4167133473 -2.1427529218
-3.8617042131 -2.4120097335 -2.1954478251
-3.8171595623 -2.3926688540 -2.0603718146
-3.8848362486 -2.4105823069 -2.1253131226
-3.8557633636 -2.3965735807 -2.1870912933
-3.8841448026 -2.4346435731 -2.1302174066
-3.8489827878 -2.4273260178 -2.0906323456
-3.8687371435 -2.4344175770 -2.1121725196
-3.8509926196 -2.3869338032 -2.0903376142
-3.8920034971 -2.4325215268 -2.1476695643
-3.7778076003 -2.3750377944 -2.1302581760
-3.8262206820 -2.4266761611 -2.0586115982
-3.8301293306 -2.3835029922 -2.1084184120
-3.8774017312 -2.3848238562 -2.1269350620
-3.8513291854 -2.3831048897 -2.1120114924
-3.8321945426 -2.4336134924 -2.0625092624
-3.8039588252 -2.4215503089 -2.0507153534
-3.7934742622 -2.3774562984 -2.1354806299
-3.8242778798 -2.3825404945 -2.0976952426
-3.8053916581 -2.3753521398 -2.1689541423
-3.8598158978 -2.3880730779 -2.1747241848
-3.8798828983 -2.3918515614 -2.1230163197
-3.8668434692 -2.3991321241 -2.1098184760
-3.8401572704 -2.4247846603 -2.0802270174
-3.7733752275 -2.3878560907 -2.0898305992
-3.8373326528 -2.4195287737 -2.0749784825
-3.8403977315 -2.3793833894 -2.1407774989
-3.8364790585 -2.4116600986 -2.0773590114
-3.7481423773 -2.3939684790 -2.0929059226
-3.7750357622 -2.3756014546 -2.1325067526
-3.8618370570 -2.4253488222 -2.1032271626
-3.8314380661 -2.3823054209 -2.1069157048
-3.8744961996 -2.4293443396 -2.1180390550
-3.8995994930 -2.4224787859 -2.1519823055
-3.8245874839 -2.3831984837 -2.0685744137
-3.8102196215 -2.3798597868 -2.0904273007
-3.8446393537 -2.4020368688 -2.0848836902
-3.8624598697 -2.3830744981 -2.1289434929
-3.8825410518 -2.4398541682 -2.1418851370
-3.9043450845 -2.4272053345 -2.1542481587
-3.8488385383 -2.4116185166 -2.0855229151
-3.8368414062 -2.4238992737 -2.0746697745
-3.8949519564 -2.4170283791 -2.1593908685
-3.8321306390 -2.3821368050 -2.1206065389
-3.8783365797 -2.4033512996 -2.1745297363
-3.8269316360 -2.4176508702 -2.0625434242
-3.7968983576 -2.3902920241 -2.0805345254
-3.8544912172 -2.4019947218 -2.0973135834
-3.8997480083 -2.4222178122 -2.1646966075
-3.8844491246 -2.4057077203 -2.1252589304
-3.7770090560 -2.4087524166 -2.0785881617
-3.8399280537 -2.3872479696 -2.0801748045
-3.8845026808 -2.4299384735 -2.1245656318
-3.8225988353 -2.3827298072 -2.0877507170
-3.8561428845 -2.4269367530 -2.0977524560
-3.8842771836 -2.3899771117 -2.1341500971
-3.8734881575 -2.4440899490 -2.1076546946
-3.8565241159 -2.3851630961 -2.1027308013
-3.8921608458 -2.3946703862 -2.1522632470
-3.8288549642 -2.4395175141 -2.0700843792
-3.8852588763 -2.4172550284 -2.1278929261
-3.8646816713 -2.4324228202 -2.1068027673
-3.8866226673 -2.4263024330 -2.1273870468
-3.8738106479 -2.4194192277 -2.1150788531
-3.8136582931 -2.4411518242 -2.0634090989
-3.8641774274 -2.4417026562 -2.1092121244
-3.8103076481 -2.3767393651 -2.1794299897
-3.8866644978 -2.4390681225 -2.1565636088
-3.8745026986 -2.4141738498 -2.1153583358
-3.8428026031 -2.3894895471 -2.0827638001
-3.8153405440 -2.3743838881 -2.1493375037
-3.8244743678 -2.3781891455 -2.1717256340
-3.8792299047 -2.3981474891 -2.1702123562
-3.8839984576 -2.4339672324 -2.1246707008
-3.8877660529 -2.3879260257 -2.1468165516
-3.8296110101 -2.4169436636 -2.0628568573
-3.7648889961 -2.3770134102 -2.1094141896
-3.8919141799 -2.4099105844 -2.1566634989
-3.8422425891 -2.4048772347 -2.0823393218
-3.8887506591 -2.4174620304 -2.1787661181
-3.8721475801 -2.4421647834 -2.1271212774
-3.7988367410 -2.3791515244 -2.1157548555
-3.8361225920 -2.3766054597 -2.1461469017
-3.8771173163 -2.4387786461 -2.1207039259
-3.8214728131 -2.3797200496 -2.0906132787
-3.8872327343 -2.4142808751 -2.1320314729
-3.8092846653 -2.3816323881 -2.1286277654
-3.8421954337 -2.4044752688 -2.0805829989
-3.8903412799 -2.4075047065 -2.1671992123
-3.8117756820 -2.3931142228 -2.0586744830
-3.8693091400 -2.3921848375 -2.1122434371
-3.8230997423 -2.3929484309 -2.0633701829
-3.8593822516 -2.3831786260 -2.1233239866
-3.8185742970 -2.4432908551 -2.0697614986
-3.8339274338 -2.4313129802 -2.0728263650
-3.8135576938 -2.3955739888 -2.0583318811
-3.8427352206 -2.4274702180 -2.0816667093
-3.8777946742 -2.4478404067 -2.1399891244
-3.8046918084 -2.3747708811 -2.1465370841
-3.8239552929 -2.4096263594 -2.0581955759
-3.8836779462 -2.4413167414 -2.1464443004
-3.8487607084 -2.4293491460 -2.0905859325
-3.8775260446 -2.3944051646 -2.1199252927
-3.8418567251 -2.4091827545 -2.0803444493
-3.7991971837 -2.4041723785 -2.0591795543
-3.8301941475 -2.3827642278 -2.1250446837
-3.8518993619 -2.3825694495 -2.1245388653
-3.8953125639 -2.4172324550 -2.1567538768
-3.8943532322 -2.4157522888 -2.1574791708
-3.8748420481 -2.3980853110 -2.1194460859
-3.8542193023 -2.4240439252 -2.0967343481
-3.8726040667 -2.4069420908 -2.1166053355
-3.8445703128 -2.3811920379 -2.1530710398
-3.8086331925 -2.4482222382 -2.0690240255
-3.8290091742 -2.3870230580 -2.0654891538
-3.8760785891 -2.3871574578 -2.1145903577
-3.8318263202 -2.4155737585 -2.0653583174
-3.8504723705 -2.3850048256 -2.1819594769
-3.7647746014 -2.4049049828 -2.0827930075
-3.8398641826 -2.4163290674 -2.0752215840
-3.8010418426 -2.3870186737 -2.0708138732
-3.7987167997 -2.3861257586 -2.0761611828
-3.7930116282 -2.3757172857 -2.1434047789
-3.8383934164 -2.3793558312 -2.1268280233
-3.7783974277 -2.3938501557 -2.0921004112
-3.8571205836 -2.4298084572 -2.0980529721
-3.8794762121 -2.4418347022 -2.1403532552
-3.8021170042 -2.3752992889 -2.1659678251
-3.8172368770 -2.3782026478 -2.1626671917
-3.8010742786 -2.3870776928 -2.0786446463
-3.8398473127 -2.3879036469 -2.0757149977
-3.7882095483 -2.3874953930 -2.0861994625
-3.8498254186 -2.4362684812 -2.0919896961
-3.7474093535 -2.3941921580 -2.1084772343
-3.8487105775 -2.3823578761 -2.1228118159
-3.8943865127 -2.3882936860 -2.1468741598
-3.8814066110 -2.3973726330 -2.1250319346
-3.7788189537 -2.3885756066 -2.0925865705
-3.8387609720 -2.4277226925 -2.0745588541
-3.8617952075 -2.4275938085 -2.1031124697
-3.8350213724 -2.3825863137 -2.1222487482
-3.8521154001 -2.4312834073 -2.0944676152
-3.8412865266 -2.3834382091 -2.1058191634
-3.8422201037 -2.4019551091 -2.0804928439
-3.8749551666 -2.4246628469 -2.1172281535
-3.8185163309 -2.4472637994 -2.0654816485
-3.8878864123 -2.4181448395 -2.1377220403
-3.8324471236 -2.3898493529 -2.0723887308
-3.8226766960 -2.4287521449 -2.0571538893
-3.8502623160 -2.4141332433 -2.0942578627
-3.8603247333 -2.4348300381 -2.1065152756
-3.8244973835 -2.4350893622 -2.0598398649
-3.8529306650 -2.4168264866 -2.0904339552
-3.8918614121 -2.3997281686 -2.1402930331
-3.8637984895 -2.4168050433 -2.1025252073
-3.8538671321 -2.3945278322 -2.1832215310
-3.8794096708 -2.4470994473 -2.1581817865
-3.7759694084 -2.4075172746 -2.0748046968
-3.8792250156 -2.3869898319 -2.1271643639
-3.7995268814 -2.3792530019 -2.0983038918
-3.8613852100 -2.4048449435 -2.1774193862
-3.8230234418 -2.3879129857 -2.0656684685
-3.8412331059 -2.3767399947 -2.1596700769
-3.7906853265 -2.4061436062 -2.0625117327
-3.8389043039 -2.3991004942 -2.0779972169
-3.8086234663 -2.3800139291 -2.1228299086
-3.8302898692 -2.4044892928 -2.0697086143
-3.8321290534 -2.3806139203 -2.1459431982
-3.8894758874 -2.4146178537 -2.1320874242
-3.8187092902 -2.3819450431 -2.0798477387
-3.8049420885 -2.3768984130 -2.1523320414
-3.7724762590 -2.3861236656 -2.0932369896
-3.8418892002 -2.4241179332 -2.0806435960
-3.8448342432 -2.3809120775 -2.1941891246
-3.8322739171 -2.4092727067 -2.0722761666
-3.8346549672 -2.4096429231 -2.0729398194
-3.7434161254 -2.4025217280 -2.0889375653
-3.8749348225 -2.3872604129 -2.1611549794
-3.8744642515 -2.4321978174 -2.1177698900
-3.7789524944 -2.3931773075 -2.0895132707
-3.8849016153 -2.4349772463 -2.1322939685
-3.7928522155 -2.4137844372 -2.0578046976
-3.8448986761 -2.4349315464 -2.0847418747
-3.8475768203 -2.3773702843 -2.1738449979
-3.8357174156 -2.3803783754 -2.1558029917
-3.8500515131 -2.4274083703 -2.0922799996
-3.8977144588 -2.4253076030 -2.1544566941
-3.8840241144 -2.4153799890 -2.1812005904
-3.8693526299 -2.4049284000 -2.1101095398
-3.8661534288 -2.4411512364 -2.1095899956
-3.8165592372 -2.4054543054 -2.0560445800
-3.7997638483 -2.3824137032 -2.0862338498
-3.8253433218 -2.3811104172 -2.1331542527
-3.8375868766 -2.3771582496 -2.1833682174
-3.8384275935 -2.3802933772 -2.1554553812
-3.8716750292 -2.3836137479 -2.1324349389
-3.8826365471 -2.4414753914 -2.1422843933
-3.8549443971 -2.4368135520 -2.0977496032
-3.7788641241 -2.4013467984 -2.0719975230
-3.8623495636 -2.4243469394 -2.1047408039
-3.7846947879 -2.3819602841 -2.1579820894
-3.8488462420 -2.4298485752 -2.0874822189
-3.8669491302 -2.4091011791 -2.1142869604
-3.8686892562 -2.4117212812 -2.1902976015
-3.8875113955 -2.4365636077 -2.1565931276
-3.8621477621 -2.4317402847 -2.1065278892
-3.8517214033 -2.4350625905 -2.0929262706
-3.7959309281 -2.3787783970 -2.1101707631
-3.7881862815 -2.3852366254 -2.1630906475
-3.8298839909 -2.3804873049 -2.1431629747
-3.8429696560 -2.4441268444 -2.0738198757
-3.8292533236 -2.4263604447 -2.0630492731
-3.8950360047 -2.4219940909 -2.1447582606
-3.8519829268 -2.4028211971 -2.0934743565
-3.8998940969 -2.4275781903 -2.1582050919
-3.7410577830 -2.3970800501 -2.0993176518
-3.8453192711 -2.4269299507 -2.0849332015
-3.8225813438 -2.3823254224 -2.1113198853
-3.8748052050 -2.4045058437 -2.1218127099
-3.7922102377 -2.3944186525 -2.0803873472
-3.8601382273 -2.4175090094 -2.1021982453
-3.7747244463 -2.3808799937 -2.0941764601
-3.8797613070 -2.4094747989 -2.1228749736
-3.8751315751 -2.4219556004 -2.1223849631
-3.8651087761 -2.4250278759 -2.1119561198
-3.8560997865 -2.4327155901 -2.0914220847
-3.8648183766 -2.4373886608 -2.1095205628
-3.8636345808 -2.4120688247 -2.1968994235
-3.8413091898 -2.4044365883 -2.0773661137
-3.8406727532 -2.4426009766 -2.0793113248
-3.8622719592 -2.4400013581 -2.1070998446
-3.8657029394 -2.3806006611 -2.1516261524
-3.8500853173 -2.3903283669 -2.1983503654
-3.7968071844 -2.4027239379 -2.0605305774
-3.8780456971 -2.4459888142 -2.1345764938
-3.8367946298 -2.3765008964 -2.1489743115
-3.8883487395 -2.3933955394 -2.1623164845
-3.8676086631 -2.3820888931 -2.1496806900
-3.7875269853 -2.3764894487 -2.1184134232
-3.8370389682 -2.4069905140 -2.0748405215
-3.8769855521 -2.4411213655 -2.1324291326
-3.8941730457 -2.4148780125 -2.1450615761
-3.8847732544 -2.3904480139 -2.1256770293
-3.8565459644 -2.3982730677 -2.0942908575
-3.8043106135 -2.3791740504 -2.1228771597
-3.8904384321 -2.4025190149 -2.1548632319
-3.8666621195 -2.3916944438 -2.1080785133
-3.8601559381 -2.3832214500 -2.1246883840
-3.8378430083 -2.3783299353 -2.1787030348
-3.8780164719 -2.4484934807 -2.1509151459
-3.8789790914 -2.3944844370 -2.1206547861
-3.7586695524 -2.3787607706 -2.1159365440
-3.8663815270 -2.3948799985 -2.1043778812
-3.8498705165 -2.3800452207 -2.1772732884
-3.8892983550 -2.3904090638 -2.1386653109
-3.8324717409 -2.3892318035 -2.0701167303
-3.7931737439 -2.3766007154 -2.1380854613
-3.7847323025 -2.3768851367 -2.1506930524
-3.8333434195 -2.3809119895 -2.1555608164
-3.7603589543 -2.3778486458 -2.1239045334
-3.8716720172 -2.3832471844 -2.1352327330
-3.8341458227 -2.3794897584 -2.1677637435
-3.7835966004 -2.4085385128 -2.0774343050
-3.8560612929 -2.3825604187 -2.1253058935
-3.8872082006 -2.4147336345 -2.1348071426
-3.7724922032 -2.3933196793 -2.0846910743
-3.8447130528 -2.4193206262 -2.0844415509
-3.8672170105 -2.4321694692 -2.1102380486
-3.8894089693 -2.4340272361 -2.1424035107
-3.8926150424 -2.3877251607 -2.1488579500
-3.8225496963 -2.4274522519 -2.0551759192
-3.8847616273 -2.3867193369 -2.1301475948
-3.7930971341 -2.3734499481 -2.1607800147
-3.8880630874 -2.4065150821 -2.1351025245
-3.8878241369 -2.4196206393 -2.1349105722
-3.7734831576 -2.3728475283 -2.1032075259
-3.7933716910 -2.3927248975 -2.0773515293
-3.7801124575 -2.4037710735 -2.0879959987
-3.8522977649 -2.4063564686 -2.0942449305
-3.8696239519 -2.4165318956 -2.1074095254
-3.8223902848 -2.3773113639 -2.1774706246
-3.7989480762 -2.3819986169 -2.0884143824
-3.8253917549 -2.3825948941 -2.0894385227
-3.8696725654 -2.3968126245 -2.1149295641
-3.8661210537 -2.4351351261 -2.1085617542
-3.8447580794 -2.3857268577 -2.0876573402
-3.8525153902 -2.3872685009 -2.0976418510
-3.8608454736 -2.4079142983 -2.1798762325
-3.8975975955 -2.4273866683 -2.1549116727
-3.8209318080 -2.3819519771 -2.1031284945
-3.7636041319 -2.3738968569 -2.1203234585
-3.8198106121 -2.4236719166 -2.0545205781
-3.8787043095 -2.4396245480 -2.1278493404
-3.7874149950 -2.3748318072 -2.1518816449
-3.8524996380 -2.4241434957 -2.0922692752
-3.8606165741 -2.3827852136 -2.1674913619
-3.8236718720 -2.3825504608 -2.0751917329
-3.7815611671 -2.4106384397 -2.0650593957
-3.8415365146 -2.3765808124 -2.1802480419
-3.8213199261 -2.4097425859 -2.0574385080
-3.8396618195 -2.3939088576 -2.0777087578
-3.8003924268 -2.3776199795 -2.1503461856
-3.7956460223 -2.3764025500 -2.1614216150
-3.8922878850 -2.4302918515 -2.1419932468
-3.8894058106 -2.3915999125 -2.1350599015
-3.8486289349 -2.3807803364 -2.1552671837
-3.8561864318 -2.3905267951 -2.1762577786
-3.8172960156 -2.3762157336 -2.1798094319
-3.8860192129 -2.4384120647 -2.1349455683
-3.8446105055 -2.3918942787 -2.0829046037
-3.8849011214 -2.4409485521 -2.1367706735
-3.8543705026 -2.4168495325 -2.0931621476
-3.7690537481 -2.3736179694 -2.1084746061
-3.8347121992 -2.4044192984 -2.0728826904
-3.7735137922 -2.3745150807 -2.1307722914
-3.8380042727 -2.3797153886 -2.1635784571
-3.8439464477 -2.3962181501 -2.0820912957
-3.8261978002 -2.3836506817 -2.1092199502
-3.8425955826 -2.3833513175 -2.1103844535
-3.8676940447 -2.3975461387 -2.1123178773
-3.7765862898 -2.3726708017 -2.1280710524
-3.8597718087 -2.3858912063 -2.1026710717
-3.8288502256 -2.3773359239 -2.1756991825
-3.8410994997 -2.4286569819 -2.0774587140
-3.7739704964 -2.4069904097 -2.0789283592
-3.8264287914 -2.4111943479 -2.0651625789
-3.8950246526 -2.4175318992 -2.1666603860
-3.8864264130 -2.4364699328 -2.1427017878
-3.8644419182 -2.3885155222 -2.1057709631
-3.8900799733 -2.4071836547 -2.1401074973
-3.8165793516 -2.3802196258 -2.1356209482
-3.8093915056 -2.3730131924 -2.1655346411
-3.8930805138 -2.4154166611 -2.1579152066
-3.7799507801 -2.3751010019 -2.1126377643
-3.8451334809 -2.4370337425 -2.0817015594
-3.8925413374 -2.4076114613 -2.1518838064
-3.8722417610 -2.4222258499 -2.1151700733
-3.7670483269 -2.3725726209 -2.1182515626
-3.8161331870 -2.3818114925 -2.0806132775
-3.8590998559 -2.4250207175 -2.1001076938
-3.8918544482 -2.3998356441 -2.1554070439
-3.8909031036 -2.4020818637 -2.1704351819
-3.8891180401 -2.4095537544 -2.1322912643
-3.8625162249 -2.4019328003 -2.1090358153
-3.8548125459 -2.3921881906 -2.0952563647
-3.8743662559 -2.4182700176 -2.1129551840
-3.8691612058 -2.4273574478 -2.1105407130
-3.8874182510 -2.4051866190 -2.1377089387
-3.8835795955 -2.4138643266 -2.1863998249
-3.8899761834 -2.4025299845 -2.1673114984
-3.8696427806 -2.4195295777 -2.1132481352
-3.8588692389 -2.3979846785 -2.1853037970
-3.8850878219 -2.4293469561 -2.1269570174
-3.8842763702 -2.3875640103 -2.1564005166
-3.8079855338 -2.3792263416 -2.1513029017
-3.8386484530 -2.4214046894 -2.0733579553
-3.8485397693 -2.4030084311 -2.0875080280
-3.8450990622 -2.3812108279 -2.1462851309
-3.8264481272 -2.3829352605 -2.0807602612
-3.8868074936 -2.4025137048 -2.1326678764
-3.8324958086 -2.4042328596 -2.0707696676
-3.8024132860 -2.3859824568 -2.0737227447
-3.7864516104 -2.3732552270 -2.1437780828
-3.7751322394 -2.3790288736 -2.1432795799
-3.8823965426 -2.4229631111 -2.1204120984
-3.8759332225 -2.3914860716 -2.1654046992
-3.8915506735 -2.4127114395 -2.1380106294
-3.7829241948 -2.3765573248 -2.1093181791
-3.8747721975 -2.4370919279 -2.1175130209
-3.8727637719 -2.4017337766 -2.1154597309
-3.8936688900 -2.4286835194 -2.1399614811
-3.8297320908 -2.4113028814 -2.0653033616
-3.8796359121 -2.4173706631 -2.1226939420
-3.8868106564 -2.3990416503 -2.1300082940
-3.8772903109 -2.4220008214 -2.1221413628
-3.8705558602 -2.3910828302 -2.1173047704
-3.7594822263 -2.3792673380 -2.1104896496
-3.8941016886 -2.4127564310 -2.1442631964
-3.8319209226 -2.3871025732 -2.0722811923
-3.8186802151 -2.3819683593 -2.0886664969
-3.8245943368 -2.4064044672 -2.0578808596
-3.8745452583 -2.4070731530 -2.1177503043
-3.8906949568 -2.3973202777 -2.1518520891
-3.8021254574 -2.3804396630 -2.1160078347
-3.8536471678 -2.4343309233 -2.0958072344
-3.8237154900 -2.3807627287 -2.1383083246
-3.8367012213 -2.3971798755 -2.0779259477
-3.8898023233 -2.4094282427 -2.1397295170
-3.7723146078 -2.4010357689 -2.0854616496
-3.8872559071 -2.4395313263 -2.1539974213
-3.8418086551 -2.3812354899 -2.1431048605
-3.8327023538 -2.4321376218 -2.0674369397
-3.8312888223 -2.4172071653 -2.0781332058
-3.8194435100 -2.3914958752 -2.0627296259
-3.8911901210 -2.4341266759 -2.1371600967
-3.7870536110 -2.3867209672 -2.0879699574
-3.8698335126 -2.3891143244 -2.1144305049
-3.8269748420 -2.4025045223 -2.0632394600
-3.7878308414 -2.3771554975 -2.1527558378
-3.8568056770 -2.4121369563 -2.0976711456
-3.8852849054 -2.3857415701 -2.1326134913
-3.8688845900 -2.4411026355 -2.1090576061
-3.8439203166 -2.4243663450 -2.0806990488
-3.8438933237 -2.4394045456 -2.0749371336
-3.8350489864 -2.4359320581 -2.0674905452
-3.8925194349 -2.4138847842 -2.1442349090
-3.8910126686 -2.4070992470 -2.1636676788
-3.8901419055 -2.4114460928 -2.1728793471
-3.7391907054 -2.3935564052 -2.1035125110
-3.8766721054 -2.3998852003 -2.1180987541
-3.8696432546 -2.3991998729 -2.1150096753
-3.8924108086 -2.4143072098 -2.1400721462
-3.8925407247 -2.4100963348 -2.1401739326
-3.8715140820 -2.4378447533 -2.1113078594
-3.8615995800 -2.4120815242 -2.1054042010
-3.8624562864 -2.4148004106 -2.1048920153
-3.8700213091 -2.4019106095 -2.1145778778
-3.8718183721 -2.4096902915 -2.1171888569
-3.8403428841 -2.4202946105 -2.0775564828
-3.8773112568 -2.3894578301 -2.1218965363
-3.8363100499 -2.4013549037 -2.0728160072
-3.8862908651 -2.4077221136 -2.1281940385
-3.8924684578 -2.4023847478 -2.1452223949
-3.8555490003 -2.3819991146 -2.1327893884
-3.8186311947 -2.3808555360 -2.1331359741
-3.8245406138 -2.3826647362 -2.0829812899
-3.8523767696 -2.4032827490 -2.0973948456
-3.8522243391 -2.3786746736 -2.1449456941
-3.7592107637 -2.3985035123 -2.0905681245
-3.8344400480 -2.3746512366 -2.1845026939
-3.8203993600 -2.3848252190 -2.0782516195
-3.8872560217 -2.4270275966 -2.1299631496
-3.7702760832 -2.3751981234 -2.1303968573
-3.8645204806 -2.4317063408 -2.1090156259
-3.9001587016 -2.4245747587 -2.1521549881
-3.8576196525 -2.4012329774 -2.1937893084
-3.8063547637 -2.3801067075 -2.1006366896
-3.8597413921 -2.4191642953 -2.0977235807
-3.8918075323 -2.3947060673 -2.1497569508
-3.8926750823 -2.4266040595 -2.1367441065
-3.8044697621 -2.3773949039 -2.1626481127
-3.8894427612 -2.4033225136 -2.1320494019
-3.8527887148 -2.4294023958 -2.0948182193
-3.8993131329 -2.4161504801 -2.1666594095
-3.8817150412 -2.4039106751 -2.1247838970
-3.8871904936 -2.3951281877 -2.1331649550
-3.7875589334 -2.3760068806 -2.1322499623
-3.8868458779 -2.3870596472 -2.1275848230
-3.8925788544 -2.4298827894 -2.1390239033
-3.8938782031 -2.4172085497 -2.1350092676
-3.8819651879 -2.4390191039 -2.1379109792
-3.8243372583 -2.3930474184 -2.0647700155
-3.8550566435 -2.4348400831 -2.0978568792
-3.8770726429 -2.3881615688 -2.1664018259
-3.8129296236 -2.4468669242 -2.0686998351
-3.8219092570 -2.4376160301 -2.0627067254
-3.8246921002 -2.3829179753 -2.0782053457
-3.8400449037 -2.4072030433 -2.0797775245
-3.8872679321 -2.4222336481 -2.1302729072
-3.8877559555 -2.3992455974 -2.1367867086
-3.8575205797 -2.4418381095 -2.0998240595
-3.8550829955 -2.3821864157 -2.1134615698
-3.8693750256 -2.3850263378 -2.1151973919
-3.8773130965 -2.4134373516 -2.1251509529
-3.8498281368 -2.4238813256 -2.0942278375
-3.8843075715 -2.4372219485 -2.1345738440
-3.8348883464 -2.3968172674 -2.0750728491
-3.8507644111 -2.3853724825 -2.1943404476
-3.8642382999 -2.4213878954 -2.1096114441
-3.8378780669 -2.3794680307 -2.1610245649
-3.8259160146 -2.3771808633 -2.1752172794
-3.8719767638 -2.4420096739 -2.1227872196
-3.8939458857 -2.4079837356 -2.1499315433
-3.8080413342 -2.4517211914 -2.0767195225
-3.8900581342 -2.4275100478 -2.1370486565
-3.7443035645 -2.4009260932 -2.0929640019
-3.8761766160 -2.4171432648 -2.1197533871
-3.8648632240 -2.4126865394 -2.1864195594
-3.7635712285 -2.4035001991 -2.0888643139
-3.8524034261 -2.4224147734 -2.0884114387
-3.8922511119 -2.3980586243 -2.1503882161
-3.8746914021 -2.4047078725 -2.1763802211
-3.8168025032 -2.4329411795 -2.0528369523
-3.8624891224 -2.3821696041 -2.1576959669
-3.8268444765 -2.3908825003 -2.0630330226
-3.8239170161 -2.4021819494 -2.0638608719
-3.8760757973 -2.3830123163 -2.1210525032
-3.7787061071 -2.3735105480 -2.1080929563
-3.8938158502 -2.4100853387 -2.1525308854
-3.8650114287 -2.3850296561 -2.1628112630
-3.8928526981 -2.4247798607 -2.1424364249
-3.8548256486 -2.3835602306 -2.1699690025
-3.7819658562 -2.3709887678 -2.1428970685
-3.7972403786 -2.4150550151 -2.0552813109
-3.8317839227 -2.3882867030 -2.0684555619
-3.8130799769 -2.3741715532 -2.1761562642
-3.8900364071 -2.4368241091 -2.1396030786
-3.8552170273 -2.4396622551 -2.0972354734
-3.8971145932 -2.4196099015 -2.1469864810
-3.8446363348 -2.4046920474 -2.0843675285
-3.8963303305 -2.4182913177 -2.1470910687
-3.8476353578 -2.4044811186 -2.0893877736
-3.8502326476 -2.4122038529 -2.0945008412
-3.8728482585 -2.4294624352 -2.1173551903
-3.8510104978 -2.3991832885 -2.0901852986
-3.8890355494 -2.3900360379 -2.1449736554
-3.8576818642 -2.4144574727 -2.1014784452
-3.7479969290 -2.3984150353 -2.0864279446
-3.8269647982 -2.3860491584 -2.0942203033
-3.8355659618 -2.3786718991 -2.1705385771
-3.8896097874 -2.3967862353 -2.1618719245
-3.7661435488 -2.3723161153 -2.1208029793
-3.8965154243 -2.4191182333 -2.1737164350
-3.7693295761 -2.3753060501 -2.1338865093
-3.8625076274 -2.3871002739 -2.1093445163
-3.8742757868 -2.4395130722 -2.1176984550
-3.8673644982 -2.3864370613 -2.1117083689
-3.8913471239 -2.3919737676 -2.1474110366
-3.7822163745 -2.3989903067 -2.0894416806
-3.8341252225 -2.4146966121 -2.0722087739
-3.8488173191 -2.4165478028 -2.0903141085
-3.8599383957 -2.3832337112 -2.1620817029
-3.7664832190 -2.3766186635 -2.1057985444
-3.7747234402 -2.3783754892 -2.1008038528
-3.8348211976 -2.4323890973 -2.0653051314
-3.8548763842 -2.3842137870 -2.1093079891
-3.8944436282 -2.4246601426 -2.1368200454
-3.8832108862 -2.4227263098 -2.1322148209
-3.8201890442 -2.4476117966 -2.0715760652
-3.9019471410 -2.4249338419 -2.1604583442
-3.8538428829 -2.3950025722 -2.1907230525
-3.8874721183 -2.4344861259 -2.1370064448
-3.8411903381 -2.4208462238 -2.0747494698
-3.8546444805 -2.3809006536 -2.1612317622
-3.8527774725 -2.3825821827 -2.1795193833
-3.8393468214 -2.4212360547 -2.0848669865
-3.8921257097 -2.4171976152 -2.1764832808
-3.8597333864 -2.4150388457 -2.1021571707
-3.8586086533 -2.3814110022 -2.1573868752
-3.7688120237 -2.3964453967 -2.0880037593
-3.8318785111 -2.3840827596 -2.0794501407
-3.8321281323 -2.4193639734 -2.0725796016
-3.8596503166 -2.3946224318 -2.1049113655
-3.8746201973 -2.3886841808 -2.1680435937
-3.8564619950 -2.4199810335 -2.0952083580
-3.8319722549 -2.3851281483 -2.0749481572
-3.8231969897 -2.3800749356 -2.1529938826
-3.8323766121 -2.4430474894 -2.0744426572
-3.8552876830 -2.3801480613 -2.1578604892
-3.8741390981 -2.3834739152 -2.1322638703
-3.7738558982 -2.3964521283 -2.0843398846
-3.8427063207 -2.4120354568 -2.0800297154
-3.7863500072 -2.3741813935 -2.1461245388
-3.8871517973 -2.4366758615 -2.1547946317
-3.8222557233 -2.4399652720 -2.0672458020
-3.8764249496 -2.3835335897 -2.1344232233
-3.8232365659 -2.3964403465 -2.0605811676
-3.8179323571 -2.4406069409 -2.0655613059
-3.8295480046 -2.3920984911 -2.0680604370
-3.8902640704 -2.3996845088 -2.1444720440
-3.8891953077 -2.4135362722 -2.1751840207
-3.8864747723 -2.4120184574 -2.1271442677
-3.8693959894 -2.4437800763 -2.1099217364
-3.8332242022 -2.4314088359 -2.0694801170
-3.8364770879 -2.4316887877 -2.0677767788
-3.8795718226 -2.4070096316 -2.1228720313
-3.8599673438 -2.3826378559 -2.1409763278
-3.8339003680 -2.3790092211 -2.1527215414
-3.8633060193 -2.3825489014 -2.1540916488
-3.7894980013 -2.3740326127 -2.1563228033
-3.7765009709 -2.3727026670 -2.1133485318
-3.8617546158 -2.3920632640 -2.1714010960
-3.7935065615 -2.3758656496 -2.1506569523
-3.8666396853 -2.4269902306 -2.1105194920
-3.8623381869 -2.4042806000 -2.1081181747
-3.8764572024 -2.4225806686 -2.1130617804
-3.8422549351 -2.4092239423 -2.0826939336
-3.8133626800 -2.3763185191 -2.1708994882
-3.8746268749 -2.3846106529 -2.1327295303
-3.8350083888 -2.4239351914 -2.0747000060
-3.8738215001 -2.4212017862 -2.1146672196
-3.7924144974 -2.3758559905 -2.1589649139
-3.8716888698 -2.3898516741 -2.1132396014
-3.8921642671 -2.4326644183 -2.1572692363
-3.8973338674 -2.4247558056 -2.1772389378
-3.7552388828 -2.4040639476 -2.0869340822
-3.8858432755 -2.4255840161 -2.1324374145
-3.8918057890 -2.4069812333 -2.1375512451
-3.8306482963 -2.3743631420 -2.1699939747
-3.8498101069 -2.3849694568 -2.0996877613
-3.7786229451 -2.3724640739 -2.1049267082
-3.8855956685 -2.4285135309 -2.1330647939
-3.8468340409 -2.3798144794 -2.1872416153
-3.8470500032 -2.3846767923 -2.0969930228
-3.8532859062 -2.3931477463 -2.1871242953
-3.8023189543 -2.3796816845 -2.0941940378
-3.8225385162 -2.3899860124 -2.0627033706
-3.8844369509 -2.4017184292 -2.1254442191
-3.8897257508 -2.4347016650 -2.1477447732
-3.8037143378 -2.3863621665 -2.0708818438
-3.8664201272 -2.4018732727 -2.1079694063
-3.8623153008 -2.4422974679 -2.1078129324
-3.8521442896 -2.3847211030 -2.1327244915
-3.7952934319 -2.3944386483 -2.0676709974
-3.8699120292 -2.4244905106 -2.1126531992
-3.8937596217 -2.4043604272 -2.1591982813
-3.8088615901 -2.3798424288 -2.1383577213
-3.8072360337 -2.3719343604 -2.1590196860
-3.7674955038 -2.3747875813 -2.1296183376
-3.7865213566 -2.4005418021 -2.0674147485
-3.8259646059 -2.3822503299 -2.1202326977
-3.8541903417 -2.3999740850 -2.0931725911
-3.8392903551 -2.4385381221 -2.0730402500
-3.8857562542 -2.4190840721 -2.1284005642
-3.8819974517 -2.3848331555 -2.1289867783
-3.7845463628 -2.3776866354 -2.1236676450
-3.8271044753 -2.4401270621 -2.0694966093
-3.7787229332 -2.3970937535 -2.0889415328
-3.8826898914 -2.4116667379 -2.1271520815
-3.8951716479 -2.4173837689 -2.1473887538
-3.8659581797 -2.3824333661 -2.1115173717
-3.8934522002 -2.4306126588 -2.1577816332
-3.8465930170 -2.4308657177 -2.0799371580
-3.8717938851 -2.4120378421 -2.1121596088
-3.8378081375 -2.4438988771 -2.0746556075
-3.8084954174 -2.4415833624 -2.0648995322
-3.8318553068 -2.4144392946 -2.0717671976
-3.8759012616 -2.4495821725 -2.1470712473
-3.7773135179 -2.4061275573 -2.0721239567
-3.8647562645 -2.4082776614 -2.1970894024
-3.8075645281 -2.3947683937 -2.0599390048
-3.8595362726 -2.3917019816 -2.1004209789
-3.8694712484 -2.4295803970 -2.1116254571
-3.8794770241 -2.4366548061 -2.1200089455
-3.8963924509 -2.4155451120 -2.1471102002
-3.8067977428 -2.4548940659 -2.0754544735
-3.8646141069 -2.4290475457 -2.1074041785
-3.8703314930 -2.3874998308 -2.1694045220
-3.8599319127 -2.4016098371 -2.1048409958
-3.8474381739 -2.3826200572 -2.1129240396
-3.8979596704 -2.4227958466 -2.1477179528
-3.8442559914 -2.4073787947 -2.0848223012
-3.7763063954 -2.3725237409 -2.1311053139
-3.8412212817 -2.4192273227 -2.0772766889
-3.8401762819 -2.4224240595 -2.0798366054
-3.8665610681 -2.4125578009 -2.1105274586
-3.8374806593 -2.4093741781 -2.0728713656
-3.8787234877 -2.3869721761 -2.1555910060
-3.8650080304 -2.3895692848 -2.1700810828
-3.8395313059 -2.3921277155 -2.0823609379
-3.8370871687 -2.4194493669 -2.0775276113
-3.8418012614 -2.4443332947 -2.0827870934
-3.8605325154 -2.3947016701 -2.1776595347
-3.8277198634 -2.4234459454 -2.0602107652
-3.8215670986 -2.4086717043 -2.0614397881
-3.8197231559 -2.4400733739 -2.0656472967
-3.8609817810 -2.4100522682 -2.1857608130
-3.8873094610 -2.4195613576 -2.1855890139
-3.8765913558 -2.4221090523 -2.1205852044
-3.8549083012 -2.3887034817 -2.0998155231
-3.8800349828 -2.3856307448 -2.1439047991
-3.8250436842 -2.3994632262 -2.0658699038
-3.8854839698 -2.4186381185 -2.1291870109
-3.8927951260 -2.4147579208 -2.1427357837
-3.8517664215 -2.4046262438 -2.0930886033
-3.8255913648 -2.4267161268 -2.0594643938
-3.8296382427 -2.3828358650 -2.0826694965
-3.8346324501 -2.3860535790 -2.0769158236
-3.8868070926 -2.3998387057 -2.1669233325
-3.7857190189 -2.3759313806 -2.1435191142
-3.8336351827 -2.4287086374 -2.0727025594
-3.8291499118 -2.3999127085 -2.0652676126
-3.8264031180 -2.3975996110 -2.0607126749
-3.8905698955 -2.4051670551 -2.1572603975
-3.8137802504 -2.3800640909 -2.1025954436
-3.8544482370 -2.4271753709 -2.0944142344
-3.7970493495 -2.3793358708 -2.1233323336
-3.8497462998 -2.4022394186 -2.0923832120
-3.8095092449 -2.3790481663 -2.1435246304
-3.7630819635 -2.3737977689 -2.1153715086
-3.8796871381 -2.3852713722 -2.1273284078
-3.8718945610 -2.3937026161 -2.1146505946
-3.8675491810 -2.3852285147 -2.1132122278
-3.8060433665 -2.3812440334 -2.0856498434
-3.9049439112 -2.4314991045 -2.1536697982
-3.7940056878 -2.3858228316 -2.0807411008
-3.8618763579 -2.4270490791 -2.1052248272
-3.7604426827 -2.4059601880 -2.0870018353
-3.7894800093 -2.3772829190 -2.0999262741
-3.7718251302 -2.3980388455 -2.0849385632
-3.7820214442 -2.3920846130 -2.0926652518
-3.8542824400 -2.3816538998 -2.1682411261
-3.8644983669 -2.4274446470 -2.1096683549
-3.8740881980 -2.3854566324 -2.1556545941
-3.8937621951 -2.4074215687 -2.1470742592
-3.8269353962 -2.4170305740 -2.0652069838
-3.8680361509 -2.4272506237 -2.1077136993
-3.8317952106 -2.4053329030 -2.0681821876
-3.8549143563 -2.3997830726 -2.1976857592
-3.8032429000 -2.3789949190 -2.1060767070
-3.8316601533 -2.4296130533 -2.0628728705
-3.8832428455 -2.4417812824 -2.1542389393
-3.8548689848 -2.3873271020 -2.0953419351
-3.8983512456 -2.4219038978 -2.1580284784
-3.8150515551 -2.4200529869 -2.0502632882
-3.8215829738 -2.3821010571 -2.0919994209
-3.8553338784 -2.3829712778 -2.1233270467
-3.8357296637 -2.3843317629 -2.0711773320
-3.8300936304 -2.3777663006 -2.1612301567
-3.8988960318 -2.4292511219 -2.1613115070
-3.7564702642 -2.3815166134 -2.1088998179
-3.8575501302 -2.4216424769 -2.0947015688
-3.8886581876 -2.3873934458 -2.1295734657
-3.8395862579 -2.4444630146 -2.0728754997
-3.7835450179 -2.3775180119 -2.1480992852
-3.8114053584 -2.3819624781 -2.0725190341
-3.8491976721 -2.4221683546 -2.0898239918
-3.8398006020 -2.4008452819 -2.0826914738
-3.8219580381 -2.3724507679 -2.1872956649
-3.8802748091 -2.4372295248 -2.1248469683
-3.8323853016 -2.4171570937 -2.0704385440
-3.8827634388 -2.4136115412 -2.1343461498
-3.8299543399 -2.4193769762 -2.0632567624
-3.8395845554 -2.4248515602 -2.0751441917
-3.8290488444 -2.4241703173 -2.0629248868
-3.8821312208 -2.4022688979 -2.1279877927
-3.8971894472 -2.4178652011 -2.1621740991
-3.8449534830 -2.3846339689 -2.0917727034
-3.8847172055 -2.3977721017 -2.1677691801
-3.8743004876 -2.3873056283 -2.1400493678
-3.8065672647 -2.4462989170 -2.0677496435
-3.7896497584 -2.4041653941 -2.0649239007
-3.7861871150 -2.4087458577 -2.0624546911
-3.8499131656 -2.3894415113 -2.0900401167
-3.8324398791 -2.4216371630 -2.0669771553
-3.8216186523 -2.4432481510 -2.0747100178
-3.8501023604 -2.3834525334 -2.1144124683
-3.8892454717 -2.3919804616 -2.1407292100
-3.8023664257 -2.4457559097 -2.0649101381
-3.8500165891 -2.3826254891 -2.1302361075
-3.7989665045 -2.3854451143 -2.0796635739
-3.7813407861 -2.3827216920 -2.1529961222
-3.8906519531 -2.3971652595 -2.1574506695
-3.8905086527 -2.4123463761 -2.1651387603
-3.8941617059 -2.3894017873 -2.1469467114
-3.8902966400 -2.4051294809 -2.1602796208
-3.7615265157 -2.3769652991 -2.1137413191
-3.8172848791 -2.3820363262 -2.0977980724
-3.8580835410 -2.3872250671 -2.1860214687
-3.8801615480 -2.4375401357 -2.1275352730
-3.7770550064 -2.3947608458 -2.0882188190
-3.8394088745 -2.4326891899 -2.0737223625
-3.8481662003 -2.3788165371 -2.1727686662
-3.7975842196 -2.4109558693 -2.0574450088
-3.8652797500 -2.4095739729 -2.1093168296
-3.8974178536 -2.4244874410 -2.1421141431
-3.8317352145 -2.3827371582 -2.0855266993
-3.8837528382 -2.3862562225 -2.1407987456
-3.8601038140 -2.4371532178 -2.1049202704
-3.8712555521 -2.4450414041 -2.1352783670
-3.8436389466 -2.3789416816 -2.1668109586
-3.7851591028 -2.3756121961 -2.1180843578
-3.8979889344 -2.4199128319 -2.1597519860
-3.8716049454 -2.3838086515 -2.1454761236
-3.7951599113 -2.3782243623 -2.1200654338
-3.8967512885 -2.4184174368 -2.1595786621
-3.8674386571 -2.3843713047 -2.1172247996
-3.8902179113 -2.4022202771 -2.1449976252
-3.7987970782 -2.3781624875 -2.1202332986
-3.7695954152 -2.3877577894 -2.0906952700
-3.8513232102 -2.3797657671 -2.1643823708
-3.8698541417 -2.3938248491 -2.1107789079
-3.8704062318 -2.4046661526 -2.1142831356
-3.8852159851 -2.4141160732 -2.1354655567
-3.8554618097 -2.3871425116 -2.1861449885
-3.8473230323 -2.4243045037 -2.0876178103
-3.8262976535 -2.4191677312 -2.0591116731
-3.8196422714 -2.4258918348 -2.0563968110
-3.8970885771 -2.4271207049 -2.1527356962
-3.7866254555 -2.3887190034 -2.0800271220
-3.7855969620 -2.4076555409 -2.0648652317
-3.8446120100 -2.4322031187 -2.0820440148
-3.8273152378 -2.4143860643 -2.0631490949
-3.8577934453 -2.3917424878 -2.1000646748
-3.8342154428 -2.4244663742 -2.0701435067
-3.8194676268 -2.4027014821 -2.0573510876
-3.8410982307 -2.3789881795 -2.1759310801
-3.8327920376 -2.3772989023 -2.1756489194
-3.8508873218 -2.3888152530 -2.1948514835
-3.8768907964 -2.4243227934 -2.1205117600
-3.8851614342 -2.4225651521 -2.1293547525
-3.8872353261 -2.3928095658 -2.1349911303
-3.8516086927 -2.4374382410 -2.0905821726
-3.8548280847 -2.3897766612 -2.1833387344
-3.8303284846 -2.3865496697 -2.0722064208
-3.8420646974 -2.4442246303 -2.0772836455
-3.8890525444 -2.3899045566 -2.1501851904
-3.8146452824 -2.3804556058 -2.1000105006
-3.8064602226 -2.4486266356 -2.0679541073
-3.8977985045 -2.4279324342 -2.1619769559
