-0.0322781019 -0.0876254365 -0.3141409457
-0.0311997272 -0.0876542777 -0.3143172860
-0.0302700941 -0.0881421342 -0.3153646290
-0.0290410500 -0.0877043828 -0.3146596253
-0.0281024687 -0.0881872922 -0.3157013357
-0.0271555576 -0.0886677727 -0.3167406619
-0.0262003392 -0.0891458392 -0.3177777529
-0.0249767341 -0.0886977017 -0.3170576692
-0.0238865092 -0.0887087956 -0.3172110021
-0.0226734951 -0.0882553831 -0.3164823353
-0.0214677416 -0.0877993852 -0.3157491386
-0.0203837883 -0.0878027454 -0.3158909082
-0.0194099490 -0.0882655084 -0.3169091940
-0.0183211919 -0.0882637650 -0.3170445561
-0.0171291567 -0.0877975151 -0.3162954748
-0.0160434339 -0.0877906680 -0.3164233863
-0.0148622449 -0.0873193741 -0.3156659603
-0.0137796458 -0.0873074755 -0.3157864809
-0.0126093915 -0.0868312269 -0.3150208294
-0.0115299774 -0.0868142992 -0.3151340187
-0.0104502095 -0.0867948383 -0.3152437508
-0.0094457138 -0.0872344226 -0.3162338138
-0.0083614383 -0.0872098207 -0.3163369596
-0.0072768969 -0.0871826634 -0.3164365888
-0.0061282218 -0.0866916627 -0.3156478405
-0.0050470722 -0.0866595283 -0.3157401979
-0.0039656879 -0.0866248757 -0.3158290684
-0.0028840846 -0.0865877047 -0.3159145117
-0.0017540355 -0.0860872194 -0.3151102364
-0.0007203172 -0.0865057409 -0.3160749376
0.0003618063 -0.0864609703 -0.3161499500
0.0014806193 -0.0859533623 -0.3153344095
0.0025591357 -0.0859037265 -0.3154021800
0.0036377392 -0.0858515501 -0.3154665232
0.0047164261 -0.0857968777 -0.3155273795
0.0057952153 -0.0857396945 -0.3155847490
0.0068570627 -0.0861392692 -0.3165267706
0.0079267919 -0.0865358934 -0.3174657226
0.0090227155 -0.0860118270 -0.3166245222
0.0101055540 -0.0859443471 -0.3166681826
0.0111883618 -0.0858742967 -0.3167082965
0.0122737447 -0.0862598270 -0.3176338375
0.0133539457 -0.0857267082 -0.3167780936
0.0144470567 -0.0861066356 -0.3176969290
0.0155335972 -0.0860262737 -0.3177232146
0.0166200455 -0.0859433264 -0.3177459836
0.0177064110 -0.0858578905 -0.3177652657
0.0187926460 -0.0857699290 -0.3177810311
0.0198787246 -0.0856794342 -0.3177933097
0.0209984835 -0.0860420913 -0.3186915815
0.0221258961 -0.0864015222 -0.3195863664
0.0232192706 -0.0863027647 -0.3195881248
0.0243124552 -0.0862014815 -0.3195863962
0.0254548453 -0.0865518749 -0.3204705417
0.0265514273 -0.0864451379 -0.3204616308
0.0276477728 -0.0863358676 -0.3204492331
0.0286827199 -0.0857709795 -0.3195438981
0.0298396274 -0.0861096904 -0.3204137981
0.0309350919 -0.0859927982 -0.3203907013
0.0320302360 -0.0858733654 -0.3203641176
0.0332017802 -0.0862027705 -0.3212230206
0.0343807451 -0.0865287557 -0.3220781088
0.0353980437 -0.0859503374 -0.3211518526
0.0364071801 -0.0853703171 -0.3202223182
0.0375927612 -0.0856877863 -0.3210664690
0.0387856700 -0.0860017389 -0.3219067156
0.0400860012 -0.0867607743 -0.3236311972
0.0417133123 -0.0888595656 -0.3280150890
0.0434868596 -0.0913983211 -0.3332810104
0.0453064442 -0.0939282924 -0.3385406733
0.0468252674 -0.0951096863 -0.3411319852
0.0481277704 -0.0953931734 -0.3419440091
0.0496841855 -0.0965637639 -0.3445251584
0.0510087311 -0.0968384817 -0.3453279138
0.0524715297 -0.0975537077 -0.3470123410
0.0538141765 -0.0978200734 -0.3478058279
0.0550250039 -0.0976392925 -0.3477091789
0.0562351570 -0.0974557176 -0.3476085663
0.0575911626 -0.0977113917 -0.3483889997
0.0588037595 -0.0975216478 -0.3482802212
0.0600155406 -0.0973291025 -0.3481674492
-0.0690385997 -0.0967221782 -0.3256907463
-0.0657901242 -0.0931675583 -0.3191971779
-0.0633816123 -0.0909800977 -0.3152335286
-0.0612662472 -0.0892454013 -0.3121074736
-0.0511046350 -0.0891016200 -0.3126910329
-0.0500276871 -0.0891747698 -0.3129278719
-0.0487352349 -0.0887831897 -0.3123008609
-0.0476603098 -0.0888509527 -0.3125300109
-0.0463775620 -0.0884534940 -0.3118937016
-0.0453047194 -0.0885159001 -0.3121152222
-0.0442310311 -0.0885757580 -0.3123333752
-0.0433519334 -0.0890963301 -0.3134124577
-0.0422727577 -0.0891512409 -0.3136245012
-0.0413805395 -0.0896672830 -0.3146990240
-0.0402959287 -0.0897172317 -0.3149049282
-0.0392105505 -0.0897646397 -0.3151074052
-0.0381244272 -0.0898094401 -0.3153063655
-0.0370375775 -0.0898516551 -0.3155018985
-0.0357815064 -0.0894268528 -0.3148245513
-0.0345324613 -0.0889991969 -0.3141423762
-0.0334511995 -0.0890334547 -0.3143262267
-0.0322123840 -0.0886003152 -0.3136352301
-0.0311336908 -0.0886292905 -0.3138115108
-0.0300543550 -0.0886557624 -0.3139843345
-0.0289744195 -0.0886796489 -0.3141537607
-0.0280352850 -0.0891661793 -0.3151935637
-0.0270878356 -0.0896502510 -0.3162310719
-0.0259983856 -0.0896666124 -0.3163912594
-0.0249083955 -0.0896803811 -0.3165480196
-0.0236919560 -0.0892261863 -0.3158251941
-0.0226047710 -0.0892347693 -0.3159744143
-0.0213989634 -0.0887753442 -0.3152430058
-0.0203147065 -0.0887788087 -0.3153847754
-0.0193403400 -0.0892451555 -0.3164011836
-0.0182512682 -0.0892434791 -0.3165365458
-0.0170591678 -0.0887737945 -0.3157892525
-0.0159731340 -0.0887670144 -0.3159171343
-0.0147919180 -0.0882923007 -0.3151615262
-0.0137089891 -0.0882804170 -0.3152819872
-0.0125387162 -0.0878007486 -0.3145181835
-0.0115420865 -0.0882490799 -0.3155125678
-0.0104581341 -0.0882295892 -0.3156226873
-0.0094491774 -0.0886726305 -0.3166113794
-0.0082893036 -0.0881829560 -0.3158324659
-0.0072044455 -0.0881558210 -0.3159321249
-0.0061193286 -0.0881261304 -0.3160282671
-0.0049742772 -0.0876292214 -0.3152375221
-0.0038925936 -0.0875945985 -0.3153264821
-0.0027588166 -0.0870930031 -0.3145277798
-0.0016806391 -0.0870534182 -0.3146094084
-0.0006022655 -0.0870113298 -0.3146876693
0.0004762514 -0.0869667083 -0.3147623837
0.0015549263 -0.0869195685 -0.3148336709
0.0026337218 -0.0868698955 -0.3149014711
0.0037126222 -0.0868177190 -0.3149658442
0.0047916081 -0.0867630169 -0.3150267303
0.0058706943 -0.0867057666 -0.3150840998
0.0069498229 -0.0866459981 -0.3151380420
0.0080162166 -0.0870463327 -0.3160750270
0.0091082221 -0.0865189731 -0.3152355254
0.0101874461 -0.0864516199 -0.3152790666
0.0112656029 -0.0868436769 -0.3162060976
0.0123486975 -0.0867710933 -0.3162428141
0.0134317530 -0.0866959170 -0.3162760437
0.0145254163 -0.0870793015 -0.3171930909
0.0156122539 -0.0869988352 -0.3172194064
0.0166805312 -0.0864554048 -0.3163547814
0.0177632831 -0.0863701850 -0.3163740635
0.0188458823 -0.0862824544 -0.3163897991
0.0199283566 -0.0861921981 -0.3164021075
0.0210447684 -0.0865585655 -0.3172986209
0.0221688394 -0.0869217366 -0.3181916773
0.0233005416 -0.0872816816 -0.3190811872
0.0244398229 -0.0876383558 -0.3199672401
0.0255369600 -0.0875340402 -0.3199619949
0.0266338550 -0.0874271914 -0.3199532032
0.0277304854 -0.0873177797 -0.3199408650
0.0288268607 -0.0872058123 -0.3199250102
0.0299229007 -0.0870913267 -0.3199055493
0.0310186706 -0.0869742632 -0.3198826015
0.0321141072 -0.0868546814 -0.3198561072
0.0332862064 -0.0871874690 -0.3207133412
0.0343848392 -0.0870623440 -0.3206796348
0.0354830921 -0.0869347006 -0.3206424117
0.0365809314 -0.0868045241 -0.3206015527
0.0377709679 -0.0871248245 -0.3214438558
0.0388718657 -0.0869890600 -0.3213957548
0.0403738469 -0.0886590555 -0.3248893917
0.0420107357 -0.0907741114 -0.3292640150
0.0439023413 -0.0937836021 -0.3354047537
0.0458477847 -0.0967832878 -0.3415386975
0.0472674258 -0.0975228101 -0.3432384133
0.0485821813 -0.0978079438 -0.3440479934
0.0499040857 -0.0980892554 -0.3448532522
0.0512331687 -0.0983666629 -0.3456540704
0.0525692999 -0.0986402109 -0.3464503884
0.0537772663 -0.0984625146 -0.3463580906
0.0549845435 -0.0982820913 -0.3462619483
0.0563341416 -0.0985449553 -0.3470453024
0.0575438850 -0.0983583033 -0.3469409645
0.0587528944 -0.0981688872 -0.3468326330
0.0601158105 -0.0984209776 -0.3476029038
0.0613271333 -0.0982253626 -0.3474863768
-0.0689767152 -0.0977654830 -0.3251441121
-0.0657295957 -0.0941833779 -0.3186649382
-0.0633217692 -0.0919788703 -0.3147102594
-0.0508209988 -0.0896167904 -0.3113204837
-0.0497475751 -0.0896898955 -0.3115564287
-0.0486732349 -0.0897604376 -0.3117888570
-0.0473874621 -0.0893625095 -0.3111585081
-0.0463151783 -0.0894276798 -0.3113833666
-0.0452420227 -0.0894902796 -0.3116047978
-0.0441680327 -0.0895503238 -0.3118228614
-0.0430932157 -0.0896077976 -0.3120374680
-0.0420175828 -0.0896626860 -0.3122486472
-0.0411286540 -0.0901821554 -0.3133204877
-0.0400475860 -0.0902321488 -0.3135255873
-0.0391455851 -0.0907470211 -0.3145927787
-0.0380591638 -0.0907920003 -0.3147917092
-0.0369720049 -0.0908343568 -0.3149871230
-0.0355476029 -0.0899382830 -0.3134439290
-0.0344667435 -0.0899752155 -0.3136311769
-0.0333851874 -0.0900096074 -0.3138149083
-0.0321463235 -0.0895731226 -0.3131257296
-0.0310673174 -0.0896022543 -0.3133019209
-0.0299876835 -0.0896288157 -0.3134747446
-0.0287623759 -0.0891842470 -0.3127726316
-0.0279677734 -0.0901429728 -0.3146820068
-0.0268824734 -0.0901619270 -0.3148450553
-0.0259300228 -0.0906471238 -0.3158778250
-0.0248397216 -0.0906609744 -0.3160344660
-0.0237488970 -0.0906722769 -0.3161877096
-0.0225357488 -0.0902120695 -0.3154625893
-0.0214477871 -0.0902182013 -0.3156083524
-0.0202453267 -0.0897527635 -0.3148747981
-0.0192704033 -0.0902227014 -0.3158893585
-0.0181810502 -0.0902211070 -0.3160246611
-0.0169889051 -0.0897480026 -0.3152791858
-0.0159025770 -0.0897412747 -0.3154070377
-0.0147213032 -0.0892631263 -0.3146532476
-0.0136380894 -0.0892513022 -0.3147737384
-0.0124677699 -0.0887681469 -0.3140116930
-0.0114706000 -0.0892200470 -0.3150043190
-0.0103863357 -0.0892005935 -0.3151143789
-0.0093768360 -0.0896471441 -0.3161012530
-0.0082169101 -0.0891540423 -0.3153241277
-0.0070645283 -0.0886585414 -0.3145428598
-0.0059830230 -0.0886289850 -0.3146387041
-0.0049012788 -0.0885968953 -0.3147310913
-0.0037637847 -0.0880941898 -0.3139379919
-0.0026854973 -0.0880571604 -0.3140231669
-0.0016070289 -0.0880175978 -0.3141048849
-0.0005283625 -0.0879754946 -0.3141830564
0.0005504421 -0.0879308730 -0.3142578602
0.0016293918 -0.0878836960 -0.3143291175
0.0027084770 -0.0878340527 -0.3143970072
0.0037876677 -0.0877818093 -0.3144613504
0.0048669763 -0.0877270773 -0.3145222962
0.0059463168 -0.0876698196 -0.3145797253
0.0070257378 -0.0876100361 -0.3146337271
0.0081052240 -0.0875477046 -0.3146842122
0.0091933254 -0.0870170444 -0.3138464391
0.0102642300 -0.0874154866 -0.3147748113
0.0113437148 -0.0873456225 -0.3148149550
0.0124231884 -0.0872732103 -0.3148515522
0.0135026267 -0.0871982947 -0.3148847222
0.0145929540 -0.0875853673 -0.3157998919
0.0156761762 -0.0875051320 -0.3158262074
0.0167593099 -0.0874223486 -0.3158490658
0.0178423300 -0.0873370171 -0.3158684075
0.0188986342 -0.0867859274 -0.3149984181
0.0200079884 -0.0871588364 -0.3158965707
0.0211249907 -0.0875286236 -0.3167913258
0.0222113021 -0.0874328837 -0.3167967200
0.0233818721 -0.0882585049 -0.3185704350
0.0244756304 -0.0881569758 -0.3185687959
0.0255691335 -0.0880529359 -0.3185637295
0.0266623925 -0.0879463106 -0.3185549974
0.0278132521 -0.0882975832 -0.3194285929
0.0289099049 -0.0881854892 -0.3194128573
0.0300062541 -0.0880708694 -0.3193935156
0.0311022792 -0.0879537016 -0.3193706870
0.0321979858 -0.0878339708 -0.3193442822
0.0332933515 -0.0877116844 -0.3193143606
0.0344695821 -0.0880447775 -0.3201661408
0.0355681106 -0.0879169852 -0.3201290369
0.0367552266 -0.0882436186 -0.3209733367
0.0378568359 -0.0881102458 -0.3209289312
0.0390548185 -0.0884303525 -0.3217656612
0.0404615067 -0.0896580368 -0.3243674338
0.0422048047 -0.0922453329 -0.3296174109
0.0442112163 -0.0957330614 -0.3366294205
0.0460545160 -0.0983018205 -0.3418665230
0.0475951768 -0.0995010510 -0.3444460630
0.0487981737 -0.0993353724 -0.3443701565
0.0501245968 -0.0996193662 -0.3451733887
0.0513302609 -0.0994476005 -0.3450894654
0.0526670441 -0.0997243896 -0.3458841741
0.0538752787 -0.0995464772 -0.3457920551
0.0552223511 -0.0998159274 -0.3465779722
0.0564331003 -0.0996318310 -0.3464777470
0.0576431192 -0.0994449407 -0.3463734984
0.0588524267 -0.0992552638 -0.3462654650
0.0602159202 -0.0995105654 -0.3470340073
0.0615863614 -0.0997617841 -0.3477979004
-0.0683795586 -0.0978769884 -0.3229052722
-0.0654049143 -0.0947318673 -0.3172836602
-0.0630016252 -0.0925099701 -0.3133370280
-0.0507591553 -0.0905914977 -0.3108049333
-0.0496854298 -0.0906648189 -0.3110407293
-0.0486107767 -0.0907355696 -0.3112730980
-0.0473249443 -0.0903343707 -0.3106444776
-0.0462523550 -0.0903997496 -0.3108692169
-0.0451789238 -0.0904625207 -0.3110905588
-0.0441046320 -0.0905227661 -0.3113085032
-0.0430295169 -0.0905804262 -0.3115230501
-0.0419535786 -0.0906354859 -0.3117341399
-0.0410641320 -0.0911586285 -0.3128040731
-0.0397993512 -0.0907379612 -0.3121461570
-0.0387210585 -0.0907853469 -0.3123469949
-0.0378177725 -0.0913012773 -0.3134087920
-0.0369060375 -0.0918149352 -0.3144685924
-0.0354818404 -0.0909120664 -0.3129290342
-0.0344006680 -0.0909491479 -0.3131161630
-0.0333188176 -0.0909836739 -0.3132998347
-0.0320798829 -0.0905438364 -0.3126124144
-0.0308480337 -0.0901011825 -0.3119201958
-0.0299206767 -0.0905997977 -0.3129613400
-0.0288401283 -0.0906239226 -0.3131306171
-0.0277589913 -0.0906455144 -0.3132964969
-0.0268143248 -0.0911367238 -0.3143296540
-0.0258613434 -0.0916255042 -0.3153605163
-0.0247707404 -0.0916394964 -0.3155171871
-0.0236796085 -0.0916508436 -0.3156703413
-0.0224664416 -0.0911872759 -0.3149470389
-0.0213781726 -0.0911934674 -0.3150927424
-0.0201756638 -0.0907246545 -0.3143609762
-0.0190903377 -0.0907257050 -0.3144991994
-0.0181105491 -0.0911966041 -0.3155089319
-0.0169183686 -0.0907200947 -0.3147653043
-0.0157335494 -0.0902410373 -0.3140172362
-0.0146504436 -0.0902318433 -0.3141412139
-0.0135669382 -0.0902200788 -0.3142616451
-0.0124830613 -0.0902058035 -0.3143786490
-0.0113988537 -0.0901889205 -0.3144922256
-0.0103143109 -0.0901695117 -0.3146022856
-0.0092294533 -0.0901475400 -0.3147088885
-0.0081443023 -0.0901230350 -0.3148120642
-0.0069918935 -0.0896240622 -0.3140325546
-0.0059101013 -0.0895945281 -0.3141284287
-0.0048280731 -0.0895624608 -0.3142208457
-0.0036905445 -0.0890562832 -0.3134296536
-0.0025606167 -0.0885478780 -0.3126343787
-0.0015332181 -0.0889796913 -0.3135964572
-0.0004107501 -0.0884665027 -0.3127937019
0.0006644463 -0.0884220302 -0.3128682375
0.0017397668 -0.0883750021 -0.3129392862
0.0027834352 -0.0887960643 -0.3138887286
0.0038629069 -0.0887438506 -0.3139531016
0.0049424646 -0.0886890814 -0.3140140772
0.0060221208 -0.0886317790 -0.3140715361
0.0071018250 -0.0885719582 -0.3141255379
0.0081815897 -0.0885096043 -0.3141761422
0.0092697004 -0.0879753903 -0.3133401871
0.0103411619 -0.0883772969 -0.3142668009
0.0114204166 -0.0887761787 -0.3151902556
0.0125006856 -0.0882348791 -0.3143436313
0.0135804126 -0.0881599113 -0.3143768609
0.0146824950 -0.0890183896 -0.3161738813
0.0157547798 -0.0884700641 -0.3153166473
0.0168381948 -0.0883872062 -0.3153395057
0.0178985149 -0.0878347158 -0.3144749999
0.0189777799 -0.0877471119 -0.3144908845
0.0200568996 -0.0876570046 -0.3145032525
0.0211705640 -0.0880304724 -0.3153961897
0.0222918633 -0.0884007663 -0.3162856996
0.0234207921 -0.0887678042 -0.3171717823
0.0245573130 -0.0891315788 -0.3180542886
0.0256511196 -0.0890274271 -0.3180492520
0.0267446656 -0.0889206901 -0.3180406392
0.0278960895 -0.0892753154 -0.3189125359
0.0289930049 -0.0891630873 -0.3188968301
0.0300896261 -0.0890483409 -0.3188776076
0.0311859194 -0.0889310017 -0.3188548386
0.0322818942 -0.0888110995 -0.3188285530
0.0333775468 -0.0886886790 -0.3187987804
0.0344728306 -0.0885637179 -0.3187654018
0.0356531441 -0.0888971388 -0.3196118176
0.0367515497 -0.0887665972 -0.3195712268
0.0378495306 -0.0886335149 -0.3195270896
0.0389470756 -0.0884978920 -0.3194794357
0.0404481888 -0.0901958346 -0.3229588866
0.0420848280 -0.0923457518 -0.3273156881
0.0443037078 -0.0967781022 -0.3360781074
0.0462618284 -0.0998250023 -0.3421863914
0.0478075705 -0.1010338739 -0.3447603881
0.0490147695 -0.1008674726 -0.3446843624
0.0502213463 -0.1006982327 -0.3446044028
0.0514273010 -0.1005262658 -0.3445205986
0.0526326373 -0.1003514603 -0.3444328308
0.0538373217 -0.1001738608 -0.3443412185
0.0551811159 -0.1004471257 -0.3451258242
0.0563882813 -0.1002633497 -0.3450260162
0.0577422790 -0.1005292460 -0.3458018601
0.0589518435 -0.1003393009 -0.3456939161
0.0603159890 -0.1005977616 -0.3464608490
0.0615278929 -0.1004016027 -0.3463447392
0.0627390444 -0.1002026051 -0.3462246060
-0.0702584907 -0.1001984775 -0.3245805502
-0.0672484040 -0.0970359892 -0.3189851642
-0.0648167804 -0.0948026702 -0.3150589466
-0.0506968684 -0.0915641189 -0.3102855384
-0.0494051129 -0.0911653414 -0.3096671402
-0.0483339950 -0.0912360176 -0.3098985553
-0.0470519178 -0.0908313394 -0.3092708886
-0.0459828563 -0.0908966511 -0.3094947040
-0.0451153815 -0.0914326906 -0.3105725050
-0.0438422412 -0.0910196081 -0.3099322915
-0.0427706502 -0.0910772383 -0.3101459444
-0.0415073745 -0.0906583890 -0.3094965816
-0.0406251177 -0.0911848098 -0.3105630875
-0.0393679626 -0.0907604843 -0.3099054992
-0.0384764560 -0.0912821218 -0.3109666407
-0.0375764892 -0.0918015093 -0.3120258152
-0.0366680846 -0.0923186392 -0.3130829930
-0.0354156829 -0.0918837190 -0.3124102652
-0.0343342200 -0.0919209421 -0.3125973046
-0.0332521014 -0.0919556171 -0.3127809465
-0.0320131034 -0.0915124416 -0.3120952845
-0.0309335198 -0.0915418342 -0.3122713566
-0.0298533030 -0.0915686563 -0.3124440908
-0.0287724640 -0.0915929079 -0.3126133382
-0.0276910495 -0.0916146114 -0.3127791286
-0.0266090538 -0.0916337147 -0.3129415512
-0.0255264696 -0.0916502774 -0.3131004572
-0.0244433526 -0.0916642547 -0.3132559359
-0.0233596973 -0.0916756392 -0.3134079874
-0.0222755279 -0.0916844979 -0.3135565817
-0.0211908687 -0.0916907564 -0.3137016892
-0.0199922100 -0.0912185237 -0.3129712641
-0.0189104863 -0.0912196264 -0.3131089509
-0.0178283211 -0.0912181810 -0.3132431805
-0.0168475453 -0.0916900858 -0.3142476082
-0.0156627055 -0.0912075937 -0.3135013878
-0.0145793045 -0.0911984816 -0.3136252761
-0.0134955077 -0.0911867842 -0.3137457669
-0.0124113625 -0.0911725312 -0.3138627708
-0.0112445354 -0.0906800479 -0.3131005466
-0.0102420421 -0.0911363363 -0.3140863478
-0.0091569042 -0.0911143944 -0.3141929507
-0.0080714570 -0.0910899267 -0.3142961562
-0.0069190292 -0.0905874893 -0.3135185540
-0.0058369581 -0.0905579925 -0.3136143684
-0.0047546495 -0.0905259252 -0.3137068152
-0.0036171058 -0.0900162905 -0.3129174709
-0.0024871707 -0.0895044133 -0.3121241033
-0.0014120332 -0.0894649997 -0.3122054636
-0.0003367362 -0.0894230455 -0.3122834861
0.0007387355 -0.0893785581 -0.3123579621
0.0018497949 -0.0888572857 -0.3115493953
0.0028900628 -0.0892819911 -0.3124967217
0.0039659319 -0.0892299190 -0.3125609457
0.0050418503 -0.0891753361 -0.3126217127
0.0061376668 -0.0886447355 -0.3117984235
0.0071939356 -0.0890585780 -0.3127328753
0.0082700634 -0.0889963880 -0.3127832413
0.0093462002 -0.0889316872 -0.3128302097
0.0104223592 -0.0888644680 -0.3128737509
0.0114982584 -0.0892670229 -0.3137952387
0.0125746112 -0.0887224898 -0.3129504025
0.0136582898 -0.0891194493 -0.3138652444
0.0147497086 -0.0895133466 -0.3147768378
0.0158334989 -0.0894329399 -0.3148032427
0.0169171635 -0.0893499777 -0.3148262203
0.0180007461 -0.0892645046 -0.3148456812
0.0190841742 -0.0891765207 -0.3148616552
0.0201985743 -0.0895559117 -0.3157562912
0.0212856252 -0.0894624963 -0.3157653511
0.0223725159 -0.0893665552 -0.3157709241
0.0235447902 -0.0902058631 -0.3175373971
0.0245923884 -0.0896355957 -0.3166538179
0.0256825332 -0.0895316526 -0.3166487813
0.0268269572 -0.0898929462 -0.3175224662
0.0279205088 -0.0897835419 -0.3175104856
0.0290138163 -0.0896716118 -0.3174949586
0.0301068220 -0.0895570889 -0.3174759150
0.0311994739 -0.0894400328 -0.3174533248
0.0322918519 -0.0893204212 -0.3174272180
0.0334617794 -0.0896635950 -0.3182793558
0.0345572978 -0.0895384550 -0.3182460070
0.0356524773 -0.0894107819 -0.3182092309
0.0367472284 -0.0892805457 -0.3181689680
0.0378415883 -0.0891477838 -0.3181251287
0.0389355086 -0.0890124589 -0.3180777431
0.0404342264 -0.0907245651 -0.3215500414
0.0421739556 -0.0933541134 -0.3267785609
0.0443961956 -0.0978209078 -0.3355227113
0.0464697294 -0.1013527662 -0.3424983919
0.0480205826 -0.1025713086 -0.3450667858
0.0492319427 -0.1024041399 -0.3449906707
0.0504427142 -0.1022341847 -0.3449106514
0.0516528375 -0.1020613834 -0.3448266983
0.0528623201 -0.1018857807 -0.3447388411
0.0540711321 -0.1017073542 -0.3446470201
0.0552792698 -0.1015261263 -0.3445513248
0.0566307083 -0.1017986313 -0.3453297317
0.0578413345 -0.1016112119 -0.3452258706
0.0588994697 -0.1009657308 -0.3442408144
0.0604159199 -0.1016826555 -0.3458833992
0.0616281182 -0.1014861986 -0.3457674682
0.0630028620 -0.1017403230 -0.3465237319
0.0860370323 -0.1027670056 -0.3534234464
0.0930831730 -0.1135198101 -0.3749059737
-0.0693829060 -0.0998242795 -0.3215018511
-0.0663853139 -0.0966368020 -0.3159162998
-0.0506341420 -0.0925345942 -0.3097624183
-0.0493423045 -0.0921325386 -0.3091457486
-0.0480572395 -0.0917274356 -0.3085240126
-0.0469887778 -0.0917955041 -0.3087511361
-0.0459194519 -0.0918610021 -0.3089748919
-0.0450514369 -0.0924007148 -0.3100507259
-0.0437782332 -0.0919843465 -0.3094122410
-0.0427063890 -0.0920421779 -0.3096258342
-0.0416337214 -0.0920974240 -0.3098360002
-0.0405602492 -0.0921500996 -0.3100427985
-0.0393030383 -0.0917224512 -0.3093869686
-0.0382319242 -0.0917698219 -0.3095862269
-0.0373352952 -0.0922926962 -0.3106427789
-0.0366016105 -0.0932914615 -0.3125585914
-0.0353491791 -0.0928532481 -0.3118876815
-0.0342674367 -0.0928906351 -0.3120747209
-0.0331850126 -0.0929254368 -0.3122583032
-0.0319459811 -0.0924789160 -0.3115743995
-0.0308661181 -0.0925084427 -0.3117504418
-0.0297856145 -0.0925353914 -0.3119231164
-0.0287044961 -0.0925597697 -0.3120922744
-0.0276227873 -0.0925815850 -0.3122580647
-0.0265405029 -0.0926008299 -0.3124203682
-0.0254576560 -0.0926174596 -0.3125792742
-0.0243742336 -0.0926315710 -0.3127347231
-0.0234152153 -0.0931223556 -0.3137553930
-0.0223268922 -0.0931313187 -0.3139044642
-0.0212380476 -0.0931376815 -0.3140501082
-0.0200354736 -0.0926620960 -0.3133219481
-0.0189495832 -0.0926633030 -0.3134601712
-0.0178632308 -0.0926619396 -0.3135949373
-0.0167764649 -0.0926579833 -0.3137261569
-0.0156892743 -0.0926514342 -0.3138539493
-0.0145079074 -0.0921630263 -0.3131056428
-0.0134238359 -0.0921513662 -0.3132261336
-0.0123394122 -0.0921371728 -0.3133430779
-0.0111725507 -0.0916412622 -0.3125827610
-0.0101695219 -0.0921010599 -0.3135667145
-0.0090841064 -0.0920791551 -0.3136732876
-0.0079983985 -0.0920547023 -0.3137764335
-0.0069124028 -0.0920276567 -0.3138761222
-0.0058261328 -0.0919980630 -0.3139722645
-0.0046810065 -0.0914873257 -0.3131889999
-0.0035434437 -0.0909742191 -0.3124015629
-0.0024643242 -0.0909372196 -0.3124867380
-0.0013380990 -0.0904194489 -0.3116914630
-0.0002625344 -0.0903774947 -0.3117694259
0.0007741171 -0.0908108652 -0.3127215505
0.0018890979 -0.0902859643 -0.3119151294
0.0029650817 -0.0902364105 -0.3119828403
0.0040412182 -0.0901843086 -0.3120470047
0.0051174057 -0.0901296958 -0.3121078312
0.0062132110 -0.0895956084 -0.3112864494
0.0072700549 -0.0900128558 -0.3122190833
0.0083464170 -0.0899506435 -0.3122694790
0.0094228508 -0.0898859128 -0.3123165071
0.0104953852 -0.0902946368 -0.3132394850
0.0115757277 -0.0902245864 -0.3132796884
0.0126520647 -0.0896765143 -0.3124368191
0.0137283867 -0.0896016732 -0.3124700189
0.0148164788 -0.0899992362 -0.3133797050
0.0159122963 -0.0903937146 -0.3142861426
0.0169962589 -0.0903106853 -0.3143091202
0.0180800930 -0.0902251378 -0.3143286705
0.0191912614 -0.0906107649 -0.3152249455
0.0202787519 -0.0905198008 -0.3152375817
0.0214013420 -0.0908993557 -0.3161270320
0.0224923864 -0.0908029824 -0.3161326945
0.0235832538 -0.0907040238 -0.3161348104
0.0246738978 -0.0906025171 -0.3161334693
0.0257134456 -0.0900268033 -0.3152482212
0.0267996881 -0.0899206176 -0.3152399063
0.0278857090 -0.0898118690 -0.3152280748
0.0289714504 -0.0897005796 -0.3152127862
0.0300568976 -0.0895867422 -0.3151939213
0.0312124658 -0.0899400488 -0.3160516918
0.0323011912 -0.0898206979 -0.3160257339
0.0334677771 -0.0901676193 -0.3168762028
0.0345596671 -0.0900427625 -0.3168431818
0.0357372314 -0.0903832242 -0.3176862001
0.0368322767 -0.0902528241 -0.3176460266
0.0380207263 -0.0905868039 -0.3184815943
0.0391188003 -0.0904508308 -0.3184341192
0.0406228565 -0.0921760947 -0.3218989968
0.0423685834 -0.0948256999 -0.3271163106
0.0444886610 -0.0988614187 -0.3349632025
0.0465649217 -0.1024207398 -0.3419241607
0.0479998142 -0.1031855345 -0.3436090052
0.0492075905 -0.1030186564 -0.3435332477
0.0502898283 -0.1023861989 -0.3425760567
0.0516212918 -0.1026765406 -0.3433701694
0.0528271683 -0.1025012508 -0.3432827294
0.0541689731 -0.1027842835 -0.3440681398
0.0553774051 -0.1026028246 -0.3439726233
0.0565851368 -0.1024185568 -0.3438732028
0.0577921532 -0.1022314653 -0.3437698781
0.0591504574 -0.1025003344 -0.3445380926
0.0605157614 -0.1027651653 -0.3453017175
0.0618880279 -0.1030259207 -0.3460606635
0.0631035715 -0.1028257310 -0.3459405899
0.0897119567 -0.1080641150 -0.3612799346
0.0940619484 -0.1135540679 -0.3723140657
-0.0707219392 -0.1012084782 -0.3214788139
-0.0685080737 -0.0994271562 -0.3184303641
-0.0657897070 -0.0966898650 -0.3136932552
-0.0479939468 -0.0926892459 -0.3080005944
-0.0467155688 -0.0922778025 -0.3073756397
-0.0458556004 -0.0928232521 -0.3084512949
-0.0449870937 -0.0933665633 -0.3095251322
-0.0439119525 -0.0934273526 -0.3097428381
-0.0426416881 -0.0930049568 -0.3091019392
-0.0415687449 -0.0930603743 -0.3093120456
-0.0404950120 -0.0931132287 -0.3095187545
-0.0392377563 -0.0926823094 -0.3088646531
-0.0381663404 -0.0927298218 -0.3090638518
-0.0372692086 -0.0932563171 -0.3101184666
-0.0363636129 -0.0937805325 -0.3111710548
-0.0352822952 -0.0938206241 -0.3113613427
-0.0342002697 -0.0938581377 -0.3115482628
-0.0331175663 -0.0938930809 -0.3117317855
-0.0318785049 -0.0934432670 -0.3110497892
-0.0307983607 -0.0934729204 -0.3112257719
-0.0297175758 -0.0935000181 -0.3113983274
-0.0284920949 -0.0930420309 -0.3107034564
-0.0274139903 -0.0930638686 -0.3108685911
-0.0264716279 -0.0935657695 -0.3118954301
-0.0253884960 -0.0935825482 -0.3120542765
-0.0243048090 -0.0935967267 -0.3122096360
-0.0233452637 -0.0940910727 -0.3132284582
-0.0221358668 -0.0936173275 -0.3125101030
-0.0210506395 -0.0936237723 -0.3126552105
-0.0198519360 -0.0931447819 -0.3119283915
-0.0187696610 -0.0931460559 -0.3120660782
-0.0176869407 -0.0931447372 -0.3122002780
-0.0167050976 -0.0936237127 -0.3132009208
-0.0155202076 -0.0931344554 -0.3124583662
-0.0144362487 -0.0931254253 -0.3125822246
-0.0133519070 -0.0931138396 -0.3127026856
-0.0122671938 -0.0930996761 -0.3128196001
-0.0110185249 -0.0921177268 -0.3111892045
-0.0100188702 -0.0925811380 -0.3121708632
-0.0089370767 -0.0925593153 -0.3122770786
-0.0078549916 -0.0925349593 -0.3123798072
-0.0067726341 -0.0925080627 -0.3124791682
-0.0057522911 -0.0929607749 -0.3134488761
-0.0046071466 -0.0924465507 -0.3126674294
-0.0035240697 -0.0924119875 -0.3127563894
-0.0023902068 -0.0918930098 -0.3119670451
-0.0013106290 -0.0918534622 -0.3120487928
-0.0002308577 -0.0918113515 -0.3121271133
0.0008490537 -0.0917666703 -0.3122019172
0.0019640082 -0.0912383050 -0.3113974035
0.0030403009 -0.0911887139 -0.3114651144
0.0041166632 -0.0911366045 -0.3115293682
0.0051931404 -0.0910819471 -0.3115901947
0.0062696883 -0.0910247639 -0.3116475940
0.0073463125 -0.0909650251 -0.3117014766
0.0084229326 -0.0909028128 -0.3117520213
0.0094996281 -0.0908380225 -0.3117990494
0.0105727324 -0.0912501439 -0.3127201796
0.0116533069 -0.0911800414 -0.3127604723
0.0127296215 -0.0906284600 -0.3119195104
0.0138062350 -0.0905535221 -0.3119527400
0.0148948738 -0.0909544751 -0.3128605485
0.0159752499 -0.0908742547 -0.3128870428
0.0170555301 -0.0907914266 -0.3129099905
0.0181595627 -0.0911836103 -0.3138078749
0.0192989837 -0.0920498222 -0.3155806959
0.0203906596 -0.0919584259 -0.3155934513
0.0214821566 -0.0918644890 -0.3156026900
0.0225734673 -0.0917679742 -0.3156084418
0.0236645732 -0.0916689262 -0.3156105876
0.0247082282 -0.0910918415 -0.3147308826
0.0257437862 -0.0905129761 -0.3138476610
0.0268264301 -0.0904069990 -0.3138394654
0.0279087797 -0.0902985334 -0.3138277233
0.0289908610 -0.0901875347 -0.3138125837
0.0301395077 -0.0905474424 -0.3146721125
0.0312248711 -0.0904309750 -0.3146499395
0.0323099382 -0.0903119147 -0.3146241903
0.0334732123 -0.0906625539 -0.3154729903
0.0346439108 -0.0910097808 -0.3163180351
0.0357357003 -0.0908822417 -0.3162816167
0.0368270651 -0.0907521248 -0.3162416220
0.0380121581 -0.0910898596 -0.3170756102
0.0392046310 -0.0914241001 -0.3179057539
0.0405063331 -0.0922241807 -0.3196091056
0.0422463752 -0.0948952809 -0.3248156309
0.0443617068 -0.0989628732 -0.3326462507
0.0462057702 -0.1016148701 -0.3378398418
0.0477434956 -0.1028557792 -0.3403982222
0.0490612164 -0.1031571105 -0.3411994278
0.0502608903 -0.1029883102 -0.3411204517
0.0515890457 -0.1032824293 -0.3419131339
0.0529243238 -0.1035725921 -0.3427012861
0.0542667173 -0.1038588360 -0.3434850574
0.0554754212 -0.1036771461 -0.3433896899
0.0565388165 -0.1030292138 -0.3424161375
0.0578906983 -0.1033052802 -0.3431872427
0.0590972826 -0.1031151116 -0.3430801928
0.0604593009 -0.1033837348 -0.3438425064
0.0618283004 -0.1036482528 -0.3446000814
0.0630402490 -0.1034484506 -0.3444805741
-0.0709555745 -0.1006837338 -0.3181081712
-0.0695618540 -0.1003253236 -0.3175755441
-0.0673636496 -0.0985290483 -0.3145304620
-0.0479302369 -0.0936489627 -0.3074734509
-0.0466518141 -0.0932342559 -0.3068502545
-0.0457913317 -0.0937833264 -0.3079238832
-0.0449223295 -0.0943302736 -0.3089957833
-0.0436490066 -0.0939074233 -0.3083609045
-0.0425766036 -0.0939655900 -0.3085742593
-0.0415033847 -0.0940211862 -0.3087843359
-0.0404293835 -0.0940742046 -0.3089909256
-0.0391720943 -0.0936399996 -0.3083386421
-0.0381004028 -0.0936877206 -0.3085378110
-0.0370279551 -0.0937328562 -0.3087334931
-0.0361257344 -0.0942604914 -0.3097833991
-0.0350479893 -0.0943006128 -0.3099730015
-0.0339695551 -0.0943381339 -0.3101592064
-0.0330497846 -0.0948586166 -0.3112015724
-0.0318106711 -0.0944054723 -0.3105213344
-0.0307302643 -0.0944352597 -0.3106972873
-0.0296492130 -0.0944624543 -0.3108697832
-0.0284237005 -0.0940011591 -0.3101767600
-0.0273453239 -0.0940231085 -0.3103418350
-0.0264024399 -0.0945285633 -0.3113667071
-0.0253190249 -0.0945454463 -0.3115255237
-0.0241067708 -0.0940735489 -0.3108164966
-0.0232750159 -0.0950576514 -0.3126977384
-0.0220655948 -0.0945805386 -0.3119812608
-0.0208634492 -0.0941007584 -0.3112602532
-0.0197813679 -0.0941046849 -0.3114013374
-0.0186988246 -0.0941060558 -0.3115389943
-0.0176158156 -0.0941048115 -0.3116731644
-0.0166334640 -0.0945873260 -0.3126718402
-0.0154485637 -0.0940946192 -0.3119311929
-0.0143643273 -0.0940856785 -0.3120550513
-0.0131903561 -0.0935879722 -0.3113062084
-0.0121092843 -0.0935739204 -0.3114227355
-0.0110278698 -0.0935573131 -0.3115358651
-0.0099461386 -0.0935381129 -0.3116455078
-0.0088640871 -0.0935163572 -0.3117516935
-0.0077118892 -0.0930062011 -0.3109832108
-0.0066991067 -0.0934651494 -0.3119537830
-0.0056162216 -0.0934356824 -0.3120496571
-0.0045330850 -0.0934036896 -0.3121420741
-0.0034497350 -0.0933690965 -0.3122310638
-0.0023661701 -0.0933319703 -0.3123165667
-0.0012360369 -0.0928071588 -0.3115253747
-0.0001135551 -0.0922800750 -0.3107302189
0.0009241695 -0.0927203596 -0.3116786182
0.0020391231 -0.0921884775 -0.3108759522
0.0031156510 -0.0921389088 -0.3109436929
0.0041923011 -0.0920867473 -0.3110079765
0.0052690310 -0.0920321047 -0.3110688329
0.0063458276 -0.0919748843 -0.3111262918
0.0074227070 -0.0919151306 -0.3111802042
0.0085107507 -0.0913694054 -0.3103553951
0.0095765321 -0.0917880088 -0.3112778366
0.0106501691 -0.0922035500 -0.3121970892
0.0117310258 -0.0921333879 -0.3122374415
0.0128073152 -0.0915782526 -0.3113984168
0.0138926273 -0.0919854268 -0.3123077750
0.0149733592 -0.0919076428 -0.3123377264
0.0160539877 -0.0918273106 -0.3123642504
0.0171345621 -0.0917444453 -0.3123872876
0.0182390977 -0.0921399817 -0.3132833242
0.0193793532 -0.0930129886 -0.3150524199
0.0204712916 -0.0929215178 -0.3150652349
0.0215988960 -0.0933074281 -0.3159510791
0.0226546265 -0.0927308723 -0.3150803447
0.0237459932 -0.0926316828 -0.3150826395
0.0247895867 -0.0920510739 -0.3142048717
0.0258766022 -0.0919471458 -0.3142001927
0.0269079823 -0.0913625434 -0.3133155107
0.0280499365 -0.0917316824 -0.3141803443
0.0291361604 -0.0916201174 -0.3141652346
0.0302221216 -0.0915060490 -0.3141466081
0.0313077569 -0.0913894027 -0.3141244650
0.0324680023 -0.0917463154 -0.3149750531
0.0335569009 -0.0916241556 -0.3149458170
0.0346454047 -0.0914994627 -0.3149131536
0.0357335396 -0.0913721919 -0.3148769736
0.0368212722 -0.0912424177 -0.3148372769
0.0380030088 -0.0915838927 -0.3156696260
0.0391921476 -0.0919218361 -0.3164981008
0.0405930392 -0.0932019800 -0.3190731704
0.0422290601 -0.0954212248 -0.3233935535
0.0442335270 -0.0990482420 -0.3303326964
0.0460718796 -0.1017217189 -0.3355156183
0.0476030298 -0.1029738039 -0.3380689621
0.0489135645 -0.1032794639 -0.3388688266
0.0502313040 -0.1035812125 -0.3396644294
0.0516855866 -0.1043481976 -0.3413291574
0.0530214459 -0.1046415940 -0.3421156704
0.0543644279 -0.1049310416 -0.3428976834
0.0555733927 -0.1047490686 -0.3428025246
0.0566367060 -0.1040974408 -0.3418309987
0.0579892248 -0.1043766588 -0.3426004350
0.0591960289 -0.1041862518 -0.3424935341
0.0605586544 -0.1044580117 -0.3432540596
0.0617678054 -0.1042613536 -0.3431390226
-0.0717294291 -0.1010959744 -0.3164092600
-0.0700592622 -0.1002564132 -0.3150501549
-0.0686768517 -0.0998937041 -0.3145162761
-0.0478660949 -0.0946064889 -0.3069425821
-0.0467968024 -0.0946751386 -0.3071693480
-0.0457266681 -0.0947412625 -0.3073928654
-0.0448571332 -0.0952918380 -0.3084627092
-0.0435837880 -0.0948657319 -0.3078295887
-0.0425111055 -0.0949240699 -0.3080429137
-0.0414376371 -0.0949798524 -0.3082527816
-0.0403633602 -0.0950330496 -0.3084593713
-0.0392883047 -0.0950836688 -0.3086625040
-0.0382124819 -0.0951316655 -0.3088622391
-0.0371359102 -0.0951771140 -0.3090585768
-0.0360586233 -0.0952199474 -0.3092514575
-0.0351474434 -0.0957489237 -0.3102973402
-0.0339019261 -0.0952979028 -0.3096271157
-0.0329816304 -0.0958219618 -0.3106675446
-0.0317425132 -0.0953655168 -0.3099891245
-0.0306618214 -0.0953954458 -0.3101650476
-0.0295804981 -0.0954227448 -0.3103374839
-0.0283549745 -0.0949581265 -0.3096462786
-0.0272763353 -0.0949802101 -0.3098113239
-0.0263329260 -0.0954892263 -0.3108342588
-0.0252492540 -0.0955062062 -0.3109930158
-0.0240369905 -0.0950309560 -0.3102858663
-0.0230802931 -0.0955323800 -0.3113001883
-0.0218747314 -0.0950518623 -0.3105850220
-0.0207928587 -0.0950584486 -0.3107295036
-0.0197105203 -0.0950624794 -0.3108705580
-0.0186276976 -0.0950639099 -0.3110081553
-0.0175444465 -0.0950627401 -0.3111423552
-0.0164607521 -0.0950590149 -0.3112730086
-0.0153766507 -0.0950526819 -0.3114003241
-0.0142921554 -0.0950438008 -0.3115241826
-0.0131181888 -0.0945427045 -0.3107772171
-0.0119516505 -0.0940390974 -0.3100259006
-0.0109551754 -0.0945120975 -0.3110067844
-0.0099505540 -0.0949824080 -0.3119849861
-0.0087908478 -0.0944712535 -0.3112226427
-0.0077082543 -0.0944469720 -0.3113254309
-0.0066910107 -0.0949092656 -0.3122944236
-0.0055422154 -0.0943906456 -0.3115205765
-0.0044009918 -0.0938696861 -0.3107426167
-0.0033752124 -0.0943241045 -0.3117019832
-0.0022913814 -0.0942869633 -0.3117875159
-0.0011612704 -0.0937586948 -0.3109982610
-0.0000387956 -0.0932281464 -0.3102049828
0.0010377197 -0.0931836367 -0.3102796078
0.0021143912 -0.0931365937 -0.3103508055
0.0031911654 -0.0930869952 -0.3104185760
0.0042946166 -0.0925471038 -0.3096102476
0.0053676772 -0.0924925953 -0.3096709251
0.0064408383 -0.0924355537 -0.3097281456
0.0075140428 -0.0923759863 -0.3097819686
0.0085872812 -0.0923138931 -0.3098323345
0.0096536167 -0.0927358717 -0.3107529283
0.0107277781 -0.0931548178 -0.3116703331
0.0118088881 -0.0930845812 -0.3117106855
0.0128851393 -0.0925259814 -0.3108735979
0.0139622530 -0.0924509317 -0.3109070063
0.0150519609 -0.0928586498 -0.3118111789
0.0161328409 -0.0927782506 -0.3118377030
0.0172341373 -0.0931800157 -0.3127352595
0.0183187388 -0.0930942073 -0.3127550185
0.0194315426 -0.0934899002 -0.3136457801
0.0205520038 -0.0938824266 -0.3145332634
0.0216440223 -0.0937883109 -0.3145426214
0.0227358155 -0.0936916098 -0.3145484924
0.0238274746 -0.0935923234 -0.3145508766
0.0248710010 -0.0930081382 -0.3136750758
0.0259065200 -0.0924221352 -0.3127958477
0.0269896463 -0.0923159271 -0.3127878308
0.0281320866 -0.0926883817 -0.3136508465
0.0292185992 -0.0925766975 -0.3136357665
0.0303722098 -0.0929428786 -0.3144917190
0.0314620174 -0.0928256586 -0.3144696057
0.0325514562 -0.0927059129 -0.3144440353
0.0336405933 -0.0925835893 -0.3144149482
0.0347293578 -0.0924587399 -0.3143823445
0.0358177237 -0.0923313349 -0.3143462837
0.0369056985 -0.0922013670 -0.3143067062
0.0380879976 -0.0925460979 -0.3151372075
0.0393762849 -0.0933641046 -0.3168374300
0.0407822542 -0.0946538672 -0.3194067180
0.0423175283 -0.0964138135 -0.3228444159
0.0441040322 -0.0991176069 -0.3280226886
0.0458225645 -0.1013377905 -0.3323220909
0.0472251251 -0.1021273360 -0.3339981735
0.0486426540 -0.1029120013 -0.3356694877
0.0502010286 -0.1041648537 -0.3382079601
0.0516523086 -0.1049390361 -0.3398694098
0.0531184934 -0.1057081670 -0.3415257633
0.0544620417 -0.1060007885 -0.3423060775
0.0556712635 -0.1058185771 -0.3422110975
0.0568797998 -0.1056335419 -0.3421121538
0.0580876097 -0.1054456905 -0.3420093656
0.0592947043 -0.1052550003 -0.3419026434
0.0606578551 -0.1055299342 -0.3426615000
0.0617065802 -0.1048651859 -0.3416774869
0.0940496996 -0.1136720926 -0.3641324341
-0.0724949464 -0.1014965922 -0.3147091269
-0.0708224401 -0.1006536409 -0.3133582175
-0.0694411322 -0.1002904847 -0.3128295243
-0.0469409078 -0.0961207226 -0.3074809611
-0.0458666719 -0.0961872563 -0.3077051044
-0.0447915532 -0.0962512195 -0.3079258800
-0.0435181633 -0.0958218277 -0.3072945476
-0.0424452387 -0.0958803594 -0.3075077832
-0.0413714759 -0.0959363282 -0.3077175915
-0.0402969383 -0.0959896967 -0.3079240322
-0.0392216258 -0.0960404798 -0.3081270754
-0.0381455459 -0.0960886329 -0.3083267212
-0.0370687284 -0.0961342677 -0.3085230589
-0.0359911621 -0.0961772576 -0.3087158501
-0.0350794755 -0.0967097804 -0.3097597659
-0.0339966454 -0.0967477784 -0.3099464476
-0.0329131335 -0.0967831239 -0.3101297319
-0.0316739827 -0.0963233635 -0.3094532192
-0.0305930357 -0.0963534415 -0.3096290529
-0.0293642357 -0.0958881676 -0.3089437187
-0.0282859206 -0.0959129483 -0.3091121316
-0.0273464639 -0.0964280143 -0.3101359606
-0.0263986774 -0.0969406217 -0.3111575246
-0.0253108609 -0.0969577804 -0.3113167286
-0.0242224839 -0.0969723016 -0.3114725053
-0.0231335890 -0.0969842300 -0.3116249442
-0.0219241437 -0.0965004414 -0.3109122515
-0.0208381135 -0.0965071321 -0.3110571504
-0.0196393784 -0.0960180536 -0.3103359938
-0.0185563099 -0.0960195661 -0.3104735911
-0.0174727868 -0.0960184708 -0.3106076717
-0.0163888428 -0.0960148349 -0.3107384145
-0.0153044788 -0.0960085839 -0.3108656704
-0.0142197246 -0.0959997475 -0.3109894395
-0.0130457534 -0.0954952538 -0.3102444112
-0.0118792262 -0.0949882641 -0.3094950020
-0.0108822258 -0.0954647660 -0.3104740083
-0.0097999610 -0.0954456627 -0.3105836511
-0.0087173926 -0.0954239890 -0.3106898367
-0.0076345312 -0.0953997150 -0.3107925653
-0.0065513859 -0.0953728557 -0.3108918965
-0.0054679937 -0.0953434929 -0.3109878004
-0.0043843449 -0.0953115001 -0.3110801876
-0.0033004831 -0.0952769369 -0.3111691475
-0.0022163936 -0.0952398181 -0.3112547100
-0.0011321241 -0.0952000916 -0.3113368154
-0.0000057647 -0.0946659669 -0.3105457425
0.0010749210 -0.0946213007 -0.3106206954
0.0021898458 -0.0940825120 -0.3098219037
0.0032367103 -0.0945242196 -0.3107601702
0.0043440419 -0.0939807370 -0.3099540174
0.0054212576 -0.0939260051 -0.3100149333
0.0064985720 -0.0938687101 -0.3100724220
0.0075904629 -0.0933183283 -0.3092551231
0.0086639365 -0.0932562128 -0.3093055785
0.0097307889 -0.0936815813 -0.3102242351
0.0108082490 -0.0936141163 -0.3102679849
0.0118856747 -0.0935440958 -0.3103082776
0.0129630640 -0.0934715495 -0.3103451133
0.0140404170 -0.0933964401 -0.3103785217
0.0151306521 -0.0938075110 -0.3112808168
0.0162118003 -0.0937270448 -0.3113074601
0.0172928665 -0.0936440155 -0.3113306463
0.0183984675 -0.0940462723 -0.3122229576
0.0194832142 -0.0939577967 -0.3122392595
0.0205677785 -0.0938668177 -0.3122521341
0.0216886383 -0.0942601189 -0.3131341934
0.0227767695 -0.0941636413 -0.3131401241
0.0238647610 -0.0940646008 -0.3131425679
0.0249524936 -0.0939630345 -0.3131415844
0.0260400157 -0.0938588977 -0.3131370544
0.0270713139 -0.0932671428 -0.3122563660
0.0282143019 -0.0936429203 -0.3131175637
0.0293010343 -0.0935311243 -0.3131026626
0.0304552168 -0.0939005837 -0.3139567375
0.0315452479 -0.0937832296 -0.3139347434
0.0327104665 -0.0941463038 -0.3147816360
0.0337243080 -0.0935408920 -0.3138802648
0.0348966457 -0.0938979313 -0.3147199154
0.0359891355 -0.0937699080 -0.3146837950
0.0370812528 -0.0936393067 -0.3146441579
0.0381729789 -0.0935061648 -0.3146010935
0.0394621156 -0.0943308473 -0.3162975907
0.0407663807 -0.0951509997 -0.3179898560
0.0422992073 -0.0969249606 -0.3214202225
0.0438627154 -0.0986922532 -0.3248454034
0.0454568006 -0.1004527435 -0.3282652795
0.0468446948 -0.1012510732 -0.3299385607
0.0482475795 -0.1020445079 -0.3316071928
0.0497915782 -0.1033095941 -0.3341410756
0.0513582677 -0.1045686454 -0.3366696537
0.0529475994 -0.1058215126 -0.3391927779
0.0542839430 -0.1061184704 -0.3399719000
0.0556273870 -0.1064114124 -0.3407464921
0.0568322651 -0.1062267125 -0.3406480849
0.0580364801 -0.1060391814 -0.3405457735
0.0592399277 -0.1058488637 -0.3404396176
0.0605998561 -0.1061275601 -0.3411971331
0.0618056282 -0.1059309617 -0.3410828114
-0.0718620196 -0.1015260518 -0.3124910295
-0.0704781041 -0.1011629030 -0.3119685650
-0.0455960594 -0.0966505557 -0.3063194752
-0.0445245206 -0.0967144519 -0.3065392971
-0.0434521474 -0.0967757627 -0.3067558110
-0.0423789620 -0.0968344733 -0.3069689572
-0.0413049497 -0.0968905985 -0.3071786463
-0.0402301401 -0.0969441533 -0.3073849976
-0.0391545519 -0.0969950855 -0.3075879514
-0.0379002914 -0.0965483636 -0.3069370985
-0.0368270762 -0.0965939611 -0.3071325719
-0.0359233394 -0.0971323550 -0.3081764877
-0.0350111425 -0.0976684615 -0.3092183471
-0.0337655842 -0.0972109139 -0.3085518777
-0.0326856859 -0.0972462744 -0.3087343872
-0.0314504132 -0.0967831165 -0.3080590665
-0.0303730704 -0.0968132019 -0.3082342148
-0.0291481391 -0.0963445157 -0.3075501919
-0.0280734412 -0.0963693336 -0.3077179193
-0.0271373838 -0.0968878493 -0.3087390959
-0.0261929482 -0.0974039659 -0.3097581267
-0.0251087639 -0.0974211544 -0.3099167645
-0.0240240227 -0.0974357352 -0.3100719452
-0.0229387619 -0.0974477157 -0.3102237284
-0.0217332002 -0.0969605297 -0.3095123470
-0.0206508283 -0.0969673172 -0.3096567690
-0.0194559786 -0.0964748710 -0.3089370131
-0.0183765497 -0.0964764655 -0.3090740740
-0.0174008552 -0.0969720855 -0.3100693524
-0.0162163824 -0.0964718610 -0.3093378544
-0.0151356673 -0.0964656994 -0.3094646633
-0.0140545582 -0.0964569673 -0.3095879555
-0.0128844921 -0.0959491432 -0.3088443875
-0.0117218914 -0.0954388306 -0.3080965579
-0.0107282745 -0.0959188491 -0.3090730906
-0.0096496800 -0.0958998427 -0.3091823459
-0.0085707624 -0.0958782881 -0.3092881739
-0.0074915565 -0.0958541408 -0.3093905151
-0.0064120875 -0.0958274305 -0.3094895184
-0.0053935624 -0.0962941274 -0.3104512393
-0.0042523635 -0.0957663059 -0.3096770644
-0.0032255508 -0.0962276161 -0.3106326461
-0.0021412235 -0.0961904749 -0.3107181489
-0.0010111473 -0.0956553221 -0.3099327981
0.0001112710 -0.0951179340 -0.3091434538
0.0011882946 -0.0950733945 -0.3092180789
0.0022654682 -0.0950263143 -0.3092893362
0.0033427468 -0.0949766710 -0.3093571365
0.0044201449 -0.0949244797 -0.3094214499
0.0054976265 -0.0948697254 -0.3094824553
0.0065751723 -0.0948123932 -0.3095399439
0.0076670139 -0.0942585766 -0.3087246120
0.0087407492 -0.0941963792 -0.3087750971
0.0098144943 -0.0941316783 -0.3088221550
0.0108882673 -0.0940643847 -0.3088657558
0.0119634699 -0.0944875926 -0.3097760081
0.0130411191 -0.0944149643 -0.3098129034
0.0141187375 -0.0943397805 -0.3098463714
0.0151962750 -0.0942620561 -0.3098763525
0.0162737425 -0.0941818133 -0.3099029958
0.0173510946 -0.0940989852 -0.3099261224
0.0184283648 -0.0940136313 -0.3099458516
0.0195055120 -0.0939257070 -0.3099620640
0.0206152890 -0.0943259075 -0.3108456731
0.0217327569 -0.0947228819 -0.3117258847
0.0228172112 -0.0946266651 -0.3117319047
0.0239015277 -0.0945278704 -0.3117343783
0.0249855872 -0.0944265574 -0.3117334545
0.0261218101 -0.0948114991 -0.3125998974
0.0272093117 -0.0947046950 -0.3125919700
0.0283567812 -0.0950833708 -0.3134513199
0.0294476599 -0.0949710310 -0.3134363890
0.0305382460 -0.0948560908 -0.3134179413
0.0316284932 -0.0947386101 -0.3133960366
0.0327942669 -0.0951049626 -0.3142410815
0.0338877551 -0.0949819311 -0.3142121136
0.0349808931 -0.0948563069 -0.3141796291
0.0360736512 -0.0947281197 -0.3141436577
0.0371659920 -0.0945973471 -0.3141041100
0.0382579453 -0.0944640189 -0.3140611351
0.0394486636 -0.0948117673 -0.3148842752
0.0408530422 -0.0961222202 -0.3174424469
0.0422803015 -0.0974270180 -0.3199959397
0.0437304378 -0.0987261906 -0.3225447237
0.0452034138 -0.1000196114 -0.3250885904
0.0464617610 -0.1003450751 -0.3258902431
0.0479725227 -0.1016278341 -0.3284244537
0.0495060533 -0.1029046252 -0.3309535384
0.0511926338 -0.1046547368 -0.3343451619
0.0529096536 -0.1063975915 -0.3377307951
0.0543808080 -0.1071765572 -0.3393757045
0.0558667816 -0.1079503745 -0.3410156369
0.0572217070 -0.1082419008 -0.3417837024
0.0582841523 -0.1075764298 -0.3408145607
0.0594917126 -0.1073852479 -0.3407082856
0.0608560108 -0.1076664478 -0.3414636254
-0.0731885582 -0.1028825268 -0.3124397397
-0.0712293610 -0.1015395820 -0.3102767169
-0.0431887694 -0.0972299650 -0.3053685427
-0.0423122607 -0.0977863893 -0.3064263165
-0.0412380025 -0.0978427082 -0.3066360056
-0.0401629545 -0.0978964120 -0.3068422675
-0.0390871204 -0.0979475081 -0.3070451021
-0.0380105339 -0.0979960486 -0.3072446287
-0.0369331837 -0.0980419442 -0.3074406981
-0.0358551219 -0.0980852619 -0.3076333702
-0.0347763486 -0.0981259719 -0.3078226745
-0.0336968862 -0.0981640890 -0.3080086112
-0.0326167271 -0.0981995910 -0.3081910312
-0.0315359160 -0.0982325375 -0.3083701730
-0.0304544680 -0.0982628241 -0.3085458577
-0.0292256474 -0.0977909490 -0.3078643084
-0.0281468369 -0.0978159904 -0.3080326319
-0.0272063818 -0.0983381495 -0.3090523779
-0.0261224862 -0.0983580500 -0.3092144132
-0.0251692422 -0.0988751948 -0.3102291226
-0.0240803529 -0.0988899395 -0.3103848100
-0.0228675567 -0.0984020904 -0.3096798956
-0.0216619913 -0.0979116037 -0.3089704514
-0.0205793548 -0.0979184508 -0.3091147542
-0.0193845276 -0.0974227041 -0.3083969653
-0.0183048490 -0.0974243581 -0.3085339665
-0.0173286609 -0.0979234427 -0.3095272481
-0.0161441844 -0.0974198952 -0.3087977171
-0.0149671007 -0.0969137996 -0.3080637753
-0.0138896536 -0.0969051421 -0.3081866503
-0.0127235241 -0.0963939875 -0.3074445724
-0.0116492491 -0.0963802263 -0.3075602055
-0.0105746221 -0.0963639170 -0.3076724410
-0.0095762732 -0.0968447626 -0.3086440265
-0.0084971264 -0.0968232378 -0.3087498248
-0.0074176756 -0.0967991129 -0.3088522255
-0.0063379421 -0.0967724398 -0.3089511693
-0.0052579725 -0.0967431739 -0.3090466857
-0.0041777417 -0.0967113301 -0.3091388047
-0.0030972969 -0.0966769382 -0.3092274666
-0.0020166405 -0.0966399387 -0.3093126714
-0.0009357936 -0.0966004133 -0.3093945682
0.0001865965 -0.0960595757 -0.3086071312
0.0012638579 -0.0960150287 -0.3086818159
0.0023412588 -0.0959679410 -0.3087530434
0.0034187809 -0.0959182605 -0.3088208437
0.0044964040 -0.0958660617 -0.3088852465
0.0055741407 -0.0958112776 -0.3089462519
0.0066519105 -0.0957539156 -0.3090037704
0.0077436995 -0.0951966569 -0.3081904650
0.0088176923 -0.0951344147 -0.3082409203
0.0098916944 -0.0950696394 -0.3082880378
0.0109656891 -0.0950023085 -0.3083316684
0.0120413965 -0.0954288766 -0.3092400134
0.0131192757 -0.0953562260 -0.3092769682
0.0141971214 -0.0952809677 -0.3093104959
0.0152749131 -0.0952031612 -0.3093405962
0.0163526088 -0.0951228291 -0.3093672097
0.0174302142 -0.0950399414 -0.3093903959
0.0185076874 -0.0949545279 -0.3094102144
0.0195850618 -0.0948665366 -0.3094265759
0.0206953865 -0.0952700302 -0.3103082180
