0.4974396705 0.1449622874 0.3753985713
0.5106952190 0.0966772735 0.4025651515
0.5140124184 0.0578889091 0.3601234701
0.5107679234 0.1346449952 0.4251798999
0.5097433059 0.1178830134 0.4182286515
0.5054770520 0.0535435488 0.3711078143
0.5021465314 0.0883266110 0.4028665606
0.5051119029 0.0597426485 0.4031121989
0.4927115319 0.1228646774 0.3853784051
0.4978709545 0.1398999465 0.3727791625
0.5028938986 0.1118766094 0.3658358897
0.4969603443 0.0698586747 0.4000729984
0.5103659302 0.0856500285 0.4195769687
0.5058200435 0.0808480003 0.4276301247
0.4988858183 0.0673103643 0.4012958145
0.4952090819 0.1352181648 0.4003700489
0.5120651279 0.1105002865 0.4156763106
0.5139670344 0.1006605518 0.4123442730
0.5094230513 0.1228468786 0.3608184881
0.5063916325 0.1171423020 0.4107059423
0.4971319366 0.1178266820 0.3976151803
0.5007825965 0.0544375287 0.4154432429
0.4924502554 0.1326300561 0.3830342923
0.5065789161 0.1008233397 0.3672846001
0.5019730941 0.0744162438 0.3747044030
0.5053164225 0.0675128965 0.3685469186
0.5053643477 0.0755242237 0.3680972801
0.5070742757 0.1224337439 0.4246560834
0.5051245588 0.1179135090 0.3653832993
0.4925620260 0.1254657202 0.3875234559
0.5000720052 0.1325858556 0.4207334506
0.5000331239 0.0729410762 0.3753006731
0.4968814668 0.1356186881 0.3768979471
0.5144878572 0.1475073192 0.4175278451
0.4996970914 0.0879336960 0.3880695005
0.4950749986 0.1103024207 0.3779006257
0.5053417243 0.0699645506 0.3686833107
0.4991841313 0.0870278723 0.3775256560
0.5066304941 0.1032414908 0.4252366599
0.4951709795 0.1444496623 0.3783957983
0.5055373047 0.0648214248 0.4245918269
0.5027662758 0.1402577707 0.3676574886
0.5117434212 0.1467783961 0.3724908449
0.5169195320 0.0701352941 0.3568123352
0.5043077233 0.0822266280 0.3724289932
0.5072788637 0.0596873621 0.4059756991
0.5000438364 0.1398017399 0.3701385299
0.5037411742 0.0572266776 0.3721772056
0.4974799887 0.1251201831 0.3750820351
0.5145539361 0.0829653397 0.3582095831
0.5142878771 0.1046572085 0.4097960230
0.5015300996 0.0907119259 0.3903873579
0.5026064244 0.1328970116 0.3680896540
0.4973779579 0.1025925321 0.3756994242
0.5048447383 0.1444603496 0.4028474613
0.5014017126 0.0778909623 0.3745300790
0.5132644278 0.0581708809 0.3576808402
0.4944082981 0.1279958562 0.3800590427
0.4950889071 0.0847885924 0.3784916364
0.4974488821 0.1425639851 0.3755080190
0.5181285475 0.0450439248 0.4131393206
0.5088052113 0.1458664409 0.4028954484
0.5073281206 0.1476116908 0.3901523149
0.4951893285 0.0883645166 0.3821763351
0.5118077316 0.1434467305 0.4128050780
0.4966233164 0.0877447244 0.3798963831
0.5006920349 0.0817714181 0.4092985050
0.4954128983 0.1181903537 0.3828976337
0.5023491772 0.0525810984 0.3708417443
0.5053729745 0.0921663058 0.4022892942
0.5054081596 0.1229721083 0.4200880962
0.5133903378 0.0676312495 0.3583637658
0.4955668394 0.0848791746 0.3875628238
0.4970626047 0.0730567203 0.3852549040
0.5045494139 0.0910768993 0.4002325833
0.4982461774 0.1370850105 0.4023688756
0.5226105309 0.0434965162 0.4100565366
0.5066703810 0.1028977778 0.3651473851
0.5059658627 0.0665802874 0.3643516678
0.4975673330 0.1136134150 0.3904307323
0.5100027908 0.0500178890 0.4176492540
0.5125831663 0.0924344205 0.4130855004
0.4939440682 0.1256788441 0.3826170694
0.4970570573 0.1405679859 0.3877313689
0.4978633463 0.0749122398 0.4049344586
0.4956950545 0.0687633902 0.3780584633
0.4983756542 0.1118182614 0.3739378750
0.4993426962 0.1127368230 0.3745213494
0.5094880378 0.0470284802 0.4089239474
0.5054753798 0.1151910694 0.4082177521
0.5049952003 0.1462637220 0.3750733892
0.4918876222 0.1277162302 0.3902732636
0.5028698938 0.1178283092 0.3686964057
0.4933321468 0.1332186284 0.3777046563
0.5151503663 0.0652735050 0.3555426002
0.5152436001 0.0551828226 0.3577370449
0.5095562993 0.0521833781 0.4175653413
0.4993849860 0.1425997707 0.3852961655
0.5028998574 0.0930721607 0.3686218622
0.5025363529 0.0902308152 0.3979133242
0.5067137260 0.1053882664 0.3668317166
0.5146298545 0.0475573530 0.4131269717
0.4975595351 0.1399944615 0.3949086387
0.4994342600 0.0730598297 0.3777981207
0.5062962209 0.1354476069 0.3647999317
0.4997897048 0.1191689483 0.4209923522
0.5075312671 0.1104606506 0.3628987553
0.4969200561 0.0681045779 0.3979305977
0.5105079410 0.0957961470 0.4156320572
0.4992475893 0.1122411356 0.3856419148
0.4931213320 0.1352452817 0.3926245423
0.5143555279 0.1051649263 0.4082344069
0.4955462865 0.0925192839 0.3827806216
0.5056183017 0.0656838980 0.4120286739
0.5099598258 0.1041957711 0.4130771781
0.4928165795 0.1373956256 0.3872560407
0.5096576852 0.1448302254 0.3655750991
0.4974350729 0.0755063456 0.3802272853
0.5107427574 0.0851446518 0.3607040738
0.5047557949 0.1378007073 0.4103601784
0.4998126473 0.1255026402 0.4078783005
0.4995409372 0.1456190941 0.3826067668
0.5003975867 0.1135911399 0.3977186713
0.5100569639 0.1378276136 0.4201894171
0.5154881986 0.1495798525 0.3993782413
0.5079557266 0.1047651306 0.4292663881
0.4937581170 0.1300746095 0.3962398524
0.5070645688 0.0896590670 0.4103075218
0.5070063282 0.0606002711 0.4224524034
0.5016611218 0.1463042647 0.3835835159
0.5119743303 0.1458232170 0.4197201645
0.4953819326 0.1104617546 0.3805283846
0.5012405515 0.1048782306 0.3719933106
0.5071073621 0.1026588248 0.4197031854
0.5037734433 0.1375223744 0.3696326270
0.5099670017 0.1451888811 0.4051913379
0.5091869545 0.1336604306 0.4178691082
0.5089794865 0.1101792261 0.4075623320
0.5047364924 0.1455940868 0.3951768190
0.5194921713 0.1496610630 0.4105460957
0.5050249637 0.1353688326 0.4121964380
0.5066059649 0.1201785006 0.4255067295
0.4987229783 0.1178514476 0.3748928509
0.5027213847 0.0918427386 0.3975979855
0.5030649662 0.1151362097 0.3687608898
0.4976273932 0.0602710367 0.3801552737
0.5030469667 0.1425949913 0.4001016296
0.5017535029 0.1120604360 0.3980941309
0.5031390862 0.1302062958 0.4119819493
0.5074134751 0.1132848217 0.4205735917
0.5092898666 0.0851699536 0.3648998262
0.4938428126 0.1198877386 0.3904404287
0.5078942739 0.0753354047 0.3653867834
0.5047939642 0.0623920387 0.4078401941
0.4947665670 0.1174825045 0.4200450090
0.5087611280 0.0954455415 0.4196055051
0.5047010516 0.1451243299 0.3976208233
0.5074794330 0.1073405084 0.3999432934
0.4931909302 0.1204805604 0.3854565923
0.5063450945 0.0724832392 0.4159183668
0.4928517245 0.1252881544 0.3848884665
0.5055008282 0.0753029106 0.4154794488
0.4978090406 0.1375306226 0.4003205262
0.5162003636 0.1001267880 0.4061395526
0.5076837640 0.0879077497 0.4150360031
0.5121730765 0.0977096582 0.4173335930
0.5036525822 0.0954943242 0.3703994719
0.5055927860 0.1277464278 0.3654994116
0.5139155082 0.1491612569 0.3976455325
0.4974517625 0.1278278534 0.4052518108
0.5049159326 0.0719634639 0.4271194512
0.5102988068 0.1403420309 0.4154500037
0.4998949132 0.0603152021 0.3749690311
0.5073859192 0.1178156950 0.3629041028
0.5043485771 0.0814778916 0.3747038899
0.5049654071 0.0753379597 0.4177843913
0.5094622145 0.1280465766 0.4275853336
0.5020902845 0.1128860463 0.3699413401
0.5123193506 0.0957129689 0.4030306300
0.5114122450 0.0543458013 0.4056407991
0.5076153099 0.1154344811 0.4206832380
0.4963128567 0.0774463303 0.3956409842
0.5071864012 0.0953408504 0.3948622202
0.5138746131 0.0853454941 0.3583057250
0.5071965647 0.1453054562 0.4187735878
0.5071832153 0.1482677079 0.3881108121
0.4966725744 0.1328047929 0.3746177566
0.5049910996 0.0599478992 0.3680984654
0.5043115225 0.1125030930 0.4032287920
0.5020608452 0.0628792359 0.3725969864
0.5073366951 0.1076921386 0.3626882394
0.5075024611 0.0802599841 0.4203104594
0.5123270565 0.1472173638 0.4050800318
0.5007106221 0.1151937051 0.3712649160
0.5142584239 0.1462071297 0.4100558909
0.4948114603 0.1203649278 0.3827666522
0.5039783305 0.1093919559 0.3904657306
0.5127600403 0.0878071013 0.3583333892
0.5056915489 0.1355181589 0.3629916934
0.4970072678 0.0727474882 0.4004930198
0.5044931534 0.0569629286 0.3951204023
0.5087435355 0.0599777286 0.4107489467
0.5088267894 0.1200722877 0.4161281039
0.5093840956 0.1178023302 0.4155400622
0.5021884840 0.0906744919 0.3951487013
0.5015553227 0.1003387906 0.3721141690
0.5148155362 0.0479064171 0.4201079876
0.4928064609 0.1205907599 0.3876387191
0.5002744091 0.0754251812 0.4228061386
0.5026166217 0.0907062216 0.4226525291
0.4954813652 0.1354522667 0.3971670683
0.5042219087 0.1005714784 0.3895765904
0.5065485253 0.1459435804 0.3720395140
0.5005808036 0.1001392148 0.3709210300
0.5200460675 0.1479264744 0.3751959830
0.5142902053 0.1466898083 0.3671475314
0.5016701808 0.0603685167 0.3754778493
0.4950946936 0.1204912296 0.3804277047
0.5018166829 0.0677623225 0.3725282464
0.4944373149 0.1302718359 0.3773961553
0.5196348501 0.0440897777 0.4076743650
0.4971948338 0.1401755136 0.3852714393
0.5297737122 0.1495186836 0.3777558208
0.4947451402 0.0778390587 0.3877602894
0.5088292159 0.1008545292 0.4196391349
0.5067251567 0.1053401019 0.3651018912
0.4979237451 0.1425872272 0.3921534289
0.5141034424 0.0934719555 0.4127067775
0.5065834419 0.1307022710 0.4156312356
0.4997453301 0.0703439838 0.3751317119
0.5070520236 0.0582764873 0.4051718998
0.5041342733 0.0831053440 0.3703377142
0.4983897200 0.1160903956 0.3995804754
0.5077465318 0.1001516797 0.4179799828
0.5095764033 0.0826755083 0.3650526924
0.5055969650 0.1118495272 0.3637556918
0.5123712882 0.0508081767 0.3558031372
0.4994211533 0.1201842248 0.3727588968
0.4927022847 0.0886464523 0.4186104702
0.5073637747 0.1176583881 0.3646579636
0.4982397705 0.0609253626 0.3873890936
0.4971483743 0.1027214978 0.3830362291
0.5070881032 0.1328303712 0.3626265069
0.4995773829 0.0877774417 0.3953949139
0.5128712257 0.1073217364 0.4151029941
0.5051399410 0.1252635843 0.4226148096
0.5120727304 0.0576616572 0.3622831022
0.5052796149 0.0645177535 0.3682048248
0.5149221817 0.0552796074 0.3601617417
0.4926848758 0.1299276793 0.3831951529
0.5065135273 0.1035300623 0.3673362139
0.5176413771 0.0528186663 0.3551726379
0.4929000679 0.1377179609 0.3762377607
0.5099020851 0.1131732380 0.4125846107
0.5126845598 0.0982344942 0.4156725395
0.4966819788 0.1430592892 0.3778428928
0.4978405520 0.1394401813 0.3976360048
0.5057956576 0.0513769314 0.3646094203
0.5100023235 0.1131480220 0.4181809030
0.5038353661 0.0804410372 0.4125805554
0.5055389432 0.1231999272 0.4222119229
0.5070011579 0.1069863561 0.3952465055
0.4994486030 0.0704381824 0.4052840340
0.5028245689 0.0759495582 0.4200696819
0.5078082099 0.1079265744 0.4185754175
0.5089334061 0.1049246203 0.3954984535
0.4947310131 0.1329283265 0.3853597136
0.4956310744 0.1225965439 0.3972758912
0.4974376261 0.1152716040 0.3901442325
0.5043483179 0.0880999100 0.4077971647
0.5000458084 0.1305725127 0.3709987930
0.5122236562 0.0959594427 0.4052879369
0.4931016862 0.1239153668 0.3777635098
0.5077132271 0.1330217663 0.3608737393
0.5126254029 0.1389321713 0.4282832899
0.4951196037 0.1004601191 0.3802401978
0.4962979274 0.0779370396 0.3848893413
0.4993711536 0.0673817258 0.4025542902
0.5092668515 0.1228752580 0.3623659189
0.4941197048 0.1202499959 0.3846672004
0.4992502882 0.1053671509 0.3850109856
0.5065827440 0.0952793161 0.4227169663
0.4965448145 0.0776597352 0.4216764423
0.5206254721 0.0437582582 0.4050338566
0.5146953757 0.0779651193 0.3577043221
0.4956747591 0.1402537127 0.3817794008
0.5043989685 0.0931181628 0.3927507054
0.5015521582 0.0726107739 0.3746151050
0.4954228517 0.0979280584 0.3778910616
0.4977669703 0.0903612667 0.3761025287
0.5176772137 0.1468456595 0.3703897962
0.5064711854 0.0926799345 0.4218382329
0.5049200378 0.1131317804 0.4223810545
0.5068364737 0.0753271679 0.3672387837
0.5051872753 0.1028078254 0.3902823546
0.4955778872 0.1423144475 0.3752469691
0.5122168179 0.0505965255 0.3577063781
0.5095791985 0.0655484129 0.4178730308
0.4974923595 0.0854037693 0.4002234478
0.5175256932 0.0480402936 0.4033124998
0.5145895183 0.0950502679 0.4147974700
0.5047300542 0.0902332726 0.4223177412
0.5047804267 0.1427616946 0.4208206355
0.5167636798 0.1489959633 0.4049314477
0.4931012193 0.1367476878 0.3920724790
0.4965991209 0.0722152283 0.3896968966
0.5105366463 0.0781479230 0.3606774975
0.5027290573 0.1206096702 0.4222315480
0.5127839551 0.1458172135 0.3683010598
0.5087643471 0.1153570254 0.3618939080
0.5096588887 0.0579112599 0.4199007328
0.5166559228 0.0547082473 0.4173746898
0.5024921804 0.0680363435 0.3707781111
0.5079672696 0.0675355405 0.4288196965
0.4949482206 0.1381194801 0.3876847786
0.5065272921 0.1357137243 0.4137722635
0.4993267053 0.0578684004 0.3775380790
0.4968282246 0.1005646742 0.3771086377
0.4965959975 0.1052587168 0.3769110964
0.5090272381 0.0674547175 0.4180746183
0.5044478332 0.0580221751 0.3975759692
0.5057058507 0.0879943979 0.3657902197
0.4995917383 0.1357333599 0.3727826120
0.5016163299 0.1354662600 0.4080659443
0.4973654200 0.0728244200 0.3825253273
0.4987450882 0.1249234237 0.4057141918
0.5034326163 0.1197488136 0.3663243576
0.5053167921 0.0956114403 0.4248938312
0.5077438399 0.0825799871 0.3637995190
0.4993169923 0.1458113677 0.3809819473
0.4941705984 0.1277445614 0.3981385639
0.5040440351 0.0706931105 0.3721015101
0.5122965399 0.0554865810 0.4103163828
0.4970819318 0.0679830977 0.3928246713
0.5089475936 0.1437851603 0.4075976991
0.5001552090 0.1448741801 0.3846356988
0.5024470225 0.0578068029 0.3726515053
0.5146747683 0.1453513313 0.4152578608
0.4950970188 0.1280468926 0.4022064880
0.4995250089 0.1297734420 0.3720744372
0.5046289174 0.1429316645 0.3676986791
0.4980504912 0.1081710781 0.4217168593
0.5067137882 0.0527577107 0.3662712684
0.5081656652 0.1178284445 0.4182801555
0.5138944039 0.0868185263 0.3582894785
0.4996512524 0.1424884085 0.3952123424
0.5143043876 0.1460977037 0.4256767626
0.5141174793 0.1022710502 0.4141139090
0.5050075706 0.0531648558 0.3736192938
0.5016947311 0.1448018798 0.3728530796
0.4971882316 0.0903642735 0.3851078200
0.5000430568 0.0558396306 0.3777202927
0.5129940443 0.0981256047 0.4125614636
0.4956218960 0.0825928535 0.3882442022
0.4955629165 0.0725497825 0.3998236869
0.5028080115 0.0876818006 0.4053764017
0.4995549597 0.1077578683 0.3851756105
0.4994989456 0.1455439760 0.3773481438
0.5086013499 0.0857537903 0.4159762264
0.5024663514 0.1451478441 0.3873865386
0.5055112692 0.0549863260 0.3931624926
0.5123519343 0.0983026213 0.4006206479
0.5017151911 0.1107060525 0.3952367587
0.5078939647 0.1300787721 0.4255035305
0.5000481470 0.0958192570 0.4243879570
0.5022932838 0.1422996930 0.4025985594
0.4978644377 0.1449426442 0.3820052379
0.5070832918 0.0878602679 0.4129061909
0.5063395467 0.0703125254 0.4154325847
0.5039171867 0.0779742381 0.4154284511
0.4974905147 0.0827874073 0.4021292810
0.4957217308 0.0707823468 0.3901772545
0.5044724389 0.0675311588 0.4235104992
0.5028250909 0.1422544277 0.3681352660
0.4945860932 0.1354270096 0.3853995190
0.5063064745 0.1000818813 0.4230543089
0.5122311809 0.0691444164 0.3651158041
0.4974837113 0.0676048041 0.3999472603
0.5056294526 0.1330201358 0.3628116690
0.5056313865 0.1401059229 0.3633273598
0.4949560130 0.1152857193 0.3898295837
0.5023138511 0.1458653230 0.3769723623
0.5091027559 0.1479808795 0.3928449880
0.4993552865 0.1255866213 0.3725016717
0.5117700624 0.1405710033 0.4226544755
0.5090604333 0.1279145880 0.3625228172
0.5070846216 0.1279864537 0.3648097052
0.4948075924 0.0850986104 0.3948940785
0.5048653682 0.1443547408 0.3677131236
0.5028592942 0.0918542196 0.3924444986
0.5076576050 0.1053332748 0.3929570307
0.5043124472 0.1457469615 0.3901029887
0.5066999153 0.0571100590 0.4010996428
0.5092769357 0.0954491396 0.4030577429
0.5014421175 0.0572239443 0.3748317092
0.5128699873 0.1000809472 0.4124416578
0.5074307571 0.1226676789 0.4179508287
0.5055581425 0.1186263293 0.3633360274
0.5057475567 0.0937487334 0.4211676717
0.5079321901 0.0727039887 0.3653515837
0.4963453526 0.1110776344 0.4198594787
0.5218239680 0.0496320279 0.3557983609
0.5054186125 0.1072816354 0.4228362104
0.5128549241 0.1470936133 0.4180352754
0.5000186075 0.0631208304 0.3951050298
0.5095499111 0.0671065484 0.3673535245
0.5018153202 0.1331782524 0.3698823702
0.4993552099 0.0778850452 0.4056888361
0.5042333845 0.1276284037 0.4152813525
0.4982457780 0.0660193099 0.3950151779
0.5109001994 0.1492740959 0.3827926219
0.4952294662 0.1207006754 0.3972151663
0.5173060227 0.1487532097 0.3793104541
0.5094848036 0.0930694119 0.4177057871
0.4986980503 0.1404344802 0.3830975302
0.5157195778 0.0502016459 0.4060440536
0.5099474788 0.1029583290 0.3585313410
0.4957544235 0.1178450628 0.3950176573
0.4981259736 0.0651118383 0.3923419563
0.4922460374 0.1327083998 0.3875300956
0.5092881876 0.0571891325 0.4078463671
0.5081297753 0.1131546756 0.3610259165
0.5123606044 0.0529692058 0.4251668503
0.5080384348 0.1004288633 0.3941511921
0.4972622772 0.1151406478 0.3876621456
0.5046622672 0.1107166601 0.4027190802
0.4944962745 0.0778212605 0.3901595838
0.4979691098 0.0762347653 0.3782811752
0.4949030210 0.1352471302 0.3827166559
0.5196122974 0.1472902839 0.3704819241
0.5054357419 0.1073568878 0.4204723885
0.5018849407 0.1456396050 0.3852562620
0.4999970060 0.1152000220 0.3981050984
0.4994438237 0.0690305857 0.4229221622
0.5065800081 0.1023160017 0.4224551743
0.5038131268 0.0655335717 0.4234187890
0.5094911776 0.0525590213 0.3702965764
0.4978721129 0.0770144243 0.4049832449
0.4975267133 0.0881469593 0.4225838552
0.5062429876 0.0980979207 0.4270996373
0.5071767165 0.1308648082 0.4224463135
0.5017977012 0.1027985653 0.3700313297
0.5067496771 0.0516034894 0.3617681662
0.4964266314 0.0851422427 0.3829954198
0.4951334663 0.1303593704 0.3802629003
0.5019818067 0.1294485736 0.4209710567
0.5023100802 0.0699541700 0.4248117850
0.4988055794 0.1330514973 0.3744622272
0.5072133152 0.1378423893 0.3629824041
0.5112297789 0.0956482927 0.3596404382
0.5139112641 0.0516308530 0.4054685706
0.5140371323 0.1011703014 0.4139745831
0.4976051046 0.1303704694 0.3728599564
0.5002242492 0.1374286471 0.4045639113
0.4995643482 0.1277753593 0.3718861220
0.4987492688 0.1078967582 0.3773596561
0.4933095438 0.1109460438 0.4184853387
0.4975332477 0.1333284387 0.4031288821
0.4962577363 0.1056731339 0.3802287785
0.5118030609 0.0933602347 0.4153806119
0.4973212534 0.1410403190 0.3899182340
0.5021490425 0.1098483161 0.3902937304
0.5025381703 0.1444997820 0.3923675026
0.5202096007 0.0503605918 0.3563202338
0.5225241753 0.0483206848 0.3588839692
0.5005900542 0.1124727371 0.3709859189
0.5148127981 0.0528251699 0.4156477775
0.5065021131 0.0721430483 0.4204266646
0.5074500855 0.1432041321 0.3670998503
0.5047902688 0.1328472068 0.3652720645
0.5105121639 0.1400378957 0.4176563741
0.5002559719 0.0577100360 0.3751528541
0.4966857360 0.0698129341 0.3981390676
0.5014402301 0.1443622971 0.3946372851
0.5118461779 0.1079256455 0.4101999162
0.4931094866 0.1204950590 0.3831456560
0.5000572508 0.0873891765 0.4048926378
0.5138515337 0.0548249721 0.4129867444
0.4973043230 0.1379100137 0.3977668552
0.5007100869 0.1431442215 0.3702996226
0.5139988688 0.0599614375 0.3597303650
0.5141666864 0.1029744918 0.4079117340
0.5068719922 0.1407067590 0.4102556456
0.5066911208 0.0856413485 0.4135656568
0.5020665579 0.0732918475 0.4105098373
0.5047734492 0.1250051274 0.4204394643
0.5135987579 0.1412007682 0.4168554948
0.5111812064 0.1407864743 0.4180216070
0.5048077456 0.0630005529 0.3700112033
0.5185396671 0.1491686702 0.3807693124
0.5115146244 0.1430755323 0.4201006534
0.5073896443 0.0854725621 0.3660793977
0.5094049063 0.1381598760 0.4155458308
0.5121544596 0.0529369988 0.4203813437
0.4930195199 0.1309625779 0.3777053929
0.5092945881 0.0510408336 0.3741015460
0.5068154595 0.0605550133 0.4101315978
0.5045477915 0.0519612724 0.3803455950
0.5051697279 0.1253404384 0.4177102615
0.5143521921 0.0631192201 0.3572536366
0.5164689124 0.0677855611 0.3570871204
0.5069180953 0.1307441246 0.4177675687
0.5099567854 0.0726152771 0.3646665314
0.5006299019 0.0758093024 0.3733558357
0.5014489340 0.0859242259 0.4061456808
0.5014252465 0.0903178584 0.3723686468
0.5008820717 0.0681739118 0.4071861943
0.4993197864 0.0980173414 0.3853945569
0.5093167322 0.1128638390 0.3600716900
0.5126736787 0.1491042640 0.3851787140
0.5002083799 0.0590978376 0.3941873413
0.5004532962 0.1112069436 0.3928978672
0.5163992828 0.0505373144 0.4150656905
0.5049488509 0.0878445298 0.3678415492
0.4977455866 0.0854207200 0.3777573496
0.5100263566 0.0924551743 0.4077420802
0.5004168595 0.0651462696 0.4029538516
0.4988298058 0.0851617539 0.3770950747
0.4971234461 0.1204919455 0.3773755865
0.4987631937 0.0821369808 0.3770033343
0.4923903255 0.1248196771 0.3950686665
0.5000601661 0.1030773280 0.3729211153
0.5049091211 0.1456642276 0.3722667015
0.4951027682 0.0729398114 0.3926769881
0.5028100429 0.0850749850 0.4242899755
0.5115660756 0.1031276629 0.3981262251
0.4955163323 0.0903059258 0.3801597129
0.5110950470 0.0633718744 0.3645021021
0.4956334956 0.1150256132 0.3755181136
0.5048644618 0.1470213168 0.3771730736
0.4961261749 0.1203215346 0.3823262751
0.5045932771 0.1377697606 0.3650550110
0.5099213574 0.1152918511 0.4177780650
0.5172484180 0.0505216463 0.4104082116
0.5054563320 0.1186815313 0.4114715862
0.5049319760 0.1434371168 0.4022681340
0.4967877064 0.0604537411 0.3826076964
0.5114294695 0.0875815022 0.3633219817
0.4981758145 0.0724874255 0.4054383457
0.5076565828 0.1250010034 0.4254815746
0.5012130413 0.1328542506 0.4085418087
0.5151628123 0.0552403428 0.4153443923
0.4997392143 0.0877851563 0.3980109056
0.4957410891 0.0777654073 0.3830639541
0.4964583244 0.0754002066 0.4001460745
0.5032191678 0.1256475817 0.3682889971
0.4967438216 0.1202790526 0.3980308378
0.5133226615 0.1024254547 0.4108265499
0.5218492509 0.1468602052 0.3692670970
0.5096065279 0.1320384169 0.4272286105
0.4991976280 0.1123329922 0.3877736086
0.5095234408 0.0878322462 0.3628100591
0.5193278588 0.1489271046 0.4124914144
0.4994055970 0.1077522587 0.3724891401
0.5005535192 0.1204960731 0.3708625519
0.5043986190 0.1201024708 0.4101494798
0.5024694846 0.1073353499 0.3683280573
0.5026451699 0.0734053314 0.4225656494
0.5102319204 0.0628802575 0.4174866206
0.5229969039 0.1475364494 0.3680169671
0.5123773552 0.0896913987 0.3584040323
0.5016614388 0.1436142735 0.3954436431
0.4943649490 0.1324879970 0.3777370646
0.5214229822 0.0434835479 0.4139715731
0.4972756150 0.0855601749 0.3879451243
0.5088870625 0.1059194551 0.4198461460
0.5132914211 0.0458576751 0.3993613473
0.5121163530 0.0674663196 0.4318433706
0.4964681195 0.0697828083 0.3957143384
0.5028286648 0.1277147200 0.4199786160
0.4989129649 0.0634214996 0.3802034639
0.5168684889 0.1477270825 0.3749634229
0.5048650605 0.0804199361 0.4228258420
0.5067851859 0.1458541181 0.3982639744
0.5070909637 0.1072770181 0.4208847992
0.5017088826 0.0648706333 0.4051172547
0.5021002915 0.1147021588 0.4032604033
0.5065963307 0.0827416433 0.3673230876
0.5051030478 0.1295277737 0.4173985486
0.5024450920 0.1446517466 0.3706748592
0.5048682393 0.1084164036 0.3953002298
0.5072829583 0.1452024645 0.4020903369
0.5005709647 0.0632034000 0.3972311266
0.4973349571 0.0723146995 0.3780860404
0.4987337010 0.1231128093 0.4036971290
0.4975674883 0.0876441737 0.3876373327
0.4995691638 0.0828320896 0.4053411478
0.5058668057 0.1030751377 0.3637078913
0.5125672777 0.1050746490 0.4070813911
0.5131145492 0.1005470953 0.4002927388
0.5068750937 0.0849629701 0.4225377757
0.4954026317 0.1000515912 0.3782870637
0.5051634511 0.1272797166 0.3633187335
0.5076349303 0.0927666598 0.4049935408
0.5017901391 0.0930872039 0.3725420687
0.5007764733 0.1333043754 0.3686790210
0.5164833865 0.1494407873 0.3853891677
0.4993079626 0.0727347382 0.3797649583
0.5096855760 0.1202229355 0.3619887009
0.5051517410 0.0874987599 0.4101043841
0.5172132686 0.0472764735 0.4183555497
0.4946133614 0.0782152186 0.4200492751
0.4967703557 0.1387164728 0.3848484684
0.5080040884 0.0701519634 0.3655442835
0.5125378247 0.1447198711 0.4102373616
0.4992920827 0.1378713034 0.3749410231
0.5018236372 0.1098675654 0.3877938799
0.5116787530 0.0669668200 0.3648998293
0.5116446611 0.0833258527 0.3626974125
0.5100649149 0.1356187963 0.4203024695
0.4956112525 0.0846124350 0.3900869749
0.5072363716 0.1152138557 0.3630974264
0.4929585352 0.1025026027 0.3792524975
0.5048111762 0.0653708382 0.3700751672
0.5033200482 0.1056371612 0.4234278227
0.5118074003 0.1070785044 0.4077964929
0.5023621009 0.0531463481 0.3673738327
0.4982885525 0.1246961251 0.4202331418
0.4978308852 0.0703391063 0.4024493571
0.5017781786 0.0605054381 0.3951065856
0.5018031983 0.0963207728 0.4241763283
0.5029819800 0.0920637846 0.3954099647
0.4995868605 0.1431576733 0.3900917981
0.5069263330 0.0509447106 0.4158484104
0.5045190869 0.0853631843 0.4107615778
0.5081890496 0.0956139056 0.3633298263
0.5118039722 0.1450291076 0.3647233167
0.5049197419 0.1098507355 0.4007080421
0.5041947730 0.1401118274 0.3672601864
0.5090193141 0.1334643879 0.3624633932
0.5050635802 0.1180847412 0.4099521748
0.4991446909 0.0596982953 0.3875159211
0.5156100249 0.0460944817 0.4148217767
0.5063081147 0.1242720017 0.4200085044
0.5094908830 0.0674243817 0.3651234940
0.5118254125 0.0601932649 0.4153088927
0.5127195662 0.1446440113 0.4126784759
0.5120642460 0.1431359582 0.4154052787
0.5067714439 0.1001420571 0.4251215438
0.4965570335 0.1275633791 0.3745117070
0.5044520557 0.1448697104 0.3700608065
0.5045379286 0.1003553180 0.4225005811
0.5162434724 0.0519908260 0.4134504102
0.4999821459 0.0925159418 0.3727589859
0.4952270866 0.1077960828 0.3801347596
0.5000526992 0.0923817284 0.3871602300
0.5044027245 0.1079662009 0.3673354512
0.4951118472 0.1178889533 0.3874579260
0.4970444915 0.1077770127 0.3745937055
0.5095061099 0.0499723857 0.3951037073
0.5018552998 0.1447387444 0.3746284667
0.4974278992 0.1376511999 0.3704030965
0.5020055644 0.1303174451 0.4100283642
0.4991820196 0.1353875348 0.4052427657
0.4955750594 0.0801897448 0.3971125028
0.4998966347 0.1454800780 0.3753909569
0.4991697957 0.1408418886 0.4186145846
0.5039887605 0.1272277994 0.4130696431
0.5123858386 0.1448168125 0.4150603153
0.5033437610 0.1326822142 0.3662557999
0.5102549700 0.0678086257 0.3630186670
0.4970319698 0.0905270846 0.3773633741
0.5093115220 0.1407199277 0.4225022381
0.5125660933 0.0579172268 0.4180114662
0.4994215007 0.1426975794 0.3930600108
0.5067468937 0.1405240755 0.3643720975
0.5122544618 0.1477308172 0.4023917404
0.5078127900 0.1204078125 0.3633133381
0.4986988109 0.0698901507 0.4035946900
0.4932089291 0.1336840095 0.3759412438
0.4969508061 0.1155242474 0.3770629234
0.5079568131 0.0520093711 0.3557893405
0.5149074204 0.0603491410 0.3550181837
0.5005495359 0.0872283454 0.4025333633
0.4978674228 0.1157100377 0.3948478719
0.5043248595 0.1252644769 0.3671715014
0.4955697672 0.0824352682 0.3904117043
0.5011378205 0.1274692353 0.3722379017
0.4955464291 0.1259866281 0.3756903459
0.5149863927 0.0702910462 0.3578804813
0.4992108941 0.0800474286 0.4039428532
0.5053646382 0.1084965140 0.3974977453
0.4954883428 0.1324735778 0.4002132403
0.5057067848 0.0556234957 0.3950052619
0.4948305416 0.1181443100 0.3904240102
0.4948611494 0.1376553596 0.3850787752
0.4974287019 0.1277697857 0.3726697545
0.5025283902 0.0872520303 0.4230186490
0.5063646358 0.1382129958 0.3656361821
0.5155340174 0.1471002025 0.4153720677
0.5027604513 0.0580209743 0.3926984112
0.4952706529 0.1278124707 0.4006730857
0.5022234567 0.1003917224 0.3876215038
0.4956114699 0.0802762669 0.3926877886
0.5023615593 0.0675379702 0.3754215618
0.4989486604 0.1165250774 0.4210413119
0.4990410374 0.0576561399 0.3825783439
0.5004604950 0.0625773938 0.4202385206
0.5098644603 0.0695643138 0.3670086301
0.5088524881 0.1486669574 0.3860554651
0.4950056205 0.0882354216 0.3781424208
0.4980826860 0.1157285862 0.3977780706
0.5017339100 0.0819069572 0.3746158746
0.4974933893 0.0976549239 0.3756045507
0.5000256745 0.1280009636 0.4082458800
0.5040847021 0.1348129114 0.3672079940
0.5020165628 0.1082086164 0.3698312714
0.4962540156 0.1100174469 0.3798909310
0.5075878066 0.1456443752 0.3704780306
0.5090181327 0.0900396454 0.4178832709
0.5022088080 0.0753380039 0.4105980235
0.4998787812 0.1425456266 0.3730535379
0.5101843464 0.0576303142 0.3627926222
0.5141705307 0.0982810403 0.4030923222
0.4977306063 0.0726977658 0.3802980291
0.4943847586 0.1255924522 0.3955762773
0.5023688447 0.0827786117 0.3726198364
0.4976193447 0.0981213103 0.3737299714
0.5063512561 0.1404457214 0.3672546929
0.5043683184 0.1405640113 0.4074333761
0.5029233337 0.1354774527 0.3676581317
0.4977103950 0.1417968398 0.3848526782
0.5011993000 0.0508281111 0.3854869817
0.5039879232 0.1129433889 0.3670022449
0.5031244457 0.1470763311 0.3772445321
0.5002082451 0.1125982397 0.3951795164
0.5133101152 0.0553233108 0.4134710554
0.5020097626 0.1299757837 0.3697882027
0.5076820842 0.0650139604 0.3661121817
0.5029273986 0.1352283972 0.4102835745
0.4990094679 0.0601731845 0.3775040813
0.5040198908 0.0892764389 0.3724126990
0.5083635561 0.1061980432 0.3588425779
0.4917785933 0.1303026329 0.3876284627
0.5031613562 0.0581070521 0.3708856141
0.5024004031 0.0654321719 0.3726171871
0.4957573089 0.1158032163 0.3823384809
0.5139481723 0.1450867876 0.4165968299
0.5029642885 0.0624373967 0.3708789213
0.5169807198 0.1479490389 0.4127772416
0.5018027575 0.0849800130 0.4235633545
0.5006506705 0.0809003907 0.3738974393
0.4933729075 0.1128748312 0.4191587896
0.5220689707 0.0451477595 0.4079959191
0.5079901657 0.0480849501 0.4111347025
0.5125169652 0.0979356605 0.4026226133
0.5029979592 0.0751227472 0.3705483501
0.5078326576 0.1056110883 0.3607501462
0.5062404578 0.1152454721 0.4218853853
0.5025616858 0.0792438505 0.3679809197
0.5114360203 0.0935638345 0.4080026114
0.5056224543 0.0908386625 0.4210729145
0.5199542929 0.1485164051 0.3771869761
0.5119679213 0.0827839637 0.3598899265
0.4994363274 0.0953079876 0.3859269314
0.5026626463 0.0830910792 0.4103646480
0.4992465463 0.0575503720 0.3799427942
0.5026594385 0.1306831485 0.3681616875
0.5054458081 0.0896072808 0.4071374631
0.5016077524 0.1433847596 0.3725484211
0.5042866011 0.1435919625 0.3699154434
0.4976572349 0.1153189574 0.3752925950
0.5074085256 0.0978805245 0.4202583774
0.5136469353 0.0474419624 0.3976201600
0.5128707073 0.0576808726 0.4150950382
0.5017657166 0.0533002331 0.3804416961
0.4986598900 0.1409066556 0.3933342283
0.4998034537 0.1347007304 0.4072792530
0.5121648209 0.1003936075 0.4153467405
0.5074947546 0.0855468082 0.4182654395
0.5066161419 0.0578424425 0.4032665969
0.4995772942 0.0881282184 0.3928002249
0.5064579273 0.1328566903 0.3646095714
0.4966612720 0.0792266541 0.3867609696
0.5022625957 0.1378786930 0.4073461947
0.5069328472 0.1159710221 0.3676408540
0.4922607877 0.1277185911 0.3850380757
0.5074010094 0.0550053917 0.3979446196
0.5100655710 0.1030616841 0.4158591265
0.5038570629 0.0983638128 0.3696814250
0.5023338521 0.1402126745 0.4049267510
0.5126117364 0.0652734183 0.3605441135
0.5135949685 0.0957192816 0.4083966550
0.5018319313 0.1433529992 0.3878065283
0.5093668254 0.1072986681 0.4032217780
0.5192495638 0.0477208216 0.4132316735
0.4940898405 0.1305884093 0.3980085620
0.5097160906 0.1123140243 0.4108570316
0.5119250657 0.0506183896 0.4136349751
0.4947002365 0.1230027216 0.3953067301
0.4996952463 0.0530873290 0.3853214603
0.5198876384 0.0505777053 0.3585502258
0.4968935326 0.1326158368 0.4191918409
0.5094632393 0.1443601914 0.3628253996
0.5077459974 0.1422947381 0.3625668810
0.5052884379 0.0957766976 0.3920436076
0.4995910662 0.0673851099 0.3799782768
0.4986047392 0.1272097333 0.4059605674
0.4973098386 0.1417200636 0.3728551384
0.5171210234 0.0553630630 0.3555769574
0.4980423055 0.1134239980 0.3878873988
0.5021059732 0.1427679337 0.3699381716
0.5121679579 0.1479379997 0.4000483952
0.5168439190 0.0450910243 0.4025948303
0.5067116197 0.0912499439 0.4285265352
0.4941129970 0.1332956124 0.3870842121
0.5049876506 0.1205226811 0.4221828468
0.4984332919 0.0725145005 0.3759873360
0.5105736452 0.1420496195 0.4154593471
0.5068142122 0.0974763440 0.3647141498
0.4992332770 0.1379305177 0.4025323346
0.4926546439 0.1207509227 0.3898008360
0.4957737415 0.1252589869 0.3998547376
0.4996666512 0.1228243094 0.3722473690
0.4976828285 0.1330785856 0.3711967288
0.5071555113 0.1001320976 0.3927149431
0.4953612686 0.0803239245 0.3853833532
0.5090628210 0.0879743748 0.4183198260
0.4956957283 0.1426081883 0.3775369223
0.5044006247 0.0858242944 0.4208810423
0.5041772189 0.1323194353 0.3676021380
0.5051299431 0.1300701964 0.3657596284
0.5028211109 0.1177696378 0.4230262639
0.5070057586 0.1227116732 0.4155989254
0.4972172454 0.0679132009 0.3904380685
0.5018762013 0.1148453870 0.4225917658
0.5172769913 0.0455005757 0.4009139496
0.5176029205 0.1467228234 0.3656934202
0.4954460104 0.1393950580 0.3778046625
0.5028998267 0.1054674909 0.3881491448
0.5147234659 0.1262632224 0.4312454151
0.4918549450 0.1300676411 0.3900442298
0.5105395945 0.0521021132 0.4219990298
0.5016915379 0.1178204770 0.3722281421
0.4981772304 0.0710798204 0.3756478727
0.5046883998 0.0852871690 0.3696561078
0.5070296388 0.0729079723 0.3677935083
0.5036162059 0.1380465311 0.4227641162
0.5088998090 0.1178843549 0.3622584699
0.5137765932 0.1485200725 0.4227510008
0.5027435545 0.1377360696 0.3661315603
0.5089045860 0.1153720580 0.4196105197
0.4958132244 0.1400966223 0.3796568358
0.4974193089 0.0752290022 0.4026184351
0.5134445429 0.1012185216 0.4071493447
0.5094902478 0.1331068800 0.4227414641
0.5073992392 0.0852608238 0.4203040143
0.5040019747 0.1109192388 0.3698480255
0.4974084678 0.1128348626 0.3750671053
0.5146076490 0.0551989967 0.4176625988
0.5165131093 0.1486734352 0.4082717362
0.4942517265 0.1353591448 0.3873717017
0.5055322557 0.0804312379 0.4150528736
0.5154342473 0.0500536729 0.4179959554
0.5089875758 0.0910205133 0.4191271365
0.4939512519 0.1256185038 0.3801398094
0.5191111727 0.1505732004 0.4051080281
0.5069271291 0.0632314410 0.4213551978
0.5281407320 0.1487198990 0.3760343653
0.5030824703 0.0555219689 0.3734295015
0.4988825321 0.0647967309 0.3907483220
0.5048803986 0.0698280153 0.4129013985
0.5094562276 0.1025010509 0.3620653702
0.5096558133 0.0800684028 0.3625179526
0.5068607559 0.0556681601 0.4003641481
0.4973835902 0.1376325937 0.3755767560
0.5048928264 0.0524423909 0.3918098299
0.5163119743 0.0652574238 0.3560537716
0.5104422947 0.1011499859 0.3967969490
0.5040828975 0.0601252978 0.4213714451
0.5123784989 0.0956611782 0.4170787632
0.4975802403 0.1400600942 0.3828752272
0.4928459147 0.1304213476 0.3952633733
0.5075912183 0.1321431696 0.4225194175
0.5050793783 0.0642346781 0.4275023911
0.4966975649 0.0831775056 0.3982359522
0.5040262070 0.1191025822 0.4213285699
0.5043336830 0.1154188981 0.3679158125
0.5029794174 0.0970089208 0.3688246291
0.5054166240 0.0578655032 0.3677977866
0.4967236429 0.1299395150 0.4033480448
0.4976760940 0.1393347181 0.3997036662
0.5169199431 0.0577307232 0.3548693799
0.5272919313 0.1488500211 0.3779327973
0.5101354402 0.0701427723 0.3631911110
0.5102451012 0.0510297552 0.3679246401
0.5036155308 0.1065405601 0.3698015078
0.4956390565 0.0727069606 0.3853631481
0.5050800036 0.0579201756 0.4001957158
0.5053395086 0.0554087412 0.3706262227
0.5156031436 0.0550231710 0.3561838170
0.5038559965 0.1003201671 0.4253002089
0.5105015714 0.1381381114 0.4176853339
0.5145562488 0.1484452848 0.3780676451
0.5046503722 0.0801645206 0.3704845384
0.5095056886 0.0657566292 0.4224478620
0.4963014099 0.1398371432 0.3751203512
0.5052770490 0.1357098705 0.3606987690
0.4980984813 0.1036085829 0.3842586900
0.5048498093 0.1254423289 0.4151745357
0.4989754886 0.1324745937 0.3719735118
0.4956797446 0.0825866381 0.3851368072
0.5099990692 0.0852891329 0.3625420850
0.4956194826 0.1401835960 0.3752249384
0.5089880685 0.0926462381 0.4054104148
0.5091121711 0.0525032346 0.3956634689
0.5054973599 0.1379282726 0.3632502877
0.4954350183 0.1395952978 0.3854368426
0.5064099702 0.1227003985 0.4206348391
0.4938080081 0.1330381774 0.3906752132
0.4942952605 0.1354437662 0.3900759216
0.5139408334 0.0658355457 0.3597725530
0.5159998644 0.0503267484 0.4267631325
0.4958849324 0.1399898270 0.3903095494
0.4951726318 0.0779912833 0.3852725327
0.5104958746 0.0599556633 0.3630972053
0.5068779588 0.0531992782 0.3702652901
0.5081284860 0.0708746828 0.3636417517
0.5097178185 0.1051485717 0.3599180485
0.4953511834 0.1377096840 0.3924814714
0.4971704110 0.0853224044 0.3951852323
0.5089834929 0.0545894876 0.4006609917
0.4974717275 0.1345961865 0.3727050968
0.5050186531 0.0925449924 0.4249870626
0.5104127526 0.0924721211 0.4135630131
0.5020437616 0.1053040768 0.3677901530
0.5044799665 0.0653035570 0.4098165764
0.5098295939 0.0955345764 0.4180222064
0.4949221062 0.1253960210 0.3773465641
0.5027813395 0.0803589440 0.4104690696
0.4967943489 0.0928060780 0.3772129580
0.5167392200 0.0526827029 0.3604836780
0.5123382509 0.0534337834 0.4046013355
0.4918842433 0.1303806525 0.3926618107
0.5298177361 0.1486307950 0.3764075128
0.4941701681 0.1354768888 0.3775345729
0.4974070234 0.1385877281 0.3951698070
0.4947770080 0.1376303754 0.3973955831
0.4998235780 0.0531401596 0.3832061675
0.5093939936 0.1099879667 0.4178133090
0.5126021851 0.1056304555 0.4103601451
0.5082641452 0.1374523518 0.4148998579
0.5126246868 0.0700236663 0.3604836057
0.5094866394 0.0979363501 0.3623545621
0.5047605626 0.0751616729 0.4259200961
0.4943904361 0.1201518928 0.3951987639
0.5074803184 0.1304339235 0.3648029537
0.5120260518 0.0852606921 0.3601035452
0.5087201569 0.0936585442 0.4030327519
0.5050538397 0.1052119339 0.4248439777
0.5070094449 0.1073703462 0.3978895264
0.5132809877 0.0940454900 0.3587238193
0.5000400557 0.1404927579 0.3728017092
0.5016305364 0.0621113182 0.3983681811
0.4973301296 0.1352846110 0.3746864734
0.5068877777 0.1124643371 0.4221172202
0.5047809218 0.0929248260 0.4225263053
0.5055765544 0.1162831473 0.3631915592
0.5023133791 0.0982745193 0.3881645093
0.5045447866 0.1243814550 0.3690544333
0.5002041597 0.1376303406 0.3702988992
0.5065852041 0.0699499372 0.3695886233
0.5081658986 0.1225709400 0.3608517031
0.5101306679 0.1466596362 0.4028886165
0.4964813585 0.1127261103 0.3803256072
0.4989424818 0.0859366716 0.3930388724
0.5004709706 0.0977787092 0.3733435048
0.5076834321 0.0877368948 0.3631706711
0.5147147804 0.1004443880 0.4025382112
0.4924503814 0.1253340400 0.3899293245
0.5152019683 0.0581346365 0.3556518086
0.5099903419 0.1356132033 0.4180584630
0.5069316814 0.1432623007 0.4054269839
0.5047438280 0.0705605239 0.3700161818
0.4974064996 0.0931027394 0.3846821343
0.5070530577 0.0656130281 0.3676704058
0.5077253801 0.1180778040 0.4130718900
0.5118541612 0.0753959372 0.3599617031
0.5089048602 0.0505654410 0.4150172375
0.5116457818 0.0477551444 0.4128354936
0.4981576232 0.1226743900 0.3758596991
0.4989364695 0.0574214156 0.3858783330
0.5109554306 0.0709587126 0.3613221876
0.5055205326 0.0733436934 0.4151967278
0.5121691009 0.1482707769 0.3936474400
0.5098840163 0.0555368282 0.3634391532
0.4981523653 0.0801180618 0.4024905298
0.4999335703 0.1172979827 0.4028326584
0.5025376663 0.1471609687 0.3829320083
0.5059510841 0.1216786889 0.3634215000
0.5106606468 0.1005652509 0.3587329965
0.5002353485 0.1158497148 0.4020788631
0.5197107704 0.0530239159 0.3551474049
0.5137826276 0.0802899040 0.3602310168
0.5115725857 0.0630466033 0.4183631993
0.5011918054 0.0706746268 0.3774213009
0.5018634987 0.0623781189 0.4005663468
0.5018518565 0.1453957934 0.4180751090
0.4999455829 0.1151580048 0.3999104647
0.4949202353 0.0827080295 0.3828266522
0.5094384829 0.0911783815 0.4131919213
0.5073889810 0.1416926365 0.3613529410
0.5047727275 0.1129551537 0.3654155691
0.5040546413 0.1277751815 0.4198344815
0.4945515705 0.0685407190 0.3872510011
0.5071709096 0.1403372666 0.3626243527
0.5100867180 0.0974129449 0.3605680271
0.4948941052 0.0707628166 0.3878753449
0.5131551012 0.1193296620 0.4311208101
0.5089842594 0.1258623707 0.3624335746
0.5066951385 0.0979256335 0.4224024748
0.5068817122 0.1202054474 0.3646006165
0.5120103330 0.1456409863 0.4077525801
0.5038802007 0.0931325526 0.3696234007
0.5094487134 0.0872423076 0.3645543455
0.5094455770 0.1464936195 0.3724245290
0.4997243953 0.0624925179 0.3927320995
0.5089327133 0.1178004121 0.4198421650
0.5003448866 0.1074873670 0.3703584299
0.4944525888 0.1352516342 0.3798663066
0.5289114725 0.1482437250 0.3717103367
0.5026398148 0.0626021727 0.4030054090
0.5120027177 0.0928432273 0.3601516014
0.5032723773 0.0650519878 0.4242930940
0.5116318786 0.0510676113 0.3976748796
0.5047128999 0.1274585085 0.4178000145
0.5162212294 0.0769654661 0.3576475233
0.5124984114 0.0953728547 0.4081386064
0.5072576448 0.0901519457 0.4203383676
0.5084084895 0.1034770400 0.3610128628
0.5125068627 0.0626588854 0.3603673711
0.5067050677 0.1226496443 0.3649012028
0.5096555666 0.1474648371 0.3979938893
0.5119668621 0.0777013160 0.3597688755
0.5016353296 0.1223092983 0.4079674818
0.5098206057 0.1027773920 0.3953142086
0.4951992185 0.1375554727 0.3779042510
0.5025991942 0.1029450747 0.3682909595
0.5080518126 0.1416493654 0.4203448892
0.4994686237 0.1030476240 0.3851913748
0.4929101679 0.1373610481 0.3778881838
0.5091667500 0.0779839461 0.3650155949
0.5039961682 0.1400660495 0.4210146267
0.5028493490 0.0777718083 0.3710729349
0.5009471448 0.1350200526 0.3685972841
0.4971870926 0.1350538846 0.4002870045
0.5071303248 0.1123472936 0.3644305617
0.5014829864 0.0906465887 0.3886537522
0.4926977753 0.1209485287 0.3941790703
0.5074347225 0.0518624457 0.3751716356
0.5049606784 0.1080676287 0.3930622893
0.5005003520 0.0802006811 0.4076367824
0.5179803524 0.0484462002 0.4058704474
0.4978517555 0.1356397235 0.4021157705
0.5087408423 0.0704809800 0.4211938083
0.5020929542 0.1251891836 0.4106187472
0.4954588391 0.0754192280 0.3977542619
0.4968409189 0.1278072010 0.4033368852
0.4999795591 0.0900301973 0.3954001928
0.5102996386 0.0704028997 0.4308071070
0.4964311500 0.0699460769 0.3830479093
0.4975105723 0.0804017560 0.4004684188
0.5099762232 0.1424132230 0.4181919546
0.5046808965 0.1401260249 0.3650757442
0.5087584284 0.1201548374 0.4182570995
0.5071778855 0.0877344615 0.4197635743
0.4993599735 0.0632834624 0.3900495482
0.5013067613 0.0737303736 0.4212901236
0.5115339359 0.0875458155 0.3599321106
0.5170380539 0.0503001404 0.4127923210
0.5012485114 0.1374315251 0.3726747545
0.5099089186 0.0752837965 0.3623609274
0.5063478618 0.0933068819 0.3985440867
0.5091709495 0.0914628357 0.4075026214
0.5003504006 0.1378480744 0.3726073392
0.5067124774 0.0958080679 0.4274077000
0.4944947111 0.1353844946 0.3929277087
0.4971258609 0.0629060419 0.3853111780
0.4944476673 0.1350263603 0.3949711751
0.4931720941 0.1279345112 0.3953707489
0.5122696004 0.0527943500 0.3589289751
0.5075839228 0.1374436587 0.4243767435
0.5079594851 0.0946761034 0.4026280046
0.5102168575 0.1004098481 0.3606384606
0.4976634751 0.0780959129 0.4027805805
0.5097718192 0.0513555530 0.3730204088
0.4944430901 0.1303849765 0.4000648635
0.5227290734 0.1485546270 0.3773916961
0.4974719276 0.0893971312 0.3913099126
0.5033782630 0.0947219292 0.3897655765
0.5080264096 0.0801404249 0.3635150573
0.5092457266 0.0551177380 0.4226658636
0.5038765644 0.1346170197 0.4107063782
0.5071069144 0.1398838355 0.3610507739
0.5096672200 0.1328152430 0.4203664227
0.5041550614 0.1374304241 0.3671140973
0.5065038890 0.0724285737 0.4176179466
0.5038961924 0.0931026267 0.3908581139
0.5089651574 0.0828601242 0.4179575739
0.4990777458 0.1327066402 0.4057971580
0.4956681095 0.0702595056 0.3827895654
0.5098146077 0.0781492483 0.4302451152
0.5044719755 0.0967678138 0.4246690914
0.5097631506 0.0903124141 0.3625838749
0.5147084358 0.0505124051 0.3649051862
0.5024372538 0.1029642766 0.3875720901
0.4941868381 0.1226316244 0.3825499536
0.5000175503 0.1037087412 0.4215020679
0.5173887909 0.1464184939 0.3673464209
0.4996108142 0.0728031375 0.4058484171
0.5021090725 0.1128732153 0.4003544622
0.5049337202 0.0734532586 0.4205677928
0.5054116388 0.0827246524 0.4229883717
0.5009849072 0.0554935411 0.3759857714
0.4990785444 0.1309791156 0.4056271137
0.5065892567 0.1323869116 0.4149666376
0.5025687783 0.0649057402 0.3700675873
0.5067015459 0.1156020259 0.3647231598
0.5025898224 0.0806923784 0.4120755066
0.4969838005 0.1382812545 0.3773939318
0.4999129182 0.0528123377 0.3703640033
0.5119594684 0.0504354474 0.3678988631
0.5057630344 0.1300318336 0.3622406843
0.5107222943 0.1393145445 0.4253021969
0.4940644485 0.1332661166 0.3950323734
0.4926554540 0.0800916555 0.3880497624
0.4964545128 0.1381638899 0.3829978979
0.4956251482 0.1119857495 0.3762649926
0.5028070346 0.0775849181 0.4122569158
0.4951009825 0.1327704426 0.3753565465
0.4988614334 0.0868377331 0.3795412887
0.5050493958 0.1104378003 0.3657773024
0.4978188074 0.1422307259 0.3949615786
0.5017306275 0.0929216828 0.3885200122
0.4987319232 0.0858683440 0.3793548822
0.5118979677 0.0702186194 0.3623403162
0.4954082198 0.0928231446 0.3779755863
0.5069762076 0.0630027544 0.4125009187
0.5089153904 0.0605173022 0.4223430025
0.5187706089 0.0478208819 0.4158784427
0.5135248899 0.1023009792 0.4072907269
0.4978373751 0.0655766210 0.4213246227
0.5024198360 0.0878299917 0.3705841694
0.5088935494 0.1081062108 0.4216847718
0.5027500647 0.1378710896 0.3677189575
0.4954170951 0.0680350829 0.3826172886
0.5076707809 0.0673382206 0.4231323607
0.5050535497 0.1209398547 0.4124461996
0.4977327347 0.1347781826 0.3711615901
0.4966431492 0.0809797835 0.4217695545
0.4989588463 0.1360087076 0.3741962466
0.4955844319 0.1175908660 0.3780521949
0.5015315225 0.1316388447 0.3718631287
0.4967960297 0.0831737940 0.3947018749
0.4980709159 0.0654140561 0.3903578277
0.5028238112 0.1103083369 0.3976291761
0.5088103140 0.0756252986 0.3668569155
0.4955623336 0.0705409145 0.3852102334
0.5079594973 0.1103337807 0.3607610563
0.4957202111 0.0653356132 0.3808794299
0.5019991142 0.0587659028 0.4201513956
0.4996875929 0.0827088352 0.3751610232
0.5012467823 0.0658997836 0.4238182519
0.5044519616 0.0775182561 0.4259231465
0.5052189447 0.1428674665 0.3656105219
0.5163887878 0.0479860259 0.4152173115
0.5130179499 0.1030819863 0.4127847822
0.5071041331 0.1118525916 0.4057746282
0.4965047724 0.0953352639 0.3771814065
0.5086349980 0.1310987260 0.4184541507
0.4937853734 0.1302279561 0.3850366078
0.5003028358 0.0772796467 0.4080895481
0.5127593614 0.0506198726 0.3648315852
0.4967741854 0.0800391237 0.3981949056
0.5096691754 0.1437142652 0.4247612015
0.5050483414 0.1107956236 0.4229482664
0.4972084980 0.1329357901 0.3728564030
0.4944484955 0.1329043438 0.3976327385
0.5052601010 0.0924872192 0.4002787533
0.4992896326 0.0652411394 0.3772344511
0.5161523929 0.1012575579 0.4078692762
0.5119018512 0.0582456541 0.4194769594
0.4932318759 0.1251397607 0.3829545884
0.5005340259 0.0774864158 0.3735939622
0.5090812691 0.1070393265 0.3628725968
0.5087023550 0.1207424822 0.4270088632
0.5045728038 0.1149478213 0.4245876854
0.4925729173 0.1229368235 0.3879996220
0.5129243992 0.1451608178 0.3637657962
0.5042852170 0.1169455130 0.4080099207
0.5078544722 0.1309796102 0.4205779060
0.5026643875 0.1178355811 0.3704254699
0.4975725645 0.0877736174 0.3774268500
0.5072697277 0.1054648177 0.4204611495
0.4955564536 0.1206597540 0.3783730772
0.5056568214 0.0980757867 0.3656764023
0.5086924935 0.0618916279 0.4137904033
0.5236716527 0.1496404610 0.3833887182
0.5071936450 0.0680325290 0.3679034182
0.5019724081 0.1352910713 0.3693524491
0.4931784307 0.1347958983 0.3824461695
0.5026950543 0.0729356228 0.3736187205
0.5097719786 0.1048079027 0.3972749758
0.5027794958 0.0807776575 0.3704360452
0.5095278654 0.1433041796 0.3633111364
0.5045484594 0.0601692174 0.3702614371
0.4947900372 0.1328619264 0.3826770538
0.4966256511 0.1404826662 0.3799363241
0.4982517527 0.1225887326 0.3736060636
0.5077273929 0.0680732193 0.3658015628
0.5048851313 0.0954637539 0.3947837210
0.5122505945 0.1286633632 0.4297012789
0.5045581253 0.1305083072 0.4130761588
0.5004240532 0.1251951589 0.3711280154
0.5071611568 0.0650035787 0.4228058775
0.5018865986 0.0907660840 0.3924902653
0.5139277766 0.1018567633 0.4117432587
0.4927954432 0.1328931981 0.3904381716
0.5249217836 0.1488460385 0.3783397840
0.4921861944 0.1253018804 0.3921012538
0.5075113306 0.0921522995 0.3637302660
0.4972626877 0.1053440137 0.3749179897
0.5046757739 0.1051771460 0.3672130158
0.4967219846 0.0777430710 0.3798711937
0.5070641025 0.0553811229 0.3700430701
0.5031648374 0.1278561225 0.3683852292
0.4954574708 0.0730540337 0.3977721656
0.4965382368 0.0674615761 0.3829939898
0.5120440327 0.1044492516 0.4027751096
0.5143631352 0.0981888360 0.4074805217
